# .PCD v0.7 - Point Cloud Data file format
VERSION 0.7
FIELDS x y z rgb
SIZE 4 4 4 4
TYPE F F F F
COUNT 1 1 1 1
WIDTH 1173
HEIGHT 1
VIEWPOINT 0 0 0 1 0 0 0
POINTS 1173
DATA ascii
-0.010000026 -0.094780274 0.0072912266 0
-0.0096361209 -0.094625898 0.0097269136 0
-0.0075745764 -0.094733395 -0.009999685 0
-0.0073851678 -0.094344974 0.010000315 0
-0.0045497757 -0.094546877 -0.0099996738 0
-0.0045565516 -0.094343148 0.010000324 0
-0.0015506182 -0.09484335 -0.0099996608 0
-0.0016851309 -0.09457133 0.010000337 0
0.0015084876 -0.094280109 -0.0099996524 0
0.0014004486 -0.094367504 0.010000347 0
0.0047728624 -0.094165258 -0.0099996421 0
0.0044995034 -0.094558507 0.010000356 0
0.0076364661 -0.094692312 -0.0099996291 0
0.0077283774 -0.094465859 0.010000371 0
0.0098822685 -0.094674096 -0.0097705526 0
0.010000027 -0.094583437 -0.0075310022 0
0.010000016 -0.094539173 -0.0046865824 0
0.010000004 -0.094546258 -0.0012561934 0
0.0099999933 -0.094304919 0.0014765161 0
0.0099999839 -0.094502717 0.0046991594 0
0.0099999737 -0.094251022 0.0078336587 0
0.009718392 -0.094727874 0.0098192859 0
-0.0098949661 -0.091471158 -0.0095785586 0
-0.0099999756 -0.091723725 -0.0074729812 0
-0.0099999839 -0.09152849 -0.0047076978 0
-0.0099999933 -0.091458693 -0.0013315371 0
-0.010000006 -0.091760546 0.0014893537 0
-0.010000014 -0.09153574 0.004489617 0
-0.010000025 -0.09167733 0.0074946708 0
-0.0097358394 -0.091387227 0.0097383317 0
-0.0073741605 -0.091629975 -0.0099996934 0
-0.0075110449 -0.091575734 0.010000303 0
-0.0045600999 -0.091204084 -0.009999685 0
-0.0045909262 -0.091544345 0.010000315 0
-0.0014249933 -0.091697276 -0.0099996729 0
-0.0016978543 -0.091510639 0.010000323 0
0.001737788 -0.091490887 -0.0099996626 0
0.0013850067 -0.091598332 0.010000337 0
0.0046329112 -0.091356806 -0.0099996515 0
0.004256452 -0.091759279 0.010000349 0
0.0072426884 -0.091581486 -0.0099996431 0
0.0074830339 -0.091593578 0.010000359 0
0.0097576333 -0.091491207 -0.0097254254 0
0.010000027 -0.091520399 -0.007524387 0
0.010000016 -0.091517821 -0.0041822852 0
0.010000004 -0.091745555 -0.0015313417 0
0.0099999942 -0.091319576 0.0016379204 0
0.0099999858 -0.091463976 0.0044585909 0
0.0099999737 -0.091329671 0.0077490918 0
0.0098325834 -0.091147572 0.009681901 0
-0.0097072627 -0.088517971 -0.009715667 0
-0.0099999737 -0.088672854 -0.0074906959 0
-0.0099999849 -0.088441223 -0.0044410834 0
-0.009999997 -0.088407114 -0.0012335376 0
-0.010000006 -0.088397443 0.0015138908 0
-0.010000016 -0.088464446 0.0045662425 0
-0.010000026 -0.088683687 0.0075605884 0
-0.009857676 -0.088603482 0.0098285507 0
-0.0074610878 -0.088397063 -0.0099997073 0
-0.0073860115 -0.088372536 0.010000292 0
-0.004276616 -0.088380255 -0.0099996943 0
-0.0045392183 -0.088386275 0.010000304 0
-0.0015668831 -0.088502236 -0.0099996841 0
-0.0013290698 -0.088510029 0.010000314 0
0.0014393554 -0.088443927 -0.0099996747 0
0.0017880214 -0.08851058 0.010000328 0
0.004484525 -0.08872889 -0.0099996636 0
0.0045744022 -0.088477224 0.010000338 0
0.0073059313 -0.088349581 -0.0099996552 0
0.0073042247 -0.088562161 0.010000345 0
0.0097752092 -0.088169217 -0.0097148595 0
0.010000028 -0.088851891 -0.0074357516 0
0.010000017 -0.088369392 -0.0043278551 0
0.010000004 -0.088611715 -0.0014864891 0
0.0099999951 -0.088720448 0.0016249967 0
0.0099999839 -0.088551044 0.0045995344 0
0.0099999728 -0.088626526 0.0076738619 0
0.0096368743 -0.088368133 0.0098654395 0
-0.0097698551 -0.085244954 -0.0097592091 0
-0.0099999709 -0.085625604 -0.0075742472 0
-0.0099999849 -0.085310869 -0.004316038 0
-0.0099999923 -0.085798316 -0.001841095 0
-0.010000004 -0.085817181 0.0014258275 0
-0.010000016 -0.085523114 0.0047320649 0
-0.010000028 -0.085332304 0.0073901867 0
-0.0098323068 -0.085436918 0.0097618364 0
-0.0078007039 -0.085412331 -0.0099997194 0
-0.0075438139 -0.085722074 0.010000283 0
-0.0044394839 -0.085594364 -0.0099997073 0
-0.0043928945 -0.085261062 0.010000291 0
-0.0013046125 -0.085655481 -0.0099996934 0
-0.0016217412 -0.085602008 0.010000302 0
0.0017810686 -0.08534544 -0.0099996831 0
0.0012158192 -0.085465811 0.010000314 0
0.0043251007 -0.085371546 -0.0099996738 0
0.0046369815 -0.085448876 0.010000327 0
0.0076187914 -0.085512802 -0.0099996645 0
0.0076877899 -0.085391112 0.010000335 0
0.0097704791 -0.08533521 -0.0097789066 0
0.010000026 -0.085655123 -0.0077116569 0
0.010000014 -0.085390732 -0.0043482352 0
0.010000004 -0.085378796 -0.0014637236 0
0.0099999933 -0.085037008 0.0015734555 0
0.0099999812 -0.085391082 0.0045023109 0
0.0099999737 -0.085344747 0.007341818 0
0.0098166429 -0.085294478 0.0097429426 0
-0.009772554 -0.082375452 -0.0097620059 0
-0.0099999728 -0.082635008 -0.0076445802 0
-0.009999983 -0.082660481 -0.0044994126 0
-0.0099999951 -0.082607701 -0.0014293279 0
-0.010000005 -0.082429953 0.0015280059 0
-0.010000017 -0.082422778 0.0046392563 0
-0.010000029 -0.082723148 0.0075897113 0
-0.0097678872 -0.082303807 0.009754424 0
-0.0077768262 -0.082544297 -0.0099997269 0
-0.0075033819 -0.082609072 0.010000268 0
-0.0047419327 -0.0823204 -0.0099997185 0
-0.0047919652 -0.082519695 0.010000282 0
-0.0013271105 -0.082507811 -0.0099997036 0
-0.0016329437 -0.082745187 0.010000295 0
0.0011514399 -0.08247336 -0.0099996952 0
0.001375414 -0.08250045 0.010000304 0
0.0045690634 -0.082418129 -0.0099996841 0
0.0046138931 -0.082573242 0.010000314 0
0.0077035674 -0.08232408 -0.0099996738 0
0.0076769446 -0.082635082 0.010000326 0
0.009655945 -0.082198903 -0.0098816026 0
0.010000029 -0.082278609 -0.0079213735 0
0.010000016 -0.082521059 -0.004659527 0
0.010000006 -0.082420148 -0.0015422393 0
0.009999997 -0.082133144 0.0012299096 0
0.0099999839 -0.082559988 0.0042586871 0
0.0099999709 -0.082400165 0.0073923692 0
0.009779376 -0.082573503 0.0096358061 0
-0.0098042293 -0.079254702 -0.0096988855 0
-0.0099999709 -0.07969851 -0.0075454777 0
-0.0099999839 -0.079360522 -0.0044607418 0
-0.0099999933 -0.079694137 -0.0015155615 0
-0.010000006 -0.07923229 0.0013094476 0
-0.010000017 -0.079277866 0.004666965 0
-0.010000029 -0.079214558 0.0076008639 0
-0.0098181367 -0.079429284 0.0097285211 0
-0.007536815 -0.079580694 -0.0099997399 0
-0.0073451037 -0.079371683 0.010000262 0
-0.0044671935 -0.079276867 -0.0099997297 0
-0.0044848807 -0.079449028 0.010000273 0
-0.0012195373 -0.079617046 -0.0099997148 0
-0.0013959317 -0.07939449 0.010000282 0
0.0010040323 -0.079281233 -0.0099997101 0
0.0012089043 -0.079415724 0.010000291 0
0.0043492513 -0.079369791 -0.0099996943 0
0.0044290549 -0.079662383 0.010000305 0
0.0073462306 -0.079577483 -0.0099996869 0
0.0074703638 -0.079417966 0.010000315 0
0.0097012725 -0.079388879 -0.0098726526 0
0.010000028 -0.079645663 -0.0078747338 0
0.010000016 -0.079409137 -0.0046832482 0
0.010000008 -0.079572991 -0.0018874274 0
0.0099999923 -0.079581656 0.0016184179 0
0.0099999839 -0.079467356 0.0044454727 0
0.00999997 -0.079402253 0.0073505654 0
0.0096457051 -0.07979209 0.0098131932 0
-0.0096149044 -0.07676632 -0.0098508066 0
-0.0099999737 -0.076058172 -0.0076929252 0
-0.0099999821 -0.076327793 -0.0046263826 0
-0.0099999933 -0.076499566 -0.0013983434 0
-0.010000004 -0.076381512 0.0014745045 0
-0.010000016 -0.076710068 0.0045292242 0
-0.010000025 -0.076636575 0.0075594475 0
-0.0097714094 -0.076608285 0.009803487 0
-0.0073266178 -0.076812334 -0.0099997493 0
-0.0076785572 -0.076553002 0.010000248 0
-0.0044823247 -0.076357886 -0.009999739 0
-0.0043071955 -0.076521732 0.010000261 0
-0.0011256497 -0.076268986 -0.009999726 0
-0.0013933937 -0.076245926 0.010000273 0
0.0014653614 -0.076603487 -0.0099997139 0
0.001468168 -0.076556608 0.010000284 0
0.0044256817 -0.076690286 -0.0099997073 0
0.0046919747 -0.076009989 0.010000291 0
0.0074016089 -0.076330811 -0.0099996952 0
0.0073469509 -0.076406538 0.010000304 0
0.009834935 -0.076927811 -0.00988896 0
0.010000027 -0.076414526 -0.0074559632 0
0.010000017 -0.076086342 -0.0042687156 0
0.010000004 -0.076445915 -0.0015782124 0
0.0099999942 -0.076458335 0.0015621424 0
0.0099999839 -0.076438919 0.0046312753 0
0.00999997 -0.07645148 0.0075216834 0
0.0097225634 -0.076773979 0.0097837644 0
-0.0098303016 -0.073474735 -0.0095596705 0
-0.0099999737 -0.073507331 -0.0073715653 0
-0.009999983 -0.073802896 -0.0043294532 0
-0.0099999923 -0.073526189 -0.0014349378 0
-0.010000004 -0.073699936 0.0010448828 0
-0.010000015 -0.073506489 0.0044729286 0
-0.010000027 -0.073605753 0.0073362635 0
-0.0096730506 -0.073126346 0.0098617179 0
-0.007524271 -0.07324668 -0.0099997614 0
-0.007815511 -0.073501043 0.010000238 0
-0.0047198334 -0.073418789 -0.0099997502 0
-0.0048213722 -0.073194914 0.010000249 0
-0.0014047662 -0.073634662 -0.0099997353 0
-0.0014277531 -0.073351376 0.010000261 0
0.001483842 -0.073409781 -0.0099997288 0
0.0012262411 -0.073566251 0.010000272 0
0.0043903096 -0.073577777 -0.0099997148 0
0.0045831506 -0.073276848 0.010000282 0
0.0076577519 -0.07340385 -0.0099997073 0
0.0073867887 -0.073684938 0.010000291 0
0.0098163178 -0.073979571 -0.0096143046 0
0.010000029 -0.073134571 -0.0077356403 0
0.010000015 -0.073256955 -0.0044165561 0
0.010000005 -0.073555812 -0.0013162268 0
0.0099999923 -0.073400699 0.001298627 0
0.0099999849 -0.073347636 0.0044588428 0
0.0099999746 -0.073668443 0.0075110686 0
0.009792394 -0.07332769 0.0098432172 0
-0.012323888 -0.069557302 -0.012137135 0
-0.012311129 -0.069736131 -0.01082739 0
-0.012335098 -0.069686033 -0.0079933973 0
-0.012320601 -0.069646195 -0.0047122203 0
-0.01235113 -0.069606714 -0.0013237345 0
-0.012359856 -0.069647066 0.0015309444 0
-0.012366825 -0.069543928 0.0043145674 0
-0.012314503 -0.069710389 0.0070796604 0
-0.012345921 -0.069635592 0.010511578 0
-0.012271598 -0.069396824 0.012395272 0
-0.010366753 -0.069685623 -0.012294097 0
-0.010605771 -0.070429362 -0.010242193 0
-0.010520572 -0.070400573 -0.0072295861 0
-0.010475811 -0.070443764 -0.0044349856 0
-0.010316845 -0.070515327 -0.0018208728 0
-0.010437052 -0.07061252 0.0016465528 0
-0.010459687 -0.070485726 0.0046032779 0
-0.010637986 -0.07041008 0.0074809385 0
-0.010461354 -0.070284508 0.010198412 0
-0.010451003 -0.069518849 0.012371968 0
-0.0078962501 -0.069659203 -0.012321966 0
-0.007507782 -0.0704014 -0.010420607 0
-0.0074468153 -0.070440255 0.010517533 0
-0.0073857596 -0.069660619 0.012322645 0
-0.00466607 -0.06966944 -0.012384006 0
-0.0044868039 -0.070594996 -0.010329053 0
-0.0043410752 -0.070464194 0.010553265 0
-0.0045673591 -0.069551684 0.01238585 0
-0.0018439778 -0.069754906 -0.012304648 0
-0.0014096652 -0.070493937 -0.010576767 0
-0.001710709 -0.070451446 0.010396067 0
-0.0016271624 -0.069582164 0.012356005 0
0.0015931519 -0.069621116 -0.012361724 0
0.0017940723 -0.07030911 -0.010453543 0
0.0014666348 -0.070423476 0.01054959 0
0.001384655 -0.069769494 0.01230698 0
0.0045776847 -0.06969016 -0.012342314 0
0.0044598402 -0.070356846 -0.010492152 0
0.0042252722 -0.070502028 0.010302258 0
0.0049362099 -0.069520511 0.012392852 0
0.0076088468 -0.06960614 -0.012359242 0
0.0073613413 -0.070417136 -0.010484556 0
0.0073139225 -0.070290461 0.010573561 0
0.0072487718 -0.069646142 0.012344831 0
0.010244151 -0.069724679 -0.012296414 0
0.01036502 -0.070346341 -0.010459403 0
0.010422476 -0.070639923 -0.0075417235 0
0.01065375 -0.070461042 -0.0044139228 0
0.010348258 -0.07058309 -0.0019814633 0
0.010600396 -0.07064008 0.0015541562 0
0.010332123 -0.070623197 0.004383083 0
0.010479843 -0.070389658 0.0076095946 0
0.010546951 -0.070217729 0.010571554 0
0.010718872 -0.069596857 0.01235506 0
0.012292957 -0.069603778 -0.012213442 0
0.012335369 -0.069720887 -0.010819447 0
0.012353905 -0.069595143 -0.0074280272 0
0.012371517 -0.069379605 -0.0047890441 0
0.012338078 -0.069632627 -0.0016528189 0
0.012334517 -0.069722861 0.0016062285 0
0.012319219 -0.069744252 0.0049715424 0
0.012325972 -0.069792122 0.0068571325 0
0.012379973 -0.06963902 0.010378405 0
0.012304669 -0.069577344 0.012352226 0
-0.012340817 -0.066862576 -0.012148387 0
-0.012399962 -0.06771075 -0.010629502 0
-0.012399973 -0.067608461 -0.0074761771 0
-0.012399985 -0.067305133 -0.0043977709 0
-0.012399997 -0.067461386 -0.0012861443 0
-0.012400009 -0.067491025 0.0017356601 0
-0.012400018 -0.067621268 0.0046427301 0
-0.012400028 -0.06773413 0.0076008034 0
-0.012400039 -0.067420252 0.01057485 0
-0.01227338 -0.067125648 0.012361991 0
-0.010652135 -0.067304574 -0.012399795 0
-0.010377981 -0.067666873 0.012400208 0
-0.0076229302 -0.06780678 -0.012399783 0
-0.0076363571 -0.06767413 0.012400218 0
-0.0047697653 -0.067401141 -0.012399775 0
-0.0045001628 -0.067629322 0.01240023 0
-0.0015302714 -0.067199513 -0.012399764 0
-0.0016820688 -0.067425556 0.012400235 0
0.0014149519 -0.067598343 -0.012399748 0
0.0014928621 -0.067494735 0.012400251 0
0.0048204088 -0.067449339 -0.01239974 0
0.0044026398 -0.067555353 0.012400262 0
0.0073907087 -0.067484461 -0.012399729 0
0.0074388231 -0.067421064 0.012400271 0
0.010594402 -0.067406237 -0.012399718 0
0.010580533 -0.067553014 0.012400283 0
0.012314906 -0.067382574 -0.012344187 0
0.012400038 -0.067509599 -0.010266866 0
0.012400027 -0.067423746 -0.0073800096 0
0.012400018 -0.067196496 -0.0047234194 0
0.012400005 -0.06770546 -0.0013387697 0
0.012399996 -0.067388691 0.0013014466 0
0.012399985 -0.067410327 0.0044758348 0
0.012399975 -0.067661792 0.0071651489 0
0.012399961 -0.067495018 0.010738284 0
0.012396164 -0.067154884 0.012383702 0
-0.01223179 -0.065109164 -0.012318099 0
-0.012399961 -0.064684696 -0.010431038 0
-0.012399972 -0.064350881 -0.0078436239 0
-0.012399985 -0.064458005 -0.0042791595 0
-0.012399995 -0.064371198 -0.0016177266 0
-0.012400008 -0.064311109 0.0016300674 0
-0.012400019 -0.064197093 0.0047956174 0
-0.012400028 -0.064392865 0.0074126632 0
-0.01240004 -0.064178772 0.010712308 0
-0.012300252 -0.064594194 0.012275233 0
-0.010507208 -0.06475345 -0.012399805 0
-0.010624569 -0.064411134 0.012400196 0
-0.0074799443 -0.064312913 -0.012399795 0
-0.0073671713 -0.064344577 0.012400206 0
-0.0044495901 -0.064683802 -0.012399782 0
-0.0045291251 -0.064444065 0.012400217 0
-0.0016440769 -0.064354151 -0.012399773 0
-0.0014658432 -0.06456884 0.012400229 0
0.0014403948 -0.064305559 -0.012399762 0
0.0014407303 -0.064628154 0.01240024 0
0.0045951749 -0.064411722 -0.012399752 0
0.0043059359 -0.064546421 0.01240025 0
0.0072523095 -0.064176999 -0.012399742 0
0.0076091057 -0.064528026 0.012400262 0
0.010614987 -0.06450703 -0.012399728 0
0.010266026 -0.064640388 0.012400273 0
0.012305208 -0.063974537 -0.012304958 0
0.012400039 -0.064501025 -0.010735578 0
0.012400028 -0.064068347 -0.0075828629 0
0.012400017 -0.064212225 -0.0044002659 0
0.012400006 -0.064378813 -0.0015581573 0
0.012399995 -0.064827465 0.0016587762 0
0.012399985 -0.06438911 0.004498092 0
0.012399973 -0.064297184 0.0076693716 0
0.012399965 -0.064609803 0.010142784 0
0.012283543 -0.064545676 0.012316435 0
-0.012284572 -0.061617069 -0.012335214 0
-0.012399962 -0.061402336 -0.010472849 0
-0.012399974 -0.061248168 -0.0074079982 0
-0.012399986 -0.061696548 -0.0042707492 0
-0.012399996 -0.061380185 -0.0018060021 0
-0.012400006 -0.061552327 0.0013688373 0
-0.012400018 -0.061573148 0.0046240035 0
-0.012400026 -0.061464265 0.0072560343 0
-0.012400039 -0.061484907 0.010446785 0
-0.012276232 -0.061902847 0.012393765 0
-0.010418194 -0.061476015 -0.012399815 0
-0.010408787 -0.061341789 0.012400185 0
-0.0074812975 -0.06163159 -0.012399804 0
-0.007685632 -0.061419126 0.012400196 0
-0.0045359852 -0.061558429 -0.012399795 0
-0.0047917487 -0.061360043 0.012400206 0
-0.0014889502 -0.061648268 -0.01239978 0
-0.0012611486 -0.061510146 0.012400219 0
0.0012036592 -0.061841689 -0.012399772 0
0.0016204235 -0.061834998 0.012400229 0
0.004718658 -0.06126311 -0.012399763 0
0.0044130399 -0.061455041 0.01240024 0
0.0076452303 -0.06166045 -0.01239975 0
0.0075153019 -0.061621353 0.012400252 0
0.01038908 -0.061291773 -0.012399741 0
0.010521955 -0.061413303 0.012400261 0
0.012345788 -0.061521664 -0.012253321 0
0.012400037 -0.06155777 -0.010106038 0
0.012400027 -0.061623093 -0.007393383 0
0.012400017 -0.061578885 -0.0044760881 0
0.012400006 -0.061671142 -0.0013854336 0
0.012399995 -0.06143361 0.0016808744 0
0.012399985 -0.061510302 0.0047438703 0
0.012399972 -0.061481245 0.0076872483 0
0.012399963 -0.061487142 0.010396431 0
0.012329563 -0.061241474 0.012294582 0
-0.012235778 -0.058489345 -0.012397803 0
-0.012399963 -0.058428701 -0.01056568 0
-0.012399974 -0.058441345 -0.0074925032 0
-0.012399985 -0.058234632 -0.004262235 0
-0.012399995 -0.058423117 -0.0017268829 0
-0.012400007 -0.058559533 0.0015992222 0
-0.012400017 -0.058754507 0.0042412546 0
-0.012400028 -0.058522068 0.0076018446 0
-0.01240004 -0.058896229 0.010689133 0
-0.012385027 -0.058796778 0.012291417 0
-0.01043294 -0.058808848 -0.012399825 0
-0.010486811 -0.058364253 0.012400173 0
-0.0074884212 -0.058599304 -0.012399816 0
-0.007544708 -0.058459502 0.012400186 0
-0.0044819159 -0.058345202 -0.012399806 0
-0.0044033937 -0.058423173 0.012400198 0
-0.0014324923 -0.058369771 -0.012399795 0
-0.0016994247 -0.058241196 0.012400206 0
0.0015690806 -0.058518011 -0.012399784 0
0.0014495661 -0.058705386 0.012400219 0
0.0045048292 -0.058613248 -0.012399772 0
0.0047704233 -0.058550596 0.012400231 0
0.007342807 -0.058431562 -0.012399763 0
0.0075844573 -0.05857509 0.012400242 0
0.010270773 -0.058468893 -0.012399754 0
0.010431997 -0.058339462 0.01240025 0
0.012275845 -0.058874458 -0.012317186 0
0.012400039 -0.058606993 -0.010421701 0
0.012400027 -0.058458112 -0.0074722171 0
0.012400017 -0.058468357 -0.0044534607 0
0.012400007 -0.058430165 -0.001681101 0
0.012399996 -0.058231376 0.0015712404 0
0.012399985 -0.058231886 0.0045551001 0
0.012399974 -0.058538787 0.0073208907 0
0.012399963 -0.058603026 0.010317941 0
0.012316721 -0.058436502 0.012285447 0
-0.012226989 -0.055092059 -0.012359203 0
-0.012399962 -0.055443022 -0.010599233 0
-0.012399972 -0.055174079 -0.0078269392 0
-0.012399985 -0.055361241 -0.0044909902 0
-0.012399996 -0.055674754 -0.0016223077 0
-0.012400007 -0.055748377 0.0015110791 0
-0.012400017 -0.055460505 0.0044933595 0
-0.012400028 -0.055610958 0.0073572914 0
-0.01240004 -0.0552991 0.01091131 0
-0.012296659 -0.05585283 0.012303482 0
-0.010695999 -0.05546755 -0.012399839 0
-0.010555176 -0.055304401 0.012400162 0
-0.0077520087 -0.055501435 -0.012399828 0
-0.0077517298 -0.055420298 0.012400174 0
-0.0045021502 -0.055485081 -0.012399815 0
-0.0044232225 -0.055521872 0.012400187 0
-0.0015773367 -0.05536503 -0.012399805 0
-0.0011763269 -0.05557207 0.012400197 0
0.001560673 -0.055487663 -0.012399793 0
0.0012395984 -0.055670694 0.012400206 0
0.0048091607 -0.055584013 -0.012399782 0
0.0045829718 -0.055505473 0.012400218 0
0.0074637583 -0.05570114 -0.012399772 0
0.0072956993 -0.055500422 0.012400229 0
0.010350827 -0.05528181 -0.012399763 0
0.01073914 -0.055803385 0.012400243 0
0.012263934 -0.055465162 -0.012320768 0
0.01240004 -0.055376429 -0.010696706 0
0.012400028 -0.055625226 -0.0074914237 0
0.012400016 -0.055372719 -0.0042680474 0
0.012400007 -0.05548751 -0.0014763231 0
0.012399996 -0.055575829 0.0013540753 0
0.012399985 -0.05524195 0.004535161 0
0.012399974 -0.055693466 0.0072606215 0
0.012399963 -0.055347621 0.010264236 0
0.012305631 -0.055582829 0.012355719 0
-0.012294397 -0.052422021 -0.012330926 0
-0.012399963 -0.052222162 -0.010640569 0
-0.012399975 -0.052416824 -0.0074278349 0
-0.012399986 -0.052551325 -0.0044101914 0
-0.012399995 -0.052600317 -0.0015463886 0
-0.012400007 -0.05249311 0.0014725815 0
-0.012400018 -0.052253228 0.0045091296 0
-0.012400029 -0.052699737 0.0078344131 0
-0.012400039 -0.052529652 0.01056386 0
-0.012317074 -0.052496679 0.01222798 0
-0.010743839 -0.052191447 -0.012399851 0
-0.010771 -0.052209198 0.012400151 0
-0.0071844044 -0.052625757 -0.012399836 0
-0.0077936379 -0.052169066 0.012400162 0
-0.004368105 -0.05264606 -0.012399827 0
-0.0044738883 -0.052719399 0.012400175 0
-0.0013744371 -0.052430581 -0.012399816 0
-0.0018598838 -0.052779477 0.012400186 0
0.0014902577 -0.052387703 -0.012399805 0
0.0013333262 -0.052430324 0.012400196 0
0.0046171295 -0.052584637 -0.012399795 0
0.0043788427 -0.052449986 0.012400207 0
0.007301263 -0.052275058 -0.012399784 0
0.007247577 -0.052827179 0.012400218 0
0.01063178 -0.052460086 -0.012399772 0
0.010332744 -0.052617926 0.012400229 0
0.012348855 -0.052609589 -0.012294462 0
0.012400039 -0.05253718 -0.010263401 0
0.012400027 -0.052497409 -0.0075392271 0
0.012400017 -0.052463405 -0.0045184549 0
0.012400005 -0.052654948 -0.0013673195 0
0.012399996 -0.052789953 0.0014142548 0
0.012399985 -0.052596144 0.0043292302 0
0.012399974 -0.052453198 0.0074572805 0
0.012399964 -0.052716687 0.010582464 0
0.012272572 -0.052500293 0.012318739 0
-0.012166569 -0.049372479 -0.012376548 0
-0.012399963 -0.049298752 -0.010607507 0
-0.012399974 -0.049835257 -0.0073881913 0
-0.012399984 -0.049421489 -0.0046683294 0
-0.012399997 -0.049709007 -0.0016509867 0
-0.012400007 -0.049507644 0.0015358136 0
-0.012400015 -0.049485631 0.0042276145 0
-0.012400029 -0.049247999 0.0076160217 0
-0.012400039 -0.049399696 0.010613605 0
-0.012282148 -0.049462572 0.012304754 0
-0.010507443 -0.049944416 -0.012399858 0
-0.010556609 -0.049574837 0.012400143 0
-0.0073868376 -0.049376801 -0.012399849 0
-0.0072639459 -0.049575042 0.012400155 0
-0.0045855721 -0.049797285 -0.012399836 0
-0.0042975466 -0.049602527 0.012400164 0
-0.0016269265 -0.049185827 -0.012399828 0
-0.0014342098 -0.049764033 0.012400175 0
0.0013663761 -0.049435079 -0.012399816 0
0.0014071263 -0.049412247 0.012400184 0
0.004407499 -0.049415383 -0.012399806 0
0.0043705027 -0.049499631 0.012400195 0
0.0071869474 -0.049470171 -0.012399795 0
0.0076144477 -0.049387794 0.012400207 0
0.010521539 -0.04942799 -0.012399784 0
0.010685644 -0.049369693 0.012400218 0
0.012340239 -0.049143288 -0.012298428 0
0.012400039 -0.049728416 -0.010430208 0
0.012400028 -0.049335279 -0.0075524393 0
0.012400017 -0.049593434 -0.0045396565 0
0.012400007 -0.049604427 -0.0014591764 0
0.012399997 -0.049497429 0.0012396278 0
0.012399985 -0.049358066 0.0042840037 0
0.012399972 -0.049581975 0.0075992304 0
0.012399964 -0.04956314 0.010399705 0
0.012288035 -0.04951188 0.012272534 0
-0.012306569 -0.046486355 -0.012289173 0
-0.012399963 -0.046476826 -0.010311381 0
-0.012399973 -0.046209078 -0.0073425607 0
-0.012399984 -0.046757329 -0.0049121138 0
-0.012399996 -0.046610527 -0.0013319197 0
-0.012400007 -0.046562109 0.0013929096 0
-0.012400016 -0.046599217 0.0044857035 0
-0.012400029 -0.046550166 0.0077767661 0
-0.012400039 -0.046519373 0.010667042 0
-0.01230203 -0.04577497 0.01228169 0
-0.010667162 -0.046564452 -0.012399867 0
-0.010756853 -0.04669464 0.012400131 0
-0.0076895682 -0.046596803 -0.012399861 0
-0.0075493399 -0.04637349 0.012400142 0
-0.004566994 -0.046591885 -0.012399849 0
-0.0043896181 -0.046632998 0.012400154 0
-0.0014148796 -0.046657316 -0.012399837 0
-0.0014458681 -0.046505947 0.012400163 0
0.0016843259 -0.046850946 -0.012399824 0
0.0013802004 -0.046298668 0.012400173 0
0.004443984 -0.04652226 -0.012399818 0
0.0043701716 -0.046387199 0.012400185 0
0.0076437811 -0.046648573 -0.012399804 0
0.0073364694 -0.046225898 0.012400195 0
0.010497939 -0.046320159 -0.012399795 0
0.010350888 -0.046357892 0.012400205 0
0.012288159 -0.046343639 -0.012268006 0
0.012400039 -0.046685841 -0.010551812 0
0.012400028 -0.046660919 -0.0076492736 0
0.012400016 -0.046289891 -0.0044354056 0
0.012400008 -0.04638695 -0.0017286661 0
0.012399995 -0.046359137 0.0014654878 0
0.012399985 -0.046204377 0.0044586477 0
0.012399972 -0.046516325 0.0075209541 0
0.012399962 -0.046563752 0.010517455 0
0.012260195 -0.04626254 0.012343258 0
-0.012227057 -0.043636397 -0.012389124 0
-0.012399964 -0.043615758 -0.010127799 0
-0.012399973 -0.043408979 -0.0075785066 0
-0.012399985 -0.043339744 -0.0042851646 0
-0.012399996 -0.043260232 -0.0014210902 0
-0.012400006 -0.043766197 0.0014538628 0
-0.012400017 -0.043420695 0.0044704522 0
-0.012400028 -0.043468863 0.0073568374 0
-0.012400039 -0.043459684 0.01058267 0
-0.012334636 -0.043494955 0.01221675 0
-0.010597023 -0.043553598 -0.012399881 0
-0.01067933 -0.04330942 0.012400119 0
-0.0074921404 -0.043424714 -0.012399872 0
-0.0075994642 -0.04351785 0.012400131 0
-0.0045612263 -0.043393269 -0.012399861 0
-0.004458359 -0.043759875 0.012400144 0
-0.0016275971 -0.043114994 -0.01239985 0
-0.0013068324 -0.043331336 0.012400153 0
0.0014712167 -0.04349811 -0.012399837 0
0.0015296353 -0.043821458 0.012400165 0
0.0044114944 -0.043610953 -0.012399826 0
0.004567374 -0.043427203 0.012400175 0
0.0075330921 -0.043565288 -0.012399817 0
0.0073584216 -0.043311082 0.012400184 0
0.010546223 -0.043394029 -0.012399806 0
0.010369068 -0.043397002 0.012400195 0
0.012370794 -0.043461587 -0.012256587 0
0.012400039 -0.043678615 -0.010483029 0
0.012400028 -0.043606978 -0.0076581864 0
0.012400017 -0.043547392 -0.0042640166 0
0.012400008 -0.043890297 -0.00170853 0
0.012399995 -0.043594725 0.0015049551 0
0.012399985 -0.043307688 0.0044344761 0
0.012399974 -0.043733906 0.0072966209 0
0.012399962 -0.04332592 0.010651588 0
0.012243718 -0.043423839 0.012292137 0
-0.01233403 -0.040223435 -0.012275322 0
-0.012399962 -0.04032683 -0.010493151 0
-0.012399973 -0.04069088 -0.007654876 0
-0.012399984 -0.040614177 -0.0046384726 0
-0.012399996 -0.040880505 -0.0015623868 0
-0.012400005 -0.04086161 0.0015038127 0
-0.012400018 -0.04077787 0.0046910956 0
-0.012400027 -0.040441792 0.007452941 0
-0.012400039 -0.040429696 0.010425021 0
-0.012292195 -0.039980151 0.012233921 0
-0.010517281 -0.040734049 -0.012399892 0
-0.01049628 -0.040556822 0.01240011 0
-0.0073800697 -0.040614132 -0.01239988 0
-0.0077942712 -0.040423732 0.01240012 0
-0.0043899254 -0.040668916 -0.01239987 0
-0.0044879937 -0.040442519 0.012400133 0
-0.0014769073 -0.040572125 -0.012399859 0
-0.0016663219 -0.040234577 0.01240014 0
0.0014860941 -0.040403169 -0.012399849 0
0.0014065541 -0.040534724 0.012400154 0
0.0045856382 -0.040496469 -0.012399837 0
0.0044560945 -0.040379241 0.012400162 0
0.0076903403 -0.040478006 -0.012399826 0
0.0076065077 -0.040720731 0.012400175 0
0.010354339 -0.040260043 -0.012399815 0
0.010651966 -0.040486988 0.012400185 0
0.012297969 -0.040561058 -0.012277858 0
0.012400039 -0.040626656 -0.010665901 0
0.01240003 -0.040707145 -0.0076734796 0
0.012400018 -0.040525567 -0.0045047305 0
0.012400006 -0.040366933 -0.0014591481 0
0.012399996 -0.040218648 0.0016064583 0
0.012399985 -0.040275007 0.0046000262 0
0.012399972 -0.040460516 0.0076223733 0
0.012399961 -0.040382978 0.01080393 0
0.012285579 -0.040283613 0.012376369 0
-0.012286886 -0.037205037 -0.012297379 0
-0.012399963 -0.037257712 -0.010453023 0
-0.012399974 -0.037307348 -0.0074687125 0
-0.012399985 -0.037528291 -0.004312464 0
-0.012399996 -0.037507579 -0.001526618 0
-0.012400006 -0.037170269 0.0016192304 0
-0.012400017 -0.037263498 0.0043368265 0
-0.012400029 -0.037507951 0.0074996417 0
-0.012400036 -0.037511386 0.010480568 0
-0.012374422 -0.037570141 0.012209392 0
-0.0105797 -0.037488833 -0.012399903 0
-0.0103285 -0.037276026 0.012400099 0
-0.0077090855 -0.037473522 -0.012399893 0
-0.0074036424 -0.037447874 0.01240011 0
-0.0045319912 -0.037308447 -0.012399882 0
-0.0046662348 -0.037572604 0.01240012 0
-0.0016483946 -0.037653767 -0.012399871 0
-0.0017344938 -0.037643563 0.01240013 0
0.0014946443 -0.03753053 -0.012399859 0
0.0014924965 -0.037513569 0.012400143 0
0.0043164608 -0.03737855 -0.012399849 0
0.0043577119 -0.037349328 0.012400151 0
0.0073310533 -0.037617419 -0.012399839 0
0.0073514627 -0.037669163 0.012400164 0
0.010405415 -0.037352789 -0.012399829 0
0.010520904 -0.037351213 0.012400174 0
0.012302263 -0.036641948 -0.012284888 0
0.012400039 -0.037449852 -0.010648379 0
0.012400028 -0.037578516 -0.0074161366 0
0.012400018 -0.037642799 -0.0045975908 0
0.012400007 -0.037710946 -0.0015917378 0
0.012399995 -0.037666604 0.0015940706 0
0.012399984 -0.037394937 0.0045984848 0
0.012399972 -0.037309419 0.0076989164 0
0.012399963 -0.037569758 0.010258172 0
0.012215707 -0.037627265 0.01228276 0
-0.012224123 -0.034426685 -0.012343131 0
-0.012399962 -0.034982197 -0.010591946 0
-0.012399974 -0.03449795 -0.0075739212 0
-0.012399985 -0.03444818 -0.0043918914 0
-0.012399996 -0.034818772 -0.0014337186 0
-0.012400006 -0.034600697 0.0016004834 0
-0.012400018 -0.034614693 0.0048467005 0
-0.012400027 -0.034729503 0.0075335745 0
-0.012400039 -0.034456927 0.010561836 0
-0.012299294 -0.034465477 0.012315401 0
-0.010302645 -0.034580428 -0.012399912 0
-0.010513249 -0.034443282 0.012400087 0
-0.0076649827 -0.034448162 -0.012399904 0
-0.0074400986 -0.034263268 0.012400098 0
-0.0042415913 -0.034162749 -0.012399892 0
-0.0044244542 -0.034650762 0.012400111 0
-0.0013379009 -0.0344171 -0.01239988 0
-0.0019652895 -0.034490906 0.012400119 0
0.0016386786 -0.034670424 -0.012399869 0
0.0015050342 -0.034524836 0.012400132 0
0.0045020916 -0.034508191 -0.01239986 0
0.0041921129 -0.034510419 0.01240014 0
0.0075810719 -0.034450091 -0.01239985 0
0.0074184858 -0.034573432 0.012400153 0
0.010536286 -0.034284092 -0.012399839 0
0.010431656 -0.034615111 0.012400164 0
0.012333221 -0.03473042 -0.012225538 0
0.012400039 -0.034442492 -0.010576434 0
0.012400028 -0.034874115 -0.0076181241 0
0.012400017 -0.034372363 -0.0042414581 0
0.012400006 -0.034710996 -0.0016558903 0
0.012399995 -0.034508254 0.0016365257 0
0.012399985 -0.034545101 0.0045112236 0
0.012399974 -0.034573779 0.0074169068 0
0.012399965 -0.034627315 0.01037302 0
0.012338656 -0.034460817 0.012319789 0
-0.01236474 -0.031884499 -0.012298346 0
-0.012399964 -0.031499758 -0.010392145 0
-0.012399973 -0.031478316 -0.0076621897 0
-0.012399985 -0.031819653 -0.0044144276 0
-0.012399997 -0.031646196 -0.0012093596 0
-0.012400007 -0.031604957 0.0015767525 0
-0.012400018 -0.031455968 0.0045218142 0
-0.012400028 -0.031343035 0.007571579 0
-0.012400039 -0.031159006 0.010430864 0
-0.012319217 -0.030981272 0.012284815 0
-0.010757461 -0.031385731 -0.012399926 0
-0.010286319 -0.031219941 0.012400076 0
-0.0076046232 -0.031405568 -0.012399915 0
-0.0077034184 -0.031312149 0.012400086 0
-0.0044321041 -0.031327546 -0.012399903 0
-0.0044326736 -0.031441163 0.012400099 0
-0.0013590429 -0.031110669 -0.012399892 0
-0.0015723928 -0.031529389 0.012400109 0
0.001264455 -0.031177549 -0.012399884 0
0.00147215 -0.031414695 0.01240012 0
0.004528319 -0.031730343 -0.012399869 0
0.0044951201 -0.031642288 0.012400133 0
0.0072160265 -0.031590402 -0.012399861 0
0.0075044096 -0.031369232 0.012400141 0
0.01035789 -0.031435154 -0.01239985 0
0.010446227 -0.031319205 0.012400152 0
0.012260081 -0.030639384 -0.012399845 0
0.012400038 -0.03134647 -0.010345434 0
0.012400029 -0.031581454 -0.0075918352 0
0.012400017 -0.031702399 -0.0046234503 0
0.012400007 -0.031203374 -0.0016314109 0
0.012399996 -0.031324893 0.0016363472 0
0.012399987 -0.031496182 0.0042300653 0
0.012399974 -0.031775802 0.0075664064 0
0.012399962 -0.031543735 0.010533988 0
0.012312461 -0.031879328 0.012204695 0
-0.012206524 -0.028541971 -0.012342483 0
-0.012399962 -0.028578719 -0.01046836 0
-0.012399971 -0.028367611 -0.0078987489 0
-0.012399985 -0.028358052 -0.0046085245 0
-0.012399996 -0.028528348 -0.0015327309 0
-0.012400008 -0.028485714 0.0016826858 0
-0.012400018 -0.02851769 0.0046297666 0
-0.012400028 -0.028378205 0.0076607154 0
-0.012400039 -0.028381908 0.010594184 0
-0.012364696 -0.028344464 0.012306607 0
-0.010402498 -0.028483888 -0.012399934 0
-0.010591933 -0.028222397 0.012400066 0
-0.0076474296 -0.028455829 -0.012399925 0
-0.0077283578 -0.028440433 0.012400077 0
-0.0043260301 -0.028207012 -0.012399915 0
-0.0045445189 -0.028504038 0.012400088 0
-0.0013621079 -0.028728437 -0.012399902 0
-0.0016623297 -0.028277038 0.012400098 0
0.0017549675 -0.028437767 -0.01239989 0
0.0018028497 -0.028447848 0.01240011 0
0.0044932193 -0.028688127 -0.012399881 0
0.0044730175 -0.028671041 0.01240012 0
0.0076302546 -0.028555106 -0.012399869 0
0.0071426905 -0.028540818 0.012400131 0
0.010367052 -0.028542725 -0.012399861 0
0.010542213 -0.028604591 0.012400143 0
0.012321345 -0.028397674 -0.012238317 0
0.012400039 -0.028064679 -0.010468818 0
0.01240003 -0.028549027 -0.0075910585 0
0.012400018 -0.028587081 -0.0047377204 0
0.012400006 -0.028525544 -0.0012683667 0
0.012399996 -0.028522963 0.0013123164 0
0.012399985 -0.028420664 0.0046368577 0
0.012399973 -0.02844378 0.0074143326 0
0.012399965 -0.028774973 0.010413723 0
0.012275884 -0.028220942 0.012340648 0
-0.012322688 -0.025690781 -0.012340982 0
-0.012399964 -0.025518052 -0.010461376 0
-0.012399973 -0.025260326 -0.007393688 0
-0.012399985 -0.025666773 -0.0045504435 0
-0.012399995 -0.025328241 -0.0014345022 0
-0.012400007 -0.025353862 0.0015192531 0
-0.012400019 -0.025674935 0.004670477 0
-0.012400024 -0.025434269 0.007439462 0
-0.012400039 -0.025368998 0.010686462 0
-0.012316955 -0.025601691 0.012341717 0
-0.010630918 -0.025318023 -0.012399947 0
-0.010486632 -0.025437512 0.012400054 0
-0.0074009942 -0.025592299 -0.012399934 0
-0.0073383031 -0.025709158 0.012400067 0
-0.0046119718 -0.025603816 -0.012399924 0
-0.0044496926 -0.025619347 0.012400079 0
-0.001467202 -0.025693351 -0.012399915 0
-0.0017079518 -0.025404025 0.012400088 0
0.0017276586 -0.025340015 -0.012399903 0
0.001386577 -0.025606811 0.012400095 0
0.0045548081 -0.025282502 -0.012399893 0
0.0047799242 -0.025382634 0.01240011 0
0.0077454727 -0.025588427 -0.01239988 0
0.0075725978 -0.02563593 0.012400122 0
0.010121 -0.025570478 -0.012399873 0
0.01056768 -0.025705142 0.012400133 0
0.012278957 -0.025153374 -0.01225391 0
0.012400039 -0.025562774 -0.010379544 0
0.012400028 -0.025758842 -0.0075242044 0
0.012400016 -0.025368886 -0.0044490467 0
0.012400006 -0.025749454 -0.0013552986 0
0.012399996 -0.025505356 0.0014545433 0
0.012399985 -0.025718799 0.0046622953 0
0.012399974 -0.025785381 0.007525221 0
0.012399962 -0.025642052 0.010701791 0
0.012252857 -0.025726333 0.012298804 0
-0.01229214 -0.022494273 -0.012254587 0
-0.012399962 -0.02250248 -0.010701188 0
-0.012399973 -0.022434527 -0.0075683575 0
-0.012399984 -0.022524204 -0.0045353365 0
-0.012399997 -0.022435389 -0.0012997129 0
-0.012400008 -0.022525249 0.0016904849 0
-0.012400016 -0.022406049 0.0043842704 0
-0.012400028 -0.022637753 0.0075410735 0
-0.012400039 -0.022857999 0.010214058 0
-0.012383047 -0.022550702 0.012272405 0
-0.010639334 -0.02247162 -0.012399958 0
-0.01058201 -0.02245274 0.012400043 0
-0.007396847 -0.022322575 -0.012399947 0
-0.0074268691 -0.02262317 0.012400056 0
-0.0045193876 -0.022820149 -0.012399935 0
-0.0046196822 -0.022626208 0.012400067 0
-0.0016263023 -0.022316493 -0.012399925 0
-0.0013718564 -0.022662876 0.012400078 0
0.0016099714 -0.022825062 -0.012399912 0
0.0015617758 -0.022058811 0.012400087 0
0.0043411669 -0.022498954 -0.012399904 0
0.0044362838 -0.022321379 0.012400097 0
0.0074706245 -0.022350827 -0.012399893 0
0.0074786018 -0.02268127 0.012400109 0
0.010663655 -0.022665458 -0.01239988 0
0.010768936 -0.022352044 0.01240012 0
0.012320284 -0.022623368 -0.01234554 0
0.012400039 -0.022571238 -0.01050606 0
0.012400028 -0.022538168 -0.0074696257 0
0.012400016 -0.02262705 -0.0044706357 0
0.012400007 -0.022470644 -0.0015150767 0
0.012399997 -0.022549037 0.0013625069 0
0.012399985 -0.022476207 0.0044477405 0
0.012399974 -0.022653097 0.0074664787 0
0.012399962 -0.02254362 0.010437865 0
0.012278157 -0.022266371 0.012320057 0
-0.012264742 -0.019687075 -0.012323136 0
-0.012399962 -0.019414729 -0.010525122 0
-0.012399972 -0.019386588 -0.0076130251 0
-0.012399983 -0.019539831 -0.0048155864 0
-0.012399995 -0.019529952 -0.0014363482 0
-0.012400007 -0.019619532 0.0014945222 0
-0.012400018 -0.019689798 0.0045009996 0
-0.012400027 -0.019631743 0.0075534019 0
-0.012400039 -0.019557195 0.0105925 0
-0.012315787 -0.019534452 0.012221923 0
-0.010439061 -0.019856201 -0.012399968 0
-0.010912879 -0.019411862 0.012400032 0
-0.0076130126 -0.019516965 -0.012399958 0
-0.0075415312 -0.01940901 0.012400044 0
-0.0046304706 -0.019450465 -0.012399947 0
-0.0044893445 -0.019223714 0.012400054 0
-0.0013345411 -0.019586548 -0.012399934 0
-0.0015871242 -0.019074468 0.012400064 0
0.0014434515 -0.019486509 -0.012399926 0
0.0016549488 -0.019446429 0.012400077 0
0.0044449791 -0.019433768 -0.012399915 0
0.0045116059 -0.019282477 0.012400088 0
0.0072428356 -0.019350361 -0.012399904 0
0.0076117576 -0.019498492 0.0124001 0
0.01031989 -0.019680968 -0.012399893 0
0.010671296 -0.019695723 0.012400112 0
0.012338608 -0.019446073 -0.012203965 0
0.012400039 -0.019202536 -0.010470579 0
0.012400028 -0.019486194 -0.0073779533 0
0.012400016 -0.01965411 -0.004212786 0
0.012400007 -0.019343076 -0.0014675143 0
0.012399996 -0.019382872 0.0015113699 0
0.012399985 -0.019447727 0.0047522057 0
0.012399973 -0.019120967 0.0074179601 0
0.012399963 -0.019452648 0.010480648 0
0.01234074 -0.019303584 0.012238859 0
-0.012273455 -0.016134582 -0.012302656 0
-0.012399964 -0.016538631 -0.010399425 0
-0.012399975 -0.016619658 -0.0072996235 0
-0.012399986 -0.016558075 -0.0043380884 0
-0.012399993 -0.016582655 -0.0017955053 0
-0.012400007 -0.016244443 0.0016757798 0
-0.012400018 -0.016299196 0.0044166655 0
-0.012400027 -0.016616268 0.0072778142 0
-0.012400038 -0.016266927 0.010321398 0
-0.012358527 -0.016577668 0.012294024 0
-0.010512677 -0.016201278 -0.01239998 0
-0.010304114 -0.016364768 0.012400024 0
-0.007564337 -0.016248416 -0.012399969 0
-0.0075798272 -0.016591927 0.012400033 0
-0.00442563 -0.016513778 -0.012399958 0
-0.004494817 -0.016656226 0.012400046 0
-0.001557142 -0.016815539 -0.012399946 0
-0.00132818 -0.016588062 0.012400056 0
0.001489728 -0.016428007 -0.012399936 0
0.0016465831 -0.016346186 0.012400066 0
0.0045232223 -0.016301295 -0.012399926 0
0.0046892026 -0.016417079 0.012400078 0
0.0074651497 -0.016644323 -0.012399914 0
0.0073559741 -0.016052283 0.012400086 0
0.010297811 -0.016653346 -0.012399903 0
0.010546458 -0.016649906 0.0124001 0
0.012290396 -0.016511133 -0.012288584 0
0.012400038 -0.016709762 -0.010316905 0
0.012400027 -0.016435066 -0.0074259639 0
0.012400017 -0.016320491 -0.004574955 0
0.012400006 -0.016568853 -0.0015700465 0
0.012399997 -0.016524561 0.0013491089 0
0.012399983 -0.016399859 0.0048170667 0
0.012399974 -0.016385389 0.0071884133 0
0.012399963 -0.016583605 0.010500332 0
0.012319082 -0.017240921 0.012326779 0
-0.012341983 -0.013670363 -0.012260215 0
-0.012399962 -0.013513257 -0.010586995 0
-0.012399976 -0.013297572 -0.0070228982 0
-0.012399986 -0.01362418 -0.0042396104 0
-0.012399995 -0.013390691 -0.0014982682 0
-0.012400007 -0.013536291 0.0016348527 0
-0.012400016 -0.013567324 0.0043852911 0
-0.012400027 -0.01345609 0.0071400674 0
-0.012400039 -0.01358953 0.010576573 0
-0.012322268 -0.01338861 0.012261762 0
-0.010654964 -0.013646338 -0.01239999 0
-0.010277797 -0.013356431 0.012400012 0
-0.0075236559 -0.013778622 -0.012399977 0
-0.0075363456 -0.013189024 0.012400023 0
-0.0045981286 -0.013433596 -0.01239997 0
-0.0042005717 -0.013425352 0.012400034 0
-0.0015909141 -0.013483525 -0.012399959 0
-0.0012614735 -0.013565985 0.012400046 0
0.0015627764 -0.013609767 -0.012399945 0
0.0017648591 -0.013443417 0.012400056 0
0.0046022735 -0.013453403 -0.012399935 0
0.0044559892 -0.013430806 0.012400066 0
0.0073692487 -0.013370954 -0.012399926 0
0.0073330216 -0.013558388 0.012400078 0
0.010608076 -0.013700331 -0.012399914 0
0.010346233 -0.013729998 0.012400087 0
0.012325338 -0.013144057 -0.012304464 0
0.012400039 -0.013638047 -0.0107238 0
0.012400027 -0.013573788 -0.0072671184 0
0.012400018 -0.013470936 -0.0047153174 0
0.012400005 -0.013314102 -0.0011187587 0
0.012399997 -0.013397676 0.0014019066 0
0.012399985 -0.013660873 0.0042844559 0
0.012399974 -0.013613803 0.0074812449 0
0.012399964 -0.013274907 0.010080946 0
0.012272054 -0.014038835 0.01234368 0
-0.012256965 -0.010967265 -0.012224055 0
-0.012399963 -0.010709196 -0.010455215 0
-0.012399973 -0.010573884 -0.0073645916 0
-0.012399984 -0.010767957 -0.0046394248 0
-0.012399997 -0.01026678 -0.0013788103 0
-0.012400007 -0.01059292 0.0016002351 0
-0.012400016 -0.010464808 0.0043960442 0
-0.012400028 -0.010553068 0.0073661883 0
-0.012400038 -0.010594187 0.010387128 0
-0.012294598 -0.0098960353 0.012288651 0
-0.010786742 -0.010520511 -0.012400002 0
-0.01041049 -0.010481824 0.012400002 0
-0.0074961288 -0.010605381 -0.012399989 0
-0.0073327902 -0.010304167 0.012400011 0
-0.0045003267 -0.010688419 -0.012399977 0
-0.0046118516 -0.01043428 0.012400023 0
-0.0016764186 -0.010563883 -0.012399969 0
-0.0016656945 -0.010768 0.012400035 0
0.0014056753 -0.010453157 -0.012399958 0
0.0014346656 -0.010616152 0.012400045 0
0.0046688467 -0.010896227 -0.012399944 0
0.004463736 -0.01064255 0.012400055 0
0.0073597697 -0.010575745 -0.012399935 0
0.0073383227 -0.010547565 0.012400067 0
0.010651223 -0.010292687 -0.012399925 0
0.010561943 -0.010491557 0.012400078 0
0.012306458 -0.010560717 -0.012268061 0
0.012400039 -0.010765709 -0.010330094 0
0.012400027 -0.010413107 -0.0072430293 0
0.012400019 -0.010673927 -0.0046216147 0
0.012400005 -0.01036422 -0.0016346878 0
0.012399996 -0.010637608 0.0015074067 0
0.012399986 -0.010671013 0.0043996391 0
0.012399974 -0.010408775 0.0074709267 0
0.012399963 -0.01075019 0.01063028 0
0.012280848 -0.010822491 0.012210727 0
-0.012355419 -0.0072818394 -0.012264102 0
-0.012399963 -0.007625632 -0.010220328 0
-0.012399974 -0.0075346567 -0.0073013557 0
-0.012399985 -0.007268508 -0.0047369306 0
-0.012399996 -0.0074905562 -0.0014246692 0
-0.012400005 -0.007439821 0.0012705078 0
-0.012400017 -0.0077014519 0.0044239317 0
-0.012400026 -0.0071029495 0.0072490321 0
-0.012400039 -0.0072767874 0.010728701 0
-0.012285259 -0.0072704609 0.012316097 0
-0.010514744 -0.0072839609 -0.012400012 0
-0.010620315 -0.007433671 0.012399989 0
-0.0075987866 -0.0075540864 -0.012400001 0
-0.007715228 -0.0074067982 0.0124 0
-0.0044457028 -0.00738075 -0.012399991 0
-0.0045050359 -0.0075017964 0.012400012 0
-0.0012134503 -0.007509205 -0.012399979 0
-0.0014896431 -0.0076618292 0.012400023 0
0.0015071618 -0.0075285435 -0.012399969 0
0.0016275542 -0.0074250409 0.012400033 0
0.0045976988 -0.0077245943 -0.012399957 0
0.0045820093 -0.00776459 0.012400047 0
0.007429861 -0.0076208026 -0.012399947 0
0.0074513 -0.0076398891 0.012400056 0
0.010719704 -0.0075392299 -0.012399934 0
0.010496098 -0.0074303756 0.012400066 0
0.012348264 -0.0072217654 -0.012275866 0
0.012400039 -0.0078122099 -0.010423966 0
0.012400027 -0.0074981516 -0.007322276 0
0.012400016 -0.0074689942 -0.0043262993 0
0.012400007 -0.0074354978 -0.0014818599 0
0.012399995 -0.0073350477 0.0017438022 0
0.012399985 -0.007612105 0.0043769781 0
0.012399974 -0.0075542079 0.0075213695 0
0.012399963 -0.0073575778 0.010491024 0
0.01232418 -0.0073823431 0.012306766 0
-0.012291029 -0.004609664 -0.012317033 0
-0.012399962 -0.0046120645 -0.010514102 0
-0.012399976 -0.0044714557 -0.0072328798 0
-0.012399985 -0.0040538642 -0.0043898765 0
-0.012399995 -0.0046631647 -0.0016424584 0
-0.012400005 -0.0045600166 0.0015826145 0
-0.012400018 -0.0045876191 0.0045535918 0
-0.012400027 -0.0045177843 0.0074293241 0
-0.012400038 -0.0044033728 0.010571005 0
-0.012308936 -0.0043607252 0.012310963 0
-0.010380502 -0.0046764063 -0.012400021 0
-0.010703827 -0.0044467701 0.012399977 0
-0.0075645517 -0.0044050529 -0.012400012 0
-0.0072562341 -0.00411447 0.01239999 0
-0.0044844123 -0.004656394 -0.012399999 0
-0.0046033533 -0.0045639388 0.012400001 0
-0.0013752616 -0.0045015421 -0.012399989 0
-0.001772412 -0.0046899742 0.012400011 0
0.0013760612 -0.0044339946 -0.012399981 0
0.0014986738 -0.0043659643 0.012400023 0
0.0042163143 -0.0043661017 -0.01239997 0
0.0045847064 -0.0043769339 0.012400035 0
0.0076577542 -0.0049246754 -0.012399956 0
0.0076496108 -0.0044345516 0.012400045 0
0.010572585 -0.0042756889 -0.012399947 0
0.01020614 -0.0048203981 0.012400056 0
0.012250246 -0.0050025717 -0.012302523 0
0.012400039 -0.0043821372 -0.010550299 0
0.012400026 -0.004753001 -0.0073113013 0
0.012400016 -0.0044400715 -0.0043159416 0
0.012400005 -0.004214467 -0.0013560548 0
0.012399996 -0.00445766 0.0014518759 0
0.012399985 -0.0043841903 0.0045252615 0
0.012399975 -0.0044690724 0.0073131602 0
0.012399963 -0.0043927375 0.010532346 0
0.012242127 -0.0043276208 0.012307883 0
-0.0123197 -0.0016767246 -0.012250355 0
-0.012399964 -0.0014296273 -0.010392834 0
-0.012399974 -0.0016079597 -0.0074900175 0
-0.012399986 -0.0015609526 -0.0040598549 0
-0.012399997 -0.0016920842 -0.0012562446 0
-0.012400005 -0.0013285859 0.0015346949 0
-0.012400016 -0.0014262029 0.0043878406 0
-0.012400028 -0.0017206242 0.0076427958 0
-0.012400037 -0.0016537453 0.01029982 0
-0.012344421 -0.0014840523 0.012239969 0
-0.01050374 -0.0013050241 -0.012400035 0
-0.010585217 -0.0015480211 0.012399968 0
-0.0076672337 -0.001587355 -0.012400022 0
-0.0071337954 -0.0013505532 0.01239998 0
-0.0043580332 -0.0016624421 -0.012400012 0
-0.0046040639 -0.0017190223 0.012399991 0
-0.0016029126 -0.0016754846 -0.012399999 0
-0.0013477963 -0.0015885998 0.012400001 0
0.0017449089 -0.0017692703 -0.012399988 0
0.0018107494 -0.0018416732 0.012400013 0
0.0044288523 -0.0016004953 -0.012399979 0
0.0041489741 -0.001525081 0.01240002 0
0.0074823834 -0.0013988785 -0.012399971 0
0.0074932287 -0.0015833937 0.012400033 0
0.010320764 -0.0015770574 -0.012399958 0
0.01038726 -0.0014506392 0.012400043 0
0.012293374 -0.0013082413 -0.012280978 0
0.012400039 -0.0014412994 -0.010720353 0
0.012400027 -0.0016542667 -0.0073075034 0
0.012400017 -0.0015687465 -0.0043806173 0
0.012400006 -0.0014824476 -0.0015450255 0
0.012399996 -0.0012943704 0.0016546486 0
0.012399987 -0.0012215124 0.0041480362 0
0.012399972 -0.0012901331 0.007717221 0
0.012399964 -0.0015824992 0.010515407 0
0.012298775 -0.00096853013 0.012267927 0
-0.012224765 -4.0139884e-08 -0.011088396 0
-0.012222824 -2.854221e-08 -0.0078846104 0
-0.012198853 -1.5614928e-08 -0.0043135276 0
-0.012250188 -6.7529964e-09 -0.0018654738 0
-0.012221683 5.8708811e-09 0.0016217949 0
-0.01220806 1.770305e-08 0.0048903585 0
-0.012162671 2.6692389e-08 0.0073736082 0
-0.012178818 3.6553239e-08 0.010097608 0
-0.01206744 4.450375e-08 0.012293887 0
-0.010841314 -4.4491603e-08 -0.012290532 0
-0.010411591 -3.8120969e-08 -0.010530683 0
-0.010756881 -2.7698972e-08 -0.0076516708 0
-0.010571388 -1.5837546e-08 -0.0043750247 0
-0.010255747 -4.7792739e-09 -0.001320245 0
-0.010457882 5.1575513e-09 0.0014247418 0
-0.010291068 1.7399641e-08 0.0048065437 0
-0.010184227 2.6767221e-08 0.0073942803 0
-0.01077659 3.7629277e-08 0.010394856 0
-0.011047707 4.3790521e-08 0.012096862 0
-0.0083196657 -4.4148564e-08 -0.012195769 0
-0.0074664033 -3.801437e-08 -0.010501236 0
-0.0075706393 -2.7819562e-08 -0.0076849828 0
-0.0075288215 -1.5693649e-08 -0.004335274 0
-0.0073131439 -5.3423177e-09 -0.0014757824 0
-0.0077377087 5.352442e-09 0.0014785791 0
-0.0074990126 1.5355095e-08 0.0042417506 0
-0.0074544461 2.854151e-08 0.0078844167 0
-0.0075896797 3.7591821e-08 0.010384508 0
-0.0072930222 4.4107168e-08 0.012184334 0
-0.0051644491 -4.3766562e-08 -0.012090243 0
-0.0042454777 -3.8748496e-08 -0.010704034 0
-0.0044561657 -2.7341072e-08 -0.007552803 0
-0.0041418006 -1.6576836e-08 -0.0045792484 0
-0.0046173362 -5.1528444e-09 -0.0014234416 0
-0.0045733401 6.1805538e-09 0.00170734 0
-0.0043946751 1.7222042e-08 0.004757483 0
-0.0045899469 2.739862e-08 0.0075687002 0
-0.0043021892 3.6574932e-08 0.010103599 0
-0.0031192596 4.4266152e-08 0.012228252 0
-0.00053684873 -4.4317574e-08 -0.012242457 0
-0.0013941858 -3.8778282e-08 -0.010712261 0
-0.0017167547 -2.6964306e-08 -0.0074487235 0
-0.0016208353 -1.675483e-08 -0.0046284189 0
-0.0014891959 -4.2653561e-09 -0.0011782784 0
-0.0013457343 5.6810605e-09 0.001569358 0
-0.0014803802 1.5787585e-08 0.004361223 0
-0.0014722322 2.6994391e-08 0.0074570347 0
-0.0014276819 3.8380247e-08 0.010602307 0
-0.00085698091 4.4456513e-08 0.012280839 0
0.0014352163 -4.403487e-08 -0.012164361 0
0.0013364392 -3.8334406e-08 -0.010589644 0
0.0015052254 -2.9025445e-08 -0.0080181006 0
0.0013548444 -1.5847462e-08 -0.0043777637 0
0.001228801 -6.2309757e-09 -0.0017212686 0
0.0015701329 7.0063138e-09 0.0019354512 0
0.0019048115 1.6037122e-08 0.0044301562 0
0.0014491051 2.707408e-08 0.0074790479 0
0.0013245775 3.8185327e-08 0.010548461 0
0.0013549745 4.379077e-08 0.01209693 0
0.0039387825 -4.4172047e-08 -0.012202257 0
0.0045959172 -3.7435768e-08 -0.0103414 0
0.0044350149 -2.6529682e-08 -0.0073286616 0
0.004417649 -1.5641756e-08 -0.0043209391 0
