# .PCD v0.7 - Point Cloud Data file format
VERSION 0.7
FIELDS x y z rgb
SIZE 4 4 4 4
TYPE F F F F
COUNT 1 1 1 1
WIDTH 1180
HEIGHT 1
VIEWPOINT 0 0 0 1 0 0 0
POINTS 1180
DATA ascii
-0.0099055134 -0.16361238 -0.0096107237 0
-0.00999997 -0.16330224 -0.0076151011 0
-0.0099999821 -0.16345677 -0.0045896219 0
-0.0099999933 -0.16348341 -0.0015170921 0
-0.010000004 -0.16338013 0.0015859732 0
-0.010000014 -0.16325505 0.0043275137 0
-0.010000023 -0.16357537 0.0073612714 0
-0.0097048413 -0.1633786 0.0097524794 0
-0.0073243752 -0.16365297 -0.0099994307 0
-0.0076327985 -0.1636086 0.010000562 0
-0.0044662771 -0.16348654 -0.0099994233 0
-0.004611148 -0.16363285 0.010000575 0
-0.0014123489 -0.16326551 -0.0099994121 0
-0.0015214616 -0.16330282 0.010000586 0
0.0014999239 -0.16351312 -0.0099994009 0
0.0014121247 -0.16328685 0.010000592 0
0.0045335889 -0.16340618 -0.0099993888 0
0.004536863 -0.16352738 0.01000061 0
0.0076466063 -0.1634755 -0.0099993777 0
0.0075830068 -0.16352165 0.010000617 0
0.0097922683 -0.16360733 -0.0096586281 0
0.010000027 -0.1636209 -0.0077597122 0
0.010000014 -0.16347024 -0.0042195264 0
0.010000003 -0.16333242 -0.0015437617 0
0.0099999923 -0.16335151 0.0013882634 0
0.0099999839 -0.16367884 0.0042513036 0
0.009999969 -0.163517 0.0074788285 0
0.0097687673 -0.16351272 0.0097767524 0
-0.0096966214 -0.16038108 -0.0098224664 0
-0.0099999709 -0.16053812 -0.0077990289 0
-0.0099999802 -0.16058935 -0.0045269732 0
-0.0099999961 -0.16050299 -0.0013623041 0
-0.010000004 -0.16065659 0.0016296128 0
-0.010000016 -0.16031928 0.0045784884 0
-0.010000027 -0.16042815 0.0076794722 0
-0.0097088329 -0.16049227 0.0097361123 0
-0.0073343185 -0.16048345 -0.0099994428 0
-0.007770699 -0.1605345 0.01000055 0
-0.0046994318 -0.16035892 -0.0099994363 0
-0.0045010187 -0.16066185 0.010000566 0
-0.0013466956 -0.16054435 -0.0099994214 0
-0.0016577089 -0.16063693 0.010000574 0
0.0014638212 -0.16051525 -0.0099994112 0
0.0015480147 -0.16025501 0.010000587 0
0.004469722 -0.16033602 -0.0099994037 0
0.0046004341 -0.16070178 0.010000599 0
0.0076551428 -0.1602345 -0.0099993888 0
0.0075152372 -0.16065441 0.010000607 0
0.0096443538 -0.16038305 -0.0097790379 0
0.010000025 -0.16072185 -0.0076424433 0
0.010000016 -0.16057189 -0.0046887193 0
0.010000004 -0.16072066 -0.0016532608 0
0.0099999933 -0.16045646 0.0010933267 0
0.0099999802 -0.16066185 0.0045453212 0
0.0099999709 -0.16063012 0.0074824193 0
0.009666034 -0.16048953 0.0098654833 0
-0.0097113876 -0.15761998 -0.0097520249 0
-0.0099999709 -0.15751986 -0.0074149473 0
-0.009999983 -0.15761928 -0.0042246021 0
-0.0099999933 -0.157288 -0.0014187041 0
-0.010000004 -0.15746164 0.0014401998 0
-0.010000013 -0.15765584 0.0043764533 0
-0.010000025 -0.15762971 0.0075521837 0
-0.0098035745 -0.15770018 0.0097874254 0
-0.0077057825 -0.15733407 -0.0099994568 0
-0.0074468818 -0.15758502 0.010000541 0
-0.0045052385 -0.15766439 -0.0099994419 0
-0.0044915709 -0.15718229 0.010000554 0
-0.0012839186 -0.15754107 -0.0099994335 0
-0.0014080525 -0.15760805 0.010000568 0
0.001692357 -0.15763542 -0.0099994214 0
0.0014229199 -0.15756159 0.010000573 0
0.0046695718 -0.15767337 -0.0099994102 0
0.0043584951 -0.157502 0.010000584 0
0.0072367094 -0.15786625 -0.0099994028 0
0.0075456575 -0.15733436 0.010000595 0
0.0096892705 -0.15743695 -0.0098488899 0
0.010000025 -0.15736355 -0.0075040902 0
0.010000016 -0.15773016 -0.0042178347 0
0.010000002 -0.15761715 -0.0012770487 0
0.0099999914 -0.15753688 0.0016671483 0
0.0099999839 -0.15748098 0.0044816551 0
0.00999997 -0.15759915 0.0074042557 0
0.0097008906 -0.15748107 0.0097703114 0
-0.0097549986 -0.1544763 -0.0096911583 0
-0.0099999718 -0.15450683 -0.0076094237 0
-0.0099999839 -0.15452342 -0.0043983255 0
-0.0099999933 -0.15431912 -0.0014649645 0
-0.010000001 -0.15464219 0.0014102499 0
-0.010000015 -0.15457813 0.0045957873 0
-0.010000029 -0.15471454 0.00778388 0
-0.0097761005 -0.15452962 0.0097288415 0
-0.0075236093 -0.15416376 -0.0099994689 0
-0.0074450416 -0.15457515 0.010000531 0
-0.0044185352 -0.1545283 -0.0099994531 0
-0.0045107575 -0.15437286 0.010000541 0
-0.0015599534 -0.15440552 -0.0099994456 0
-0.0014154426 -0.15452446 0.010000551 0
0.0017253731 -0.15439975 -0.0099994345 0
0.0013853741 -0.15455535 0.010000563 0
0.0046110377 -0.15445982 -0.0099994224 0
0.0044235936 -0.15446983 0.010000573 0
0.0075849937 -0.15457402 -0.0099994093 0
0.0076283752 -0.15447766 0.010000587 0
0.0097652823 -0.15426067 -0.0097853467 0
0.010000026 -0.15440904 -0.0075253621 0
0.010000016 -0.15455626 -0.0046685408 0
0.010000005 -0.15435308 -0.0015061058 0
0.0099999923 -0.15470055 0.0015824527 0
0.0099999821 -0.15441026 0.0044930894 0
0.0099999718 -0.15477994 0.0071914843 0
0.0096728951 -0.15454476 0.0097736893 0
-0.0096073356 -0.15156843 -0.0097916415 0
-0.0099999718 -0.15143897 -0.0075572478 0
-0.0099999839 -0.15130281 -0.0045773331 0
-0.0099999923 -0.15133125 -0.0016216853 0
-0.010000004 -0.15154828 0.0014484862 0
-0.010000019 -0.15149018 0.004818494 0
-0.010000027 -0.15132135 0.0073089725 0
-0.0096593751 -0.15153964 0.009791038 0
-0.0073945648 -0.15151916 -0.0099994754 0
-0.0074891504 -0.15138468 0.010000518 0
-0.0047291988 -0.15119432 -0.009999468 0
-0.0046387375 -0.15144895 0.010000532 0
-0.0016254472 -0.15123487 -0.0099994596 0
-0.0016093918 -0.15113917 0.010000541 0
0.001551771 -0.15142751 -0.0099994428 0
0.0014553184 -0.1514499 0.010000551 0
0.0046955696 -0.15146238 -0.0099994363 0
0.0044597075 -0.15156236 0.010000565 0
0.0075910636 -0.1514229 -0.0099994214 0
0.007544992 -0.15153785 0.010000575 0
0.0097812805 -0.15148257 -0.0097612953 0
0.010000024 -0.15143156 -0.007361704 0
0.010000015 -0.15136099 -0.0044571529 0
0.010000004 -0.1517674 -0.0016089883 0
0.0099999923 -0.1516059 0.001388837 0
0.0099999821 -0.15168728 0.0045131524 0
0.0099999709 -0.15135111 0.0075476319 0
0.0096742772 -0.15159965 0.0097594047 0
-0.009836074 -0.14855495 -0.0096263727 0
-0.0099999737 -0.14847481 -0.0075100213 0
-0.009999983 -0.1484583 -0.0044621155 0
-0.0099999951 -0.14852493 -0.0013851187 0
-0.010000004 -0.14826934 0.0016250871 0
-0.010000014 -0.14861821 0.004468271 0
-0.010000029 -0.14841938 0.0075121201 0
-0.0097223399 -0.14829983 0.0097760772 0
-0.0073894951 -0.14866443 -0.0099994857 0
-0.0071800346 -0.14848125 0.010000508 0
-0.0046597482 -0.14830199 -0.0099994782 0
-0.0043563908 -0.14832865 0.010000522 0
-0.0016188548 -0.14866556 -0.009999468 0
-0.0015947282 -0.14858609 0.01000053 0
0.0013485148 -0.14837889 -0.0099994568 0
0.0011458198 -0.14840806 0.01000054 0
0.004420762 -0.1484794 -0.0099994456 0
0.0043511605 -0.14830084 0.01000055 0
0.0072985883 -0.1484606 -0.0099994354 0
0.007422185 -0.14854789 0.010000561 0
0.0097521357 -0.14846015 -0.0098235551 0
0.010000025 -0.14869228 -0.0075151897 0
0.010000014 -0.14852782 -0.0044245492 0
0.010000006 -0.14870666 -0.0014337031 0
0.0099999923 -0.14823307 0.0013669065 0
0.009999983 -0.14866978 0.0045945351 0
0.0099999709 -0.14842875 0.0076486119 0
0.0097037554 -0.14864758 0.0097587937 0
-0.0097396635 -0.14548481 -0.0096280584 0
-0.0099999709 -0.14557402 -0.0073847272 0
-0.0099999839 -0.14558119 -0.0046066777 0
-0.0099999933 -0.14545204 -0.0014754937 0
-0.010000004 -0.1454003 0.0015669833 0
-0.010000017 -0.14561053 0.0043441644 0
-0.010000025 -0.14572844 0.0077351932 0
-0.0097288685 -0.14554344 0.0098044779 0
-0.0074655986 -0.14548697 -0.0099995015 0
-0.0074138716 -0.14535148 0.010000499 0
-0.0045537623 -0.14535908 -0.0099994885 0
-0.0047715199 -0.14553875 0.010000507 0
-0.0015475806 -0.14548433 -0.0099994782 0
-0.0018523381 -0.14568529 0.010000522 0
0.0016045492 -0.14553981 -0.0099994643 0
0.0015258793 -0.14552601 0.010000531 0
0.0043163053 -0.14556973 -0.0099994568 0
0.0044066901 -0.14579493 0.010000544 0
0.0075084651 -0.1455472 -0.0099994447 0
0.0075496407 -0.1456757 0.010000553 0
0.0097676348 -0.14535575 -0.0098031675 0
0.010000025 -0.14542353 -0.0074459161 0
0.010000013 -0.14545816 -0.0044830982 0
0.010000005 -0.14558245 -0.0014978361 0
0.0099999951 -0.14562359 0.0015854054 0
0.0099999812 -0.14546721 0.0045208265 0
0.00999997 -0.14559802 0.0076428102 0
0.0096561993 -0.14551267 0.0097482605 0
-0.0096802395 -0.1427227 -0.0098306704 0
-0.0099999709 -0.14284381 -0.0076829782 0
-0.0099999849 -0.14275657 -0.0043754168 0
-0.0099999914 -0.14220725 -0.0015760497 0
-0.010000003 -0.14264868 0.0015356219 0
-0.010000016 -0.14250018 0.0046064314 0
-0.010000028 -0.14252323 0.0078810975 0
-0.0097387321 -0.14256951 0.009747575 0
-0.0073953504 -0.14257634 -0.009999509 0
-0.0075977524 -0.1427034 0.010000486 0
-0.0045914105 -0.14261058 -0.0099994987 0
-0.0045434991 -0.14268349 0.010000497 0
-0.0016181396 -0.14257692 -0.0099994875 0
-0.0013917596 -0.14266646 0.01000051 0
0.0014434601 -0.14262776 -0.0099994764 0
0.0014948535 -0.14251459 0.010000522 0
0.0045562941 -0.14233194 -0.009999468 0
0.004689401 -0.14264204 0.010000533 0
0.007609529 -0.1426006 -0.0099994568 0
0.0075963177 -0.14245753 0.010000543 0
0.0098466417 -0.1423806 -0.0095949257 0
0.010000026 -0.14260897 -0.0074750469 0
0.010000017 -0.14229397 -0.0042432565 0
0.010000004 -0.14247715 -0.0015073841 0
0.0099999914 -0.14264281 0.0016802602 0
0.0099999821 -0.14258833 0.0046069329 0
0.0099999709 -0.14252257 0.0074511357 0
0.0097219842 -0.14252767 0.0098243263 0
-0.0096695181 -0.13942526 -0.0097649964 0
-0.0099999746 -0.13949493 -0.0072916057 0
-0.0099999812 -0.13961037 -0.0044787014 0
-0.0099999951 -0.13949364 -0.0015704856 0
-0.010000005 -0.1395909 0.0012683986 0
-0.010000014 -0.13971801 0.0044777798 0
-0.010000027 -0.13961454 0.0075024273 0
-0.0097506233 -0.13951232 0.0097742528 0
-0.0075401417 -0.13946287 -0.009999522 0
-0.0076170051 -0.13928424 0.010000474 0
-0.0045120851 -0.13956214 -0.0099995108 0
-0.0042323773 -0.13951667 0.010000487 0
-0.0014929101 -0.13942042 -0.0099994987 0
-0.0015566333 -0.1395072 0.010000497 0
0.0014113594 -0.13945703 -0.0099994885 0
0.0016760295 -0.13969785 0.010000511 0
0.0044291303 -0.13930218 -0.0099994782 0
0.0045563783 -0.13936552 0.01000052 0
0.0073812804 -0.13964158 -0.0099994652 0
0.0076154368 -0.13935301 0.01000053 0
0.0098473961 -0.13947415 -0.0096915457 0
0.010000028 -0.13963814 -0.0076660351 0
0.010000014 -0.13923228 -0.0045167869 0
0.010000003 -0.13954158 -0.0014333841 0
0.0099999914 -0.13952236 0.0016819871 0
0.0099999821 -0.1394497 0.0045241034 0
0.0099999709 -0.13933818 0.007413019 0
0.0098176589 -0.1395036 0.0097456956 0
-0.0097144907 -0.13674721 -0.0097827939 0
-0.00999997 -0.1367107 -0.0075795846 0
-0.0099999812 -0.13652936 -0.0045056781 0
-0.0099999942 -0.13644288 -0.0014059029 0
-0.010000004 -0.13637401 0.0014767374 0
-0.010000016 -0.13672005 0.0046811327 0
-0.010000023 -0.13637649 0.0072031636 0
-0.0098704388 -0.13645318 0.0096222507 0
-0.0075300615 -0.13674019 -0.0099995285 0
-0.0074822064 -0.13646983 0.010000465 0
-0.0045562377 -0.13670209 -0.0099995201 0
-0.0044275993 -0.13631806 0.010000477 0
-0.001442913 -0.1364512 -0.009999509 0
-0.0015658495 -0.1367373 0.010000486 0
0.0011655319 -0.13660316 -0.0099994987 0
0.0014130501 -0.13648677 0.010000497 0
0.0046305782 -0.13666779 -0.0099994866 0
0.0043491968 -0.13671097 0.010000511 0
0.0075443019 -0.13668932 -0.0099994764 0
0.0074256524 -0.13647445 0.010000522 0
0.0097083431 -0.13648188 -0.009810009 0
0.010000028 -0.13648026 -0.007791691 0
0.010000014 -0.13629714 -0.0044080867 0
0.010000004 -0.13664381 -0.0012836365 0
0.0099999942 -0.13645218 0.0015570644 0
0.009999983 -0.13641702 0.0044262572 0
0.0099999718 -0.13654466 0.0074819685 0
0.0097849444 -0.13630491 0.0097630499 0
-0.0097892871 -0.13333955 -0.0097340308 0
-0.009999969 -0.13356729 -0.0074310414 0
-0.0099999812 -0.13351753 -0.0044701835 0
-0.009999997 -0.13334996 -0.0014104483 0
-0.010000004 -0.13361646 0.0015482598 0
-0.010000012 -0.13340025 0.0044342228 0
-0.010000024 -0.13338943 0.0075542135 0
-0.009763388 -0.13371451 0.0098162303 0
-0.0074068331 -0.13344328 -0.0099995425 0
-0.0076420601 -0.13357784 0.010000454 0
-0.0041833408 -0.13353483 -0.0099995285 0
-0.0045691556 -0.13345955 0.010000465 0
-0.0016144703 -0.13375713 -0.0099995201 0
-0.0012496797 -0.13310044 0.010000478 0
0.0012992281 -0.13361028 -0.0099995108 0
0.0016809746 -0.13371876 0.01000049 0
0.0047160881 -0.13352628 -0.0099994997 0
0.0046492117 -0.13349804 0.010000498 0
0.0075188363 -0.1333923 -0.0099994894 0
0.0075763091 -0.13347177 0.010000508 0
0.0097100371 -0.13370386 -0.0097944522 0
0.010000025 -0.13371451 -0.0072784089 0
0.010000015 -0.13340378 -0.0046767103 0
0.010000003 -0.13351877 -0.0012959223 0
0.0099999933 -0.13334395 0.001346066 0
0.009999983 -0.13349712 0.0045860596 0
0.0099999709 -0.13361864 0.0073522404 0
0.0098010749 -0.13351443 0.0096923793 0
-0.0097184461 -0.13073559 -0.0098369448 0
-0.00999997 -0.13053717 -0.0074987048 0
-0.0099999812 -0.13047349 -0.0047156303 0
-0.0099999914 -0.13051541 -0.0013074123 0
-0.010000002 -0.13050725 0.0013149454 0
-0.010000017 -0.13042735 0.0046238368 0
-0.010000026 -0.13060763 0.0076009622 0
-0.0096991258 -0.13021766 0.0097357566 0
-0.0075959791 -0.1307205 -0.0099995537 0
-0.0074966084 -0.13070956 0.010000445 0
-0.0042927209 -0.13051751 -0.0099995406 0
-0.0046040788 -0.13028651 0.010000452 0
-0.001427196 -0.13057102 -0.0099995295 0
-0.0014600996 -0.13063607 0.010000464 0
0.0015976034 -0.13055684 -0.0099995201 0
0.0015828329 -0.13048111 0.010000477 0
0.00443066 -0.1305366 -0.0099995118 0
0.004611467 -0.13060141 0.010000491 0
0.007251482 -0.13063243 -0.0099994997 0
0.0075807814 -0.13064794 0.010000502 0
0.0097656073 -0.13016722 -0.0097844508 0
0.010000027 -0.13071534 -0.0075495066 0
0.010000015 -0.13048761 -0.004436654 0
0.010000004 -0.13047959 -0.0014482233 0
0.0099999914 -0.13051279 0.0017317559 0
0.0099999821 -0.13057645 0.0045188558 0
0.00999997 -0.13049375 0.0075454265 0
0.0097346762 -0.130502 0.0098433662 0
-0.0096724592 -0.12748735 -0.0097534731 0
-0.0099999718 -0.12737693 -0.0073175537 0
-0.0099999821 -0.1276183 -0.0044960384 0
-0.0099999942 -0.12756018 -0.0012800641 0
-0.010000004 -0.1275484 0.0015736049 0
-0.010000014 -0.1273136 0.004134309 0
-0.010000024 -0.12745823 0.007372139 0
-0.0096881129 -0.12753683 0.0098771043 0
-0.0075332848 -0.12762952 -0.0099995611 0
-0.0074561546 -0.12765026 0.010000434 0
-0.0045886626 -0.12761909 -0.0099995546 0
-0.0041537941 -0.12756397 0.010000444 0
-0.0015116045 -0.1275017 -0.0099995434 0
-0.0015272676 -0.12733841 0.010000452 0
0.0015100975 -0.12737879 -0.0099995323 0
0.0013704348 -0.1274782 0.010000464 0
0.0043740738 -0.12744446 -0.0099995211 0
0.0044623394 -0.127315 0.010000476 0
0.0075999564 -0.12755981 -0.009999508 0
0.0074914903 -0.12740172 0.01000049 0
0.0096992115 -0.12782411 -0.0097328145 0
0.010000024 -0.1275081 -0.0074973339 0
0.010000015 -0.12763526 -0.0043363092 0
0.010000004 -0.12750542 -0.0015212063 0
0.0099999933 -0.12713024 0.0015045892 0
0.0099999849 -0.12726656 0.0043099136 0
0.00999997 -0.12762477 0.007582881 0
0.0096897949 -0.12763622 0.0098256934 0
-0.0098597379 -0.12454697 -0.0096752895 0
-0.0099999728 -0.12459289 -0.0076172203 0
-0.0099999812 -0.12460656 -0.0047032195 0
-0.0099999923 -0.12460757 -0.0016998381 0
-0.010000002 -0.12452997 0.0015019133 0
-0.010000017 -0.12478553 0.0045749997 0
-0.010000024 -0.12461975 0.0074711507 0
-0.0097191306 -0.12444583 0.009872525 0
-0.0072789835 -0.12465554 -0.0099995751 0
-0.0075417813 -0.12440861 0.010000424 0
-0.0044634086 -0.1243243 -0.0099995639 0
-0.0047094389 -0.12437097 0.010000432 0
-0.0014891231 -0.12466883 -0.0099995518 0
-0.0015809193 -0.12469792 0.010000447 0
0.0015323975 -0.12453946 -0.0099995397 0
0.0014614848 -0.1243659 0.010000454 0
0.0042569172 -0.12433559 -0.009999536 0
0.0042540077 -0.12449041 0.010000465 0
0.0075234985 -0.12456734 -0.0099995211 0
0.0073085967 -0.12440294 0.010000475 0
0.0097481823 -0.1240446 -0.0098405574 0
0.010000025 -0.1243455 -0.0075665019 0
0.010000013 -0.12442209 -0.0043565547 0
0.010000004 -0.12447194 -0.0014537462 0
0.0099999923 -0.12465553 0.0016815535 0
0.0099999812 -0.1246836 0.0043580853 0
0.00999997 -0.1245978 0.0077507994 0
0.0096256137 -0.12412781 0.0097317025 0
-0.0097275963 -0.12159874 -0.0097486591 0
-0.00999997 -0.12179502 -0.0077348016 0
-0.0099999812 -0.12151877 -0.0045937053 0
-0.0099999914 -0.12165267 -0.0016153733 0
-0.010000005 -0.12139481 0.001688381 0
-0.010000014 -0.12147357 0.0044417353 0
-0.010000023 -0.1215958 0.0074037039 0
-0.0097741 -0.12145374 0.0096392389 0
-0.0076969592 -0.12123337 -0.0099995881 0
-0.0074660541 -0.12160194 0.010000413 0
-0.0045956816 -0.12120911 -0.009999577 0
-0.0045987307 -0.12150709 0.01000042 0
-0.0014061644 -0.12125619 -0.009999563 0
-0.0014299614 -0.12122117 0.010000433 0
0.0013810582 -0.12143125 -0.0099995537 0
0.00139497 -0.12147063 0.010000445 0
0.0045561092 -0.12142764 -0.0099995397 0
0.004691239 -0.12131146 0.010000454 0
0.0076981522 -0.12167247 -0.0099995285 0
0.0073459358 -0.12159687 0.010000465 0
0.0098859491 -0.12132755 -0.0096679572 0
0.010000027 -0.12119757 -0.0075968597 0
0.010000015 -0.12166789 -0.004619523 0
0.010000004 -0.12138285 -0.001504559 0
0.0099999923 -0.12153639 0.0014854028 0
0.0099999839 -0.12165177 0.0046443883 0
0.0099999709 -0.12155554 0.0075443778 0
0.0097501306 -0.12134695 0.0097630192 0
-0.0097455718 -0.11865729 -0.0098156938 0
-0.0099999728 -0.11858296 -0.0079885377 0
-0.0099999793 -0.11847693 -0.0047794557 0
-0.0099999961 -0.11855854 -0.0012409748 0
-0.010000002 -0.11836352 0.001303743 0
-0.010000013 -0.11859474 0.004437943 0
-0.010000026 -0.11838019 0.0072068237 0
-0.0096539836 -0.11879649 0.0098450426 0
-0.0075351009 -0.11844144 -0.0099995974 0
-0.0070419167 -0.11864335 0.010000406 0
-0.0042739478 -0.1183379 -0.0099995844 0
-0.0044438634 -0.11865968 0.010000414 0
-0.0014079133 -0.11841052 -0.009999577 0
-0.0013715436 -0.11866963 0.010000424 0
0.0014469872 -0.11850641 -0.0099995658 0
0.0015367753 -0.11825442 0.010000433 0
0.0044234036 -0.11859718 -0.0099995537 0
0.0045219399 -0.11812683 0.010000442 0
0.00757271 -0.11866542 -0.0099995444 0
0.0072800843 -0.11852834 0.010000455 0
0.0097182952 -0.11854133 -0.009788489 0
0.010000028 -0.11851345 -0.0074425689 0
0.010000014 -0.11840417 -0.0044632461 0
0.010000003 -0.11823916 -0.0013030611 0
0.0099999942 -0.11880745 0.0014167874 0
0.009999983 -0.11854553 0.0045710644 0
0.0099999728 -0.11861153 0.0076647205 0
0.0097121373 -0.11856097 0.0097648837 0
-0.0097077433 -0.11557659 -0.0097147636 0
-0.0099999737 -0.11540813 -0.0075341351 0
-0.0099999812 -0.11536595 -0.0043967706 0
-0.0099999961 -0.11582363 -0.0013027746 0
-0.010000004 -0.11562941 0.0015491723 0
-0.010000015 -0.11537149 0.0045518829 0
-0.010000024 -0.1156816 0.0072074481 0
-0.0097268308 -0.11558925 0.0097738551 0
-0.0078435354 -0.1154675 -0.0099996058 0
-0.0072052013 -0.11544205 0.010000391 0
-0.0044929911 -0.11550377 -0.0099995993 0
-0.0046826452 -0.11549734 0.010000399 0
-0.0013970016 -0.11561137 -0.0099995844 0
-0.0015514009 -0.11571775 0.010000414 0
0.0017754814 -0.11568604 -0.0099995742 0
0.001367445 -0.11584843 0.010000422 0
0.0044709831 -0.11552279 -0.0099995648 0
0.0045849727 -0.11531077 0.010000435 0
0.007692642 -0.11530937 -0.0099995555 0
0.0072989515 -0.11542143 0.010000442 0
0.0097619267 -0.11510538 -0.0096974699 0
0.010000025 -0.11545633 -0.0074813496 0
0.010000014 -0.11545567 -0.0041004363 0
0.010000003 -0.11518518 -0.0012082737 0
0.0099999933 -0.11545013 0.0015276938 0
0.0099999858 -0.11559179 0.0042077298 0
0.00999997 -0.1154898 0.0075870515 0
0.0095976824 -0.1152695 0.0097878631 0
-0.0098550487 -0.11295496 -0.0097343484 0
-0.0099999746 -0.11256763 -0.0071678483 0
-0.0099999821 -0.11254845 -0.0045369454 0
-0.0099999923 -0.11235598 -0.0019157249 0
-0.010000002 -0.11259383 0.0014059722 0
-0.010000015 -0.11218209 0.0047999723 0
-0.010000029 -0.11249164 0.007387036 0
-0.0096375933 -0.11247929 0.009807663 0
-0.0075549851 -0.11240029 -0.0099996198 0
-0.0073788869 -0.11227629 0.010000377 0
-0.0044174618 -0.11223587 -0.0099996086 0
-0.0045369496 -0.11241572 0.01000039 0
-0.0016748683 -0.11223809 -0.0099996012 0
-0.001345821 -0.1123419 0.010000399 0
0.001639209 -0.11258481 -0.0099995863 0
0.0016875402 -0.11269378 0.010000416 0
0.0045900149 -0.11266997 -0.0099995742 0
0.0047814995 -0.11246359 0.010000424 0
0.007348232 -0.11250371 -0.0099995639 0
0.0072839521 -0.11260474 0.010000435 0
0.0097857574 -0.1129841 -0.0097663002 0
0.010000027 -0.11238329 -0.0075718174 0
0.010000014 -0.11278685 -0.0045329146 0
0.010000004 -0.11235493 -0.0015825059 0
0.0099999951 -0.11252626 0.00145884 0
0.0099999839 -0.11248075 0.0040646233 0
0.00999997 -0.11251031 0.0075080818 0
0.0097859241 -0.11251795 0.0097096022 0
-0.0097290482 -0.10927059 -0.0097506726 0
-0.0099999728 -0.10954261 -0.0076010199 0
-0.0099999821 -0.10974389 -0.0046164044 0
-0.0099999933 -0.10953876 -0.0015020838 0
-0.010000004 -0.10970914 0.0014009759 0
-0.010000015 -0.10947897 0.0043807686 0
-0.010000028 -0.10952831 0.0075978697 0
-0.0098255388 -0.10959791 0.0096561061 0
-0.0074984897 -0.10967407 -0.0099996291 0
-0.0074846647 -0.10965591 0.010000367 0
-0.0041823373 -0.10953987 -0.0099996161 0
-0.0043889591 -0.10946533 0.010000378 0
-0.0012376319 -0.10965234 -0.0099996068 0
-0.0014495301 -0.10964029 0.010000387 0
0.0015927153 -0.10975356 -0.0099995974 0
0.0015997549 -0.10968302 0.010000403 0
0.0044795773 -0.1093182 -0.0099995844 0
0.0046891063 -0.10964261 0.010000414 0
0.0073751318 -0.1095256 -0.0099995732 0
0.0074272845 -0.10947275 0.010000424 0
0.009677683 -0.10962794 -0.0097456155 0
0.010000025 -0.10951595 -0.0074792192 0
0.010000014 -0.10937098 -0.0045491247 0
0.010000004 -0.10925967 -0.0015521894 0
0.0099999914 -0.10916998 0.0014528182 0
0.0099999802 -0.10942326 0.0046419743 0
0.0099999728 -0.10933498 0.0074990415 0
0.0097191576 -0.10937829 0.0097630965 0
-0.0097986935 -0.10651331 -0.0098502645 0
-0.0099999718 -0.10646685 -0.0076491754 0
-0.0099999812 -0.10632148 -0.004591458 0
-0.0099999942 -0.10665902 -0.00113884 0
-0.010000004 -0.10637185 0.0014849289 0
-0.010000015 -0.10651538 0.0043674055 0
-0.010000026 -0.10646562 0.0076784259 0
-0.0097711403 -0.10654755 0.0097440286 0
-0.0074612796 -0.10649969 -0.0099996403 0
-0.0075358292 -0.10644732 0.010000358 0
-0.0047087204 -0.10651939 -0.0099996319 0
-0.00451669 -0.10653754 0.010000367 0
-0.0011800855 -0.10625735 -0.0099996179 0
-0.0013544668 -0.10653196 0.01000038 0
0.001589714 -0.10669759 -0.0099996086 0
0.0015022443 -0.10652237 0.010000391 0
0.0044636722 -0.10656707 -0.0099995984 0
0.0046509714 -0.10654188 0.0100004 0
0.0075112008 -0.10648289 -0.0099995863 0
0.0074320245 -0.10629208 0.01000041 0
0.0097982585 -0.10658193 -0.0097731659 0
0.010000024 -0.10663567 -0.0075760833 0
0.010000014 -0.10660578 -0.0044246539 0
0.010000006 -0.10659613 -0.0013965169 0
0.0099999951 -0.10649151 0.0013000838 0
0.0099999821 -0.1063296 0.0044985004 0
0.0099999681 -0.10638658 0.0076299943 0
0.0098848268 -0.10633601 0.0097502638 0
-0.0096852724 -0.10343407 -0.0097493101 0
-0.00999997 -0.10335349 -0.0074921739 0
-0.0099999812 -0.10354877 -0.0044387672 0
-0.0099999933 -0.10345365 -0.001428499 0
-0.010000004 -0.10349124 0.0014723467 0
-0.010000015 -0.10331991 0.0045600338 0
-0.010000024 -0.10362703 0.0075937859 0
-0.009660258 -0.1034156 0.0098604755 0
-0.0076878769 -0.10331967 -0.0099996524 0
-0.0074525243 -0.10359592 0.01000035 0
-0.0046242177 -0.10341946 -0.0099996394 0
-0.0044096485 -0.10361145 0.010000357 0
-0.0014104075 -0.10349032 -0.0099996291 0
-0.0018818793 -0.10359227 0.010000368 0
0.0013244359 -0.10356595 -0.0099996179 0
0.0013987357 -0.10335329 0.010000378 0
0.0046731569 -0.10341184 -0.0099996077 0
0.0045904256 -0.10349546 0.01000039 0
0.0076591424 -0.10359941 -0.0099995947 0
0.0074665667 -0.10364062 0.010000402 0
0.0097774593 -0.10361261 -0.0097099198 0
0.010000024 -0.10356143 -0.0076556928 0
0.010000016 -0.1036394 -0.0046490785 0
0.010000004 -0.10353605 -0.0014532199 0
0.0099999933 -0.10336071 0.0014918742 0
0.009999983 -0.10358672 0.004425595 0
0.00999997 -0.10342781 0.00790291 0
0.0097880885 -0.10378587 0.0096434616 0
-0.0096274791 -0.10057928 -0.0097817043 0
-0.009999969 -0.10029665 -0.0073379115 0
-0.0099999802 -0.10063958 -0.0045830938 0
-0.0099999923 -0.1004416 -0.001402767 0
-0.010000004 -0.1005135 0.0018078808 0
-0.010000017 -0.1005746 0.0046217167 0
-0.010000026 -0.10044534 0.0074640694 0
-0.0096629672 -0.10052552 0.0097799674 0
-0.0075461958 -0.100173 -0.0099996664 0
-0.0075297165 -0.10040078 0.010000335 0
-0.0043461211 -0.10058175 -0.0099996515 0
-0.004458182 -0.10072614 0.010000345 0
-0.0013934934 -0.1004344 -0.0099996384 0
-0.0013244984 -0.10046674 0.010000359 0
0.0019012011 -0.10039315 -0.0099996282 0
0.0014944623 -0.10056395 0.010000369 0
0.0043768547 -0.10063807 -0.0099996179 0
0.0045436425 -0.10031857 0.010000377 0
0.0073185568 -0.10083412 -0.0099996096 0
0.0074845734 -0.10047534 0.010000391 0
0.0098349107 -0.10030381 -0.0097142104 0
0.010000026 -0.10039764 -0.0077354419 0
0.010000015 -0.10041664 -0.0044742594 0
0.010000004 -0.10050058 -0.0017203962 0
0.0099999923 -0.10039435 0.0014535633 0
0.0099999821 -0.10015213 0.0043739234 0
0.0099999681 -0.1008625 0.007605935 0
0.0096278191 -0.1002604 0.0098066116 0
-0.0097253975 -0.097313635 -0.0098000336 0
-0.0099999746 -0.097199544 -0.007548525 0
-0.0099999812 -0.097344562 -0.0046001817 0
-0.0099999923 -0.097195931 -0.0014708653 0
-0.010000004 -0.097333513 0.0013312331 0
-0.010000015 -0.097485363 0.0045432015 0
-0.010000028 -0.097730771 0.0077192816 0
-0.0097563565 -0.097389065 0.0097605009 0
-0.0073444596 -0.097485766 -0.0099996738 0
-0.0076591172 -0.097560637 0.010000324 0
-0.0045205075 -0.097153194 -0.0099996626 0
-0.0041176421 -0.097647935 0.010000337 0
-0.001351031 -0.097649843 -0.0099996515 0
-0.0014139079 -0.097702146 0.010000345 0
0.0014374166 -0.097656004 -0.0099996375 0
0.00173251 -0.097683564 0.010000357 0
0.0045440202 -0.097819693 -0.0099996272 0
0.0043940172 -0.09768714 0.010000367 0
0.0074991877 -0.097510844 -0.0099996179 0
0.0074398494 -0.097429596 0.010000379 0
0.0096924575 -0.097744219 -0.0097627062 0
0.010000026 -0.09772072 -0.007336997 0
0.010000015 -0.097452313 -0.0044028638 0
0.010000003 -0.097526118 -0.0014188732 0
0.0099999951 -0.097625278 0.001554269 0
0.0099999821 -0.097343996 0.004472442 0
0.0099999718 -0.097535275 0.0073375348 0
0.0097339889 -0.097473346 0.0097465403 0
-0.0098455288 -0.094653927 -0.0096699512 0
-0.0099999681 -0.094533704 -0.0076383981 0
-0.0099999802 -0.094653115 -0.0046257079 0
-0.0099999914 -0.094605781 -0.0014819863 0
-0.010000004 -0.094047621 0.0014604685 0
-0.010000017 -0.09448842 0.0046170573 0
-0.010000025 -0.094444863 0.0074668545 0
-0.0097009819 -0.094507173 0.0098241633 0
-0.0073581571 -0.094548441 -0.0099996831 0
-0.007509009 -0.094607174 0.010000313 0
-0.0045747473 -0.094526865 -0.0099996738 0
-0.0046670428 -0.094627887 0.010000325 0
-0.0013404059 -0.094399914 -0.0099996598 0
-0.0012476431 -0.094569415 0.010000336 0
0.0014994994 -0.094546057 -0.0099996515 0
0.0015567245 -0.094343834 0.010000345 0
0.0043478603 -0.09454748 -0.0099996403 0
0.0044398666 -0.094419919 0.010000356 0
0.0077311136 -0.094457172 -0.0099996282 0
0.0075181071 -0.094598807 0.010000369 0
0.0098354788 -0.094061583 -0.0097086271 0
0.010000026 -0.094383895 -0.0075558675 0
0.010000016 -0.09444692 -0.0043883896 0
0.010000004 -0.094393261 -0.0016465326 0
0.0099999961 -0.094729871 0.0013491645 0
0.0099999812 -0.094646595 0.0046788245 0
0.0099999718 -0.094651788 0.0073382948 0
0.0096312659 -0.094477691 0.0098596774 0
-0.0097700646 -0.091671504 -0.0098348521 0
-0.00999997 -0.09172716 -0.0074622775 0
-0.0099999802 -0.091534317 -0.0045192842 0
-0.0099999961 -0.091366813 -0.0013843231 0
-0.010000004 -0.091337211 0.0016126194 0
-0.010000015 -0.091402128 0.0043320232 0
-0.010000026 -0.091652326 0.0076286751 0
-0.0097836787 -0.091550894 0.00984444 0
-0.0075856019 -0.091545813 -0.0099996934 0
-0.0076493639 -0.091154434 0.010000302 0
-0.0045349025 -0.091695845 -0.0099996841 0
-0.0044951122 -0.091431536 0.010000314 0
-0.0014993974 -0.091753058 -0.009999671 0
-0.0015170843 -0.09124019 0.010000323 0
0.0015035407 -0.091121964 -0.0099996617 0
0.0017943786 -0.091318138 0.010000335 0
0.0044588312 -0.091563396 -0.0099996505 0
0.0045938389 -0.091539502 0.010000346 0
0.0076436927 -0.091696531 -0.0099996384 0
0.0075196712 -0.091547959 0.010000356 0
0.0097554186 -0.091151148 -0.0097766826 0
0.010000027 -0.091173552 -0.0076074107 0
0.010000014 -0.091410667 -0.004336772 0
0.010000003 -0.091755167 -0.0014514605 0
0.0099999951 -0.091699429 0.001303135 0
0.0099999821 -0.091519557 0.0045041605 0
0.0099999709 -0.091221474 0.0075771054 0
0.0098134866 -0.091471583 0.009651294 0
-0.0099031059 -0.088276066 -0.0096106306 0
-0.0099999718 -0.088681355 -0.0074902582 0
-0.0099999793 -0.0886629 -0.0047663711 0
-0.0099999933 -0.088451728 -0.001602315 0
-0.010000004 -0.088730246 0.001763741 0
-0.010000016 -0.088519633 0.0045913053 0
-0.010000026 -0.088551052 0.0075509609 0
-0.009798876 -0.088350423 0.0097797345 0
-0.0076282364 -0.088437207 -0.0099997045 0
-0.0072315861 -0.088612832 0.010000295 0
-0.0040804069 -0.088407002 -0.0099996934 0
-0.0047788061 -0.088253342 0.010000301 0
-0.0015357482 -0.088278629 -0.0099996869 0
-0.0015842926 -0.088319488 0.010000312 0
0.0015270336 -0.088376805 -0.0099996729 0
0.001521887 -0.088627696 0.010000324 0
0.00454885 -0.088430032 -0.0099996617 0
0.0045244992 -0.088570535 0.010000335 0
0.0074456632 -0.088446178 -0.0099996524 0
0.0075284406 -0.088665605 0.010000346 0
0.0097993892 -0.088475615 -0.0097341584 0
0.010000025 -0.088460416 -0.0075875865 0
0.010000013 -0.088709675 -0.0042521148 0
0.010000006 -0.088423088 -0.0015184043 0
0.0099999933 -0.088524327 0.0016239403 0
0.009999983 -0.088312626 0.0043823835 0
0.00999997 -0.088445932 0.0075771231 0
0.0097246869 -0.088401265 0.0097834077 0
-0.0098350337 -0.085947566 -0.0097127147 0
-0.009999969 -0.085531555 -0.0075945477 0
-0.0099999849 -0.085764296 -0.0044427658 0
-0.0099999933 -0.085473113 -0.0013887481 0
-0.010000004 -0.085409783 0.0014506268 0
-0.010000015 -0.085200287 0.0045899474 0
-0.010000026 -0.085565723 0.007512196 0
-0.0097941849 -0.085411824 0.0097616538 0
-0.0075549511 -0.085256837 -0.0099997185 0
-0.0074687703 -0.085805014 0.010000283 0
-0.0044567599 -0.085506126 -0.0099997045 0
-0.0044837389 -0.085358992 0.010000291 0
-0.001555774 -0.08548604 -0.0099996952 0
-0.0017655368 -0.085469894 0.010000302 0
0.0015376788 -0.085385814 -0.0099996822 0
0.0014211085 -0.085583754 0.010000315 0
0.0047089388 -0.085493416 -0.0099996729 0
0.0045556915 -0.085320801 0.010000324 0
0.0073247892 -0.085309133 -0.0099996636 0
0.0073680105 -0.08564581 0.010000334 0
0.009813102 -0.085491605 -0.009627765 0
0.010000023 -0.085685179 -0.007221845 0
0.010000016 -0.085620746 -0.0046544876 0
0.010000004 -0.085673094 -0.0016960462 0
0.0099999914 -0.085459821 0.0014968554 0
0.0099999821 -0.085451566 0.0045689559 0
0.0099999737 -0.085474744 0.0074053109 0
0.009783159 -0.08553353 0.0096662398 0
-0.0098901512 -0.08267308 -0.0097422898 0
-0.0099999737 -0.082602344 -0.0075473776 0
-0.0099999812 -0.082578771 -0.0043463469 0
-0.0099999914 -0.082621314 -0.0016262926 0
-0.010000004 -0.082483135 0.0012813163 0
-0.010000015 -0.082662307 0.0046160882 0
-0.010000026 -0.082740866 0.0076923831 0
-0.0096443174 -0.08251144 0.0097836908 0
-0.0073911524 -0.082651287 -0.009999726 0
-0.00743336 -0.08241114 0.010000269 0
-0.0045367694 -0.082627878 -0.0099997157 0
-0.004464671 -0.082657181 0.010000282 0
-0.0016089908 -0.08234179 -0.0099997045 0
-0.0014891861 -0.082489073 0.010000292 0
0.0014489939 -0.08239235 -0.0099996943 0
0.0016237253 -0.08254008 0.010000302 0
0.0043269158 -0.082747892 -0.0099996859 0
0.0043668398 -0.082483977 0.010000314 0
0.0075085033 -0.082352526 -0.0099996747 0
0.0076075457 -0.082481071 0.010000327 0
0.0096242987 -0.082480408 -0.0098845921 0
0.010000025 -0.082536221 -0.0074094944 0
0.010000017 -0.082529075 -0.0047585499 0
0.010000004 -0.082190998 -0.001389478 0
0.0099999933 -0.082154162 0.0013426479 0
0.0099999821 -0.082630202 0.0043035168 0
0.0099999718 -0.082517527 0.0078058457 0
0.0097646993 -0.082613766 0.0096521238 0
-0.0097999088 -0.079355367 -0.0097134421 0
-0.0099999718 -0.079478368 -0.0073890011 0
-0.009999983 -0.079501852 -0.0045685517 0
-0.0099999923 -0.079626337 -0.001568527 0
-0.010000003 -0.079423502 0.0014172017 0
-0.010000015 -0.079749972 0.0043543391 0
-0.010000027 -0.079532601 0.0076893652 0
-0.0097641042 -0.079557121 0.0096992571 0
-0.007498045 -0.079633318 -0.0099997353 0
-0.0074496181 -0.079408944 0.010000262 0
-0.0046793311 -0.079643764 -0.0099997269 0
-0.0043205051 -0.079398319 0.01000027 0
-0.0014146054 -0.079697274 -0.0099997139 0
-0.001750614 -0.079331048 0.010000278 0
0.0014131787 -0.079355761 -0.0099997064 0
0.0013390523 -0.079680629 0.01000029 0
0.0044493191 -0.079646572 -0.0099996943 0
0.00438951 -0.07954111 0.010000303 0
0.0072257449 -0.079512298 -0.0099996841 0
0.0076672523 -0.079521649 0.010000314 0
0.0096763568 -0.079537615 -0.0097632175 0
0.010000024 -0.079383336 -0.0074990359 0
0.010000015 -0.079383083 -0.0044128471 0
0.010000004 -0.079606026 -0.0015232888 0
0.0099999942 -0.079728961 0.0016072075 0
0.0099999802 -0.079573251 0.0045908941 0
0.0099999718 -0.079584323 0.0075109634 0
0.009733988 -0.079563208 0.0098420111 0
-0.0097454116 -0.076591879 -0.0096256863 0
-0.0099999718 -0.07660415 -0.0074813715 0
-0.0099999812 -0.076475091 -0.0046802107 0
-0.0099999923 -0.07649941 -0.0017011964 0
-0.010000005 -0.076395974 0.0016823985 0
-0.010000015 -0.07664708 0.0044735521 0
-0.010000029 -0.0766799 0.0076047708 0
-0.0097937258 -0.07646399 0.0097604692 0
-0.007563428 -0.076506786 -0.0099997511 0
-0.0075017875 -0.076478645 0.010000248 0
-0.0043993178 -0.076713018 -0.0099997362 0
-0.0045589437 -0.076476172 0.010000257 0
-0.001624161 -0.076345451 -0.0099997278 0
-0.0012509526 -0.076445147 0.010000268 0
0.0015437092 -0.076524094 -0.0099997157 0
0.0013874938 -0.076405793 0.010000278 0
0.0043311599 -0.076280475 -0.0099997055 0
0.0047619292 -0.076436661 0.010000293 0
0.0075521264 -0.076591678 -0.0099996971 0
0.0077803903 -0.076480947 0.010000302 0
0.0097159911 -0.076418109 -0.00968784 0
0.010000024 -0.07634411 -0.0075326739 0
0.010000015 -0.076464452 -0.0045638955 0
0.010000007 -0.076407045 -0.0017474188 0
0.0099999914 -0.07674367 0.0016441183 0
0.0099999858 -0.076711461 0.0044471025 0
0.0099999728 -0.076608434 0.0078116218 0
0.0096596312 -0.076566838 0.0097545935 0
-0.0095877554 -0.073273763 -0.0098184971 0
-0.0099999709 -0.073395066 -0.0073572337 0
-0.0099999802 -0.073341727 -0.0047064014 0
-0.0099999961 -0.073514663 -0.0012402433 0
-0.010000004 -0.073528685 0.0015601562 0
-0.010000014 -0.073687047 0.0042452146 0
-0.010000026 -0.073407099 0.0073919743 0
-0.0098593719 -0.073808253 0.0097009018 0
-0.007525288 -0.073439002 -0.0099997614 0
-0.0073780445 -0.073446266 0.01000024 0
-0.0041828891 -0.073522948 -0.0099997493 0
-0.0044117142 -0.073435083 0.010000247 0
-0.0015537504 -0.073346145 -0.0099997371 0
-0.0010858118 -0.073406257 0.010000262 0
0.0016757639 -0.073493436 -0.009999725 0
0.0012391637 -0.07354755 0.010000269 0
0.0045773876 -0.07346049 -0.0099997176 0
0.004486545 -0.073335342 0.010000279 0
0.0073759323 -0.073449895 -0.0099997055 0
0.007481351 -0.073477522 0.010000292 0
0.0096667465 -0.073494233 -0.0097703971 0
0.010000023 -0.073406085 -0.0073891534 0
0.010000018 -0.073308244 -0.0045060827 0
0.010000004 -0.073360793 -0.0016800459 0
0.0099999923 -0.073544405 0.0016078501 0
0.0099999812 -0.073514655 0.0042572222 0
0.00999997 -0.073335096 0.0075152791 0
0.0097693289 -0.073378831 0.009777667 0
-0.0097259823 -0.070847906 -0.0097903889 0
-0.0099999718 -0.070713274 -0.0077030412 0
-0.009999983 -0.070658706 -0.0045371079 0
-0.0099999923 -0.07080362 -0.0016034913 0
-0.010000005 -0.070519663 0.001556054 0
-0.010000015 -0.070542663 0.0047231866 0
-0.010000027 -0.070384435 0.0071596154 0
-0.0098680537 -0.07058759 0.0096763913 0
-0.0074591171 -0.070170529 -0.0099997707 0
-0.0074830172 -0.070219457 0.010000225 0
-0.0045551122 -0.070496887 -0.0099997576 0
-0.004298355 -0.070755146 0.010000239 0
-0.0013479844 -0.070565455 -0.0099997474 0
-0.0013492209 -0.070695564 0.010000248 0
0.0015487017 -0.070623159 -0.0099997362 0
0.0011995222 -0.070273228 0.010000256 0
0.0045793178 -0.070481613 -0.0099997269 0
0.0044982079 -0.0702838 0.010000269 0
0.0074568111 -0.070446923 -0.0099997157 0
0.0074013011 -0.070603803 0.010000282 0
0.0097975861 -0.070407994 -0.0096956864 0
0.010000026 -0.070789933 -0.0074598207 0
0.010000015 -0.070647411 -0.00460194 0
0.010000003 -0.070271969 -0.001442834 0
0.0099999914 -0.070400186 0.0017446406 0
0.009999983 -0.070443012 0.0045333207 0
0.0099999709 -0.070552483 0.0075326543 0
0.0096544987 -0.070547737 0.0097648678 0
-0.0098362397 -0.067459114 -0.0097265439 0
-0.0099999737 -0.06758108 -0.0075587449 0
-0.0099999839 -0.067490228 -0.004602043 0
-0.0099999923 -0.067498945 -0.0016430045 0
-0.010000004 -0.067666039 0.0015428449 0
-0.010000015 -0.067544915 0.0045316354 0
-0.010000025 -0.067509323 0.0075502815 0
-0.0097738868 -0.067622669 0.0098276734 0
-0.0075240671 -0.067421488 -0.0099997818 0
-0.0076294816 -0.0673493 0.010000216 0
-0.0044651362 -0.067751296 -0.0099997716 0
-0.0044450215 -0.067469455 0.010000224 0
-0.0014449657 -0.067235529 -0.0099997614 0
-0.0014400132 -0.067536719 0.010000237 0
0.001609549 -0.067265309 -0.009999752 0
0.0012916835 -0.067533866 0.010000245 0
0.0044876528 -0.067622751 -0.0099997362 0
0.0046671927 -0.067588635 0.010000259 0
0.0074784048 -0.067591369 -0.009999726 0
0.0074027437 -0.067253508 0.01000027 0
0.0096390247 -0.067770712 -0.0097553078 0
0.010000027 -0.067460231 -0.0075179241 0
0.010000015 -0.067489862 -0.0045461738 0
0.010000004 -0.067514531 -0.0016890699 0
0.0099999933 -0.067673557 0.0016369995 0
0.0099999821 -0.067546733 0.004387307 0
0.0099999718 -0.067649268 0.0073838723 0
0.0098554296 -0.06730444 0.009559297 0
-0.013610893 -0.063443042 -0.013685614 0
-0.013960878 -0.063429721 -0.010473782 0
-0.013483007 -0.0634875 -0.0075157732 0
-0.013490587 -0.063477173 -0.0044487226 0
-0.013676872 -0.063449062 -0.0015265084 0
-0.013584201 -0.063495658 0.0018469811 0
-0.013431909 -0.06345699 0.0047033429 0
-0.013755338 -0.063457288 0.0074742259 0
-0.013707197 -0.063435897 0.010566954 0
-0.013609552 -0.063429601 0.013651015 0
-0.010534504 -0.063451037 -0.01376579 0
-0.010264299 -0.063917093 -0.010408111 0
-0.0105446 -0.064305902 -0.007587471 0
-0.010500523 -0.06420774 -0.0043843174 0
-0.010310869 -0.064316303 -0.001437125 0
-0.010554597 -0.064119481 0.0014172192 0
-0.010492401 -0.064068325 0.0045725722 0
-0.01037084 -0.064214841 0.0073541384 0
-0.010429571 -0.063975826 0.010199699 0
-0.010578643 -0.063434429 0.013758284 0
-0.0074811783 -0.063470006 -0.013712475 0
-0.0072258678 -0.064330466 -0.010352491 0
-0.0074425745 -0.06400881 0.010559245 0
-0.0076425718 -0.063473091 0.013390671 0
-0.0044163023 -0.063455299 -0.013746733 0
-0.0042825253 -0.06398087 -0.010532084 0
-0.004477446 -0.064226933 0.010524565 0
-0.0047784327 -0.063453972 0.013744864 0
-0.0016270283 -0.063467614 -0.013568784 0
-0.0014084581 -0.064069487 -0.010407541 0
-0.0015972659 -0.063994803 0.010513294 0
-0.0014592591 -0.063438825 0.013865205 0
0.0017447521 -0.063490257 -0.013419016 0
0.0015246477 -0.06430354 -0.010391542 0
0.0016266588 -0.06412077 0.010485948 0
0.0014416486 -0.063475087 0.013750779 0
0.0045323321 -0.063469328 -0.013439635 0
0.0047216355 -0.064234398 -0.010327013 0
0.0045016366 -0.06416671 0.01048441 0
0.0047543864 -0.063458011 0.013710741 0
0.0076533142 -0.063481927 -0.013434092 0
0.0075532477 -0.064292014 -0.010385272 0
0.0076314588 -0.064126864 0.010550361 0
0.007554559 -0.063479111 0.013812141 0
0.010647983 -0.063469276 -0.013615674 0
0.010097763 -0.064094298 -0.010214834 0
0.010419599 -0.064211987 -0.0073690005 0
0.010476409 -0.06433823 -0.0044662422 0
0.010457916 -0.064260624 -0.0015209946 0
0.010584808 -0.064128369 0.0013280276 0
0.010483413 -0.064297684 0.0045259199 0
0.010560643 -0.064172938 0.0074610948 0
0.01051453 -0.063891932 0.010543805 0
0.010655913 -0.063483998 0.013535505 0
0.013464449 -0.063398145 -0.014005269 0
0.013766143 -0.063468486 -0.010536407 0
0.013687341 -0.063475467 -0.0075494382 0
0.013626095 -0.063489035 -0.0044008605 0
0.013767599 -0.063478403 -0.0017276676 0
0.01336014 -0.063451916 0.0016799818 0
0.013748928 -0.063470386 0.0045083035 0
0.0137265 -0.063441947 0.0075743599 0
0.01347897 -0.063474655 0.010634891 0
0.013661244 -0.063460656 0.013416606 0
-0.014027075 -0.061506167 -0.014304227 0
-0.014899965 -0.061279286 -0.010522949 0
-0.01489998 -0.06163238 -0.0074854405 0
-0.014899984 -0.061464153 -0.0047042458 0
-0.014900002 -0.061632741 -0.0014463564 0
-0.014900007 -0.061323181 0.0015748136 0
-0.014900022 -0.061394844 0.0046890141 0
-0.014900027 -0.061643403 0.007364253 0
-0.014900039 -0.061708242 0.010832981 0
-0.014182463 -0.061523587 0.01424195 0
-0.010556377 -0.061508752 -0.014899819 0
-0.01057909 -0.061543897 0.014900184 0
-0.0074827266 -0.061551645 -0.014899812 0
-0.0075792661 -0.061409887 0.014900194 0
-0.0044965488 -0.061229967 -0.014899798 0
-0.0045955675 -0.061588142 0.014900207 0
-0.0014148228 -0.061462168 -0.014899783 0
-0.0016973233 -0.06155283 0.014900215 0
0.0014800954 -0.061398868 -0.014899774 0
0.0014987873 -0.061724689 0.014900231 0
0.0045459764 -0.061354011 -0.014899762 0
0.0046572937 -0.061573531 0.01490024 0
0.0075960751 -0.061525632 -0.014899751 0
0.0075391382 -0.061472315 0.014900249 0
0.010675479 -0.061908484 -0.014899738 0
0.010383614 -0.061724041 0.014900262 0
0.014227477 -0.061552238 -0.014111381 0
0.014900038 -0.061456963 -0.010557237 0
0.014900032 -0.061371859 -0.0075514745 0
0.014900021 -0.061516125 -0.0044504195 0
0.014900004 -0.061281372 -0.0013593654 0
0.014899998 -0.061680615 0.0013885035 0
0.014899991 -0.061551843 0.0043689194 0
0.014899978 -0.061643779 0.007488633 0
0.01489997 -0.061534103 0.01059312 0
0.013905681 -0.061444603 0.014306508 0
-0.01422234 -0.05851585 -0.014148838 0
-0.01489996 -0.058562271 -0.010702405 0
-0.01489998 -0.058438167 -0.0075137559 0
-0.014899982 -0.058536228 -0.0045893937 0
-0.014899996 -0.058514055 -0.0015279932 0
-0.014900004 -0.05847691 0.0015008431 0
-0.01490002 -0.058499262 0.0045242617 0
-0.014900031 -0.058283724 0.0076713911 0
-0.014900037 -0.058860924 0.010582481 0
-0.014248163 -0.058701571 0.014128676 0
-0.010378882 -0.05836812 -0.014899826 0
-0.010632752 -0.058472577 0.014900177 0
-0.0077575231 -0.058340184 -0.014899815 0
-0.0074146236 -0.058618676 0.014900185 0
-0.0044991197 -0.058356766 -0.014899803 0
-0.0043707471 -0.058333714 0.014900196 0
-0.0013572368 -0.058503628 -0.014899792 0
-0.001628904 -0.058354348 0.014900206 0
0.0017107743 -0.058676124 -0.01489978 0
0.0012692336 -0.058367606 0.014900215 0
0.0043857512 -0.058552835 -0.014899771 0
0.0042677731 -0.05845673 0.014900227 0
0.0074456683 -0.058235221 -0.014899761 0
0.0074386382 -0.058524452 0.014900237 0
0.01049146 -0.058415368 -0.014899754 0
0.010867858 -0.05839546 0.01490025 0
0.014339154 -0.058334965 -0.0140373 0
0.014900043 -0.058571082 -0.010778153 0
0.014900025 -0.058672469 -0.0072968565 0
0.01490002 -0.058455955 -0.0045760171 0
0.014900004 -0.05879578 -0.0015483279 0
0.014899993 -0.058503751 0.00148942 0
0.014899987 -0.058289386 0.0044804844 0
0.014899973 -0.058413953 0.0075986595 0
0.014899963 -0.058415752 0.010444259 0
0.014240673 -0.058526266 0.013939532 0
-0.0144435 -0.055314053 -0.014033515 0
-0.014899965 -0.055635057 -0.010602699 0
-0.014899974 -0.055551361 -0.0071614687 0
-0.014899984 -0.055535223 -0.0045388895 0
-0.014899995 -0.055841431 -0.0013461618 0
-0.014900012 -0.055601627 0.0015490904 0
-0.014900016 -0.055776309 0.0046813008 0
-0.014900026 -0.055634674 0.0075586825 0
-0.014900037 -0.05547167 0.010265814 0
-0.01410199 -0.055515587 0.01429653 0
-0.010545117 -0.055468995 -0.014899843 0
-0.01071915 -0.055629153 0.014900166 0
-0.0072822557 -0.05551042 -0.014899827 0
-0.0075215613 -0.055683091 0.014900173 0
-0.0046821651 -0.055614833 -0.014899815 0
-0.0046310667 -0.055600252 0.014900186 0
-0.001512257 -0.055413123 -0.014899805 0
-0.0015868185 -0.055486489 0.014900201 0
0.0015554845 -0.055436917 -0.0148998 0
0.0013764098 -0.055369187 0.014900204 0
0.0042787073 -0.055751156 -0.014899781 0
0.0042949417 -0.055574611 0.014900219 0
0.007505123 -0.055466689 -0.014899771 0
0.0078196516 -0.055324204 0.014900228 0
0.010666913 -0.055380721 -0.014899767 0
0.010640188 -0.055377495 0.014900239 0
0.014262293 -0.055447228 -0.014103317 0
0.014900035 -0.055476062 -0.01008966 0
0.014900027 -0.055450644 -0.0076401066 0
0.014900016 -0.055535901 -0.0044873115 0
0.014900005 -0.055669446 -0.0013654716 0
0.014899994 -0.055420853 0.0015974047 0
0.014899988 -0.055566307 0.0044749239 0
0.014899971 -0.055505279 0.0077568851 0
0.014899967 -0.055570174 0.010132916 0
0.013993692 -0.055522203 0.014297267 0
-0.01426486 -0.05263273 -0.014037638 0
-0.014899962 -0.052393261 -0.010570012 0
-0.014899974 -0.052679099 -0.0076891305 0
-0.014899984 -0.05261384 -0.0044856537 0
-0.014899997 -0.052491043 -0.001541805 0
-0.014900004 -0.052427996 0.0014782225 0
-0.014900016 -0.052522514 0.0045459098 0
-0.014900034 -0.052604422 0.0074503762 0
-0.014900037 -0.052717488 0.010343632 0
-0.014020116 -0.052377921 0.014237016 0
-0.010439703 -0.05237671 -0.014899847 0
-0.010427251 -0.052796047 0.014900152 0
-0.0075141233 -0.052514877 -0.014899841 0
-0.0073599601 -0.052387979 0.014900162 0
-0.0043397043 -0.052468512 -0.014899828 0
-0.0042733043 -0.052328981 0.014900172 0
-0.00172081 -0.052481215 -0.014899816 0
-0.0017317643 -0.052166976 0.014900181 0
0.0016655584 -0.052116122 -0.014899804 0
0.0015307296 -0.052381419 0.014900194 0
0.00424704 -0.052637246 -0.014899792 0
0.0043514292 -0.052616902 0.014900208 0
0.0073938114 -0.052380055 -0.014899786 0
0.0075380504 -0.052647214 0.014900221 0
0.010449803 -0.05242664 -0.014899772 0
0.010763861 -0.052446045 0.014900232 0
0.014132578 -0.05247863 -0.014260059 0
0.014900038 -0.052274566 -0.010658758 0
0.014900027 -0.052385494 -0.0076227528 0
0.014900015 -0.052395664 -0.0044265371 0
0.014900008 -0.052491307 -0.0014924112 0
0.014899998 -0.052582987 0.0016178233 0
0.014899984 -0.052447323 0.0044486742 0
0.014899973 -0.052559044 0.0072814324 0
0.014899961 -0.052580114 0.010660616 0
0.014169564 -0.05247904 0.014071638 0
-0.014260114 -0.049463734 -0.014202534 0
-0.014899963 -0.049625162 -0.010570385 0
-0.014899971 -0.049527157 -0.0077503766 0
-0.014899985 -0.049260188 -0.0044575552 0
-0.014899993 -0.049584866 -0.0015338153 0
-0.014900005 -0.049496118 0.0013668253 0
-0.014900019 -0.049477208 0.0045782067 0
-0.014900025 -0.049528129 0.0072345166 0
-0.014900038 -0.049206845 0.010678933 0
-0.014062916 -0.049328685 0.014186094 0
-0.010275128 -0.049665984 -0.014899856 0
-0.010321558 -0.049610674 0.014900142 0
-0.0076135523 -0.049376141 -0.014899851 0
-0.0073321438 -0.04944703 0.014900153 0
-0.0044789594 -0.049646828 -0.014899838 0
-0.0046650339 -0.04954103 0.014900167 0
-0.0014474324 -0.049325015 -0.014899827 0
-0.0019051613 -0.04959096 0.014900172 0
0.0015586013 -0.049570527 -0.014899815 0
0.0016840936 -0.049350291 0.014900187 0
0.0045628739 -0.049324643 -0.014899804 0
0.0043347101 -0.049801584 0.0149002 0
0.0075593246 -0.049483862 -0.014899793 0
0.0079331975 -0.049480289 0.014900208 0
0.010384912 -0.049382456 -0.014899787 0
0.010541521 -0.049557202 0.014900218 0
0.014064166 -0.049471341 -0.014172205 0
0.014900045 -0.049471367 -0.010566914 0
0.014900029 -0.049698777 -0.007489861 0
0.014900015 -0.049582437 -0.0044052606 0
0.014900005 -0.049452592 -0.0015805768 0
0.014899998 -0.04942359 0.0013683442 0
0.014899987 -0.049423926 0.0045644981 0
0.014899977 -0.049583528 0.0075258878 0
0.014899963 -0.049582887 0.010388629 0
0.014308127 -0.049603343 0.014209092 0
-0.01420426 -0.046283837 -0.014159433 0
-0.014899964 -0.046392269 -0.010293936 0
-0.014899977 -0.04654932 -0.0074353493 0
-0.014899982 -0.04642028 -0.0045120888 0
-0.014899995 -0.046650898 -0.0013951763 0
-0.014900008 -0.046777185 0.0016901977 0
-0.014900017 -0.046532054 0.0047627091 0
-0.014900026 -0.046257533 0.0073780385 0
-0.01490004 -0.046626981 0.010746717 0
-0.014308971 -0.046409097 0.014070204 0
-0.01060534 -0.046857238 -0.01489987 0
-0.010441248 -0.046386652 0.014900129 0
