# .PCD v0.7 - Point Cloud Data file format
VERSION 0.7
FIELDS x y z rgb
SIZE 4 4 4 4
TYPE F F F F
COUNT 1 1 1 1
WIDTH 1180
HEIGHT 1
VIEWPOINT 0 0 0 1 0 0 0
POINTS 1180
DATA ascii
0.009999983 -0.14554992 0.0044874544 0
0.009999969 -0.14523917 0.0076284469 0
0.009766601 -0.1454996 0.0097735859 0
-0.0097779809 -0.14245863 -0.0097780526 0
-0.0099999737 -0.14247425 -0.0073242146 0
-0.009999983 -0.142426 -0.004212508 0
-0.0099999951 -0.14240687 -0.0015128939 0
-0.010000003 -0.14266782 0.0015639641 0
-0.010000015 -0.1424997 0.0045663565 0
-0.010000029 -0.14278017 0.0077288765 0
-0.0097737517 -0.14244157 0.0097370828 0
-0.007670552 -0.1426789 -0.009999508 0
-0.0076267063 -0.14238684 0.010000484 0
-0.0046726712 -0.14243646 -0.0099994997 0
-0.0041284724 -0.14272091 0.010000501 0
-0.001633301 -0.14247675 -0.0099994903 0
-0.0014745831 -0.1424959 0.01000051 0
0.0014798556 -0.14237556 -0.0099994764 0
0.0011752807 -0.14258705 0.010000519 0
0.004235371 -0.14242601 -0.0099994661 0
0.0045439336 -0.14254007 0.010000532 0
0.0076023801 -0.14278807 -0.0099994531 0
0.0076216049 -0.14258008 0.01000054 0
0.0097498186 -0.14273521 -0.0097212084 0
0.010000026 -0.14255151 -0.0073819007 0
0.010000014 -0.14258288 -0.0043640463 0
0.010000004 -0.14239398 -0.0016080406 0
0.0099999942 -0.14243564 0.0012931483 0
0.0099999821 -0.14260906 0.0043783048 0
0.0099999718 -0.14246802 0.007459858 0
0.0097344751 -0.1427238 0.0097396383 0
-0.0096836472 -0.13946648 -0.0097701391 0
-0.0099999737 -0.1394199 -0.0073770443 0
-0.009999983 -0.1396447 -0.0043826383 0
-0.0099999923 -0.13952105 -0.0014333646 0
-0.010000004 -0.13962832 0.0013150758 0
-0.010000014 -0.13939743 0.0044988221 0
-0.010000025 -0.13942933 0.0075331684 0
-0.0098193446 -0.13939206 0.0096866898 0
-0.0073892642 -0.13939369 -0.009999522 0
-0.0075635519 -0.1396244 0.010000479 0
-0.00425081 -0.13943623 -0.0099995118 0
-0.0043734959 -0.13908303 0.010000489 0
-0.0014776434 -0.13956025 -0.0099994978 0
-0.0015571653 -0.13940379 0.010000497 0
0.001741992 -0.13968463 -0.0099994866 0
0.001398811 -0.13941571 0.010000506 0
0.0042215176 -0.13963446 -0.0099994782 0
0.0046410658 -0.13934842 0.010000519 0
0.0076097683 -0.13942038 -0.0099994652 0
0.007452731 -0.13915303 0.01000053 0
0.0097049382 -0.13946351 -0.0096822158 0
0.010000026 -0.13954678 -0.0077731726 0
0.010000017 -0.1392246 -0.004577362 0
0.010000004 -0.13954891 -0.0014525931 0
0.0099999933 -0.13958447 0.0017253697 0
0.009999983 -0.13950482 0.0043840213 0
0.0099999728 -0.13919865 0.0072845295 0
0.0097669382 -0.13920239 0.0096405437 0
-0.0097728707 -0.13678752 -0.0096440054 0
-0.0099999709 -0.13676091 -0.0077105751 0
-0.0099999858 -0.13637944 -0.0041325227 0
-0.0099999923 -0.13641387 -0.0016642043 0
-0.010000003 -0.13658011 0.0010956051 0
-0.010000015 -0.13646564 0.0043337247 0
-0.010000028 -0.13615185 0.0074414825 0
-0.0097790835 -0.13651173 0.0097990623 0
-0.0076592583 -0.13639441 -0.0099995332 0
-0.0077247242 -0.1364814 0.010000465 0
-0.0046387645 -0.13666816 -0.0099995201 0
-0.0046797087 -0.13655593 0.010000474 0
-0.0016811641 -0.13634115 -0.0099995127 0
-0.001402335 -0.13666578 0.010000487 0
0.0013522109 -0.13604079 -0.0099995006 0
0.0015398484 -0.13640764 0.010000501 0
0.0044536563 -0.13673222 -0.0099994875 0
0.0046322048 -0.13632053 0.010000511 0
0.0074590696 -0.13653235 -0.0099994773 0
0.0076573552 -0.13661937 0.01000052 0
0.0098781632 -0.13661034 -0.0096422695 0
0.010000026 -0.13651469 -0.0075464346 0
0.010000014 -0.13668104 -0.0044670482 0
0.010000004 -0.13624939 -0.0015946314 0
0.0099999951 -0.13608566 0.0016699558 0
0.009999983 -0.13651146 0.0043909452 0
0.0099999718 -0.13659519 0.0075945985 0
0.0096595241 -0.13650462 0.0098591689 0
-0.0097306287 -0.13365871 -0.0097276829 0
-0.0099999737 -0.1331947 -0.0075322422 0
-0.0099999821 -0.13336048 -0.0046644039 0
-0.0099999933 -0.13364351 -0.0017102871 0
-0.010000003 -0.1336401 0.0015575321 0
-0.010000015 -0.13352865 0.0045099254 0
-0.010000028 -0.13340408 0.007497624 0
-0.0096683931 -0.13354674 0.0097801741 0
-0.0076207691 -0.13347569 -0.0099995444 0
-0.0075335391 -0.13334718 0.010000454 0
-0.0047272034 -0.13373101 -0.0099995341 0
-0.0043996531 -0.1334212 0.010000465 0
-0.001649484 -0.13335536 -0.0099995239 0
-0.0014581229 -0.13372196 0.010000477 0
0.001359286 -0.13345042 -0.0099995099 0
0.001356637 -0.13346256 0.010000487 0
0.0046749879 -0.13334878 -0.0099994978 0
0.0046811951 -0.13364168 0.010000499 0
0.0076575438 -0.13353755 -0.0099994875 0
0.0074573895 -0.13355039 0.010000507 0
0.009778535 -0.13367197 -0.0097065205 0
0.010000028 -0.13344777 -0.0072177639 0
0.010000015 -0.13365474 -0.0044801226 0
0.010000004 -0.13368177 -0.0011261587 0
0.0099999933 -0.13352707 0.0014813936 0
0.009999983 -0.13333967 0.004537886 0
0.0099999718 -0.13346884 0.0075619994 0
0.0097601162 -0.13315515 0.0097497255 0
-0.0098044472 -0.13086152 -0.0096785016 0
-0.0099999728 -0.13060987 -0.0072055208 0
-0.009999983 -0.13062149 -0.0043892795 0
-0.0099999905 -0.13036108 -0.0015887086 0
-0.010000006 -0.1304716 0.0016081219 0
-0.010000014 -0.13049337 0.004438845 0
-0.010000024 -0.13073485 0.0075700521 0
-0.0095616747 -0.13068861 0.0098555712 0
-0.007479643 -0.13051507 -0.0099995555 0
-0.0077005331 -0.13047151 0.010000443 0
-0.0043880236 -0.13044308 -0.0099995416 0
-0.0046808817 -0.13062045 0.010000456 0
-0.0013754324 -0.13074826 -0.0099995304 0
-0.0014854858 -0.13041352 0.010000467 0
0.001641113 -0.13049249 -0.0099995201 0
0.0016912932 -0.13067995 0.010000479 0
0.0042383126 -0.13065073 -0.0099995099 0
0.0044083102 -0.13035454 0.010000485 0
0.0074998452 -0.13047667 -0.0099995015 0
0.0074502081 -0.13048653 0.010000498 0
0.009632743 -0.13060732 -0.0097532449 0
0.010000026 -0.13093004 -0.0073796716 0
0.010000014 -0.13040541 -0.0044823778 0
0.010000002 -0.13058217 -0.0014121532 0
0.0099999933 -0.13030949 0.0015025631 0
0.0099999812 -0.130601 0.0046761902 0
0.0099999737 -0.13048123 0.0071998034 0
0.0097326431 -0.13033809 0.0097664539 0
-0.0096680839 -0.12754191 -0.009750871 0
-0.00999997 -0.12772654 -0.0073979958 0
-0.0099999849 -0.12723209 -0.0046701548 0
-0.0099999942 -0.12752534 -0.0016620278 0
-0.010000004 -0.12769359 0.0015278688 0
-0.010000013 -0.1274628 0.0042804172 0
-0.010000027 -0.12757777 0.0074612191 0
-0.009797914 -0.12723675 0.0097887963 0
-0.0072885505 -0.12744436 -0.009999563 0
-0.0074905017 -0.12768348 0.010000433 0
-0.0045266571 -0.12759593 -0.0099995527 0
-0.0046276744 -0.12753934 0.010000444 0
-0.0014893095 -0.12770645 -0.0099995425 0
-0.0014581593 -0.12731178 0.010000456 0
0.0015728567 -0.12734964 -0.0099995341 0
0.0014348155 -0.12740044 0.010000464 0
0.0046725092 -0.12733819 -0.009999522 0
0.004077578 -0.12767644 0.010000478 0
0.0075786137 -0.12748921 -0.0099995099 0
0.0074374727 -0.12742898 0.010000487 0
0.0098666288 -0.12725735 -0.0097846193 0
0.010000025 -0.12759839 -0.0074153584 0
0.010000015 -0.12765044 -0.0044826148 0
0.010000003 -0.12722884 -0.0014472686 0
0.0099999942 -0.12758838 0.0014106159 0
0.0099999812 -0.12745845 0.0045496766 0
0.0099999737 -0.127427 0.0075581097 0
0.0097782519 -0.12764136 0.0097617889 0
-0.0097247502 -0.12469507 -0.0097455904 0
-0.0099999709 -0.12441242 -0.0074479976 0
-0.0099999821 -0.12441376 -0.0043813745 0
-0.0099999923 -0.12457516 -0.0014773316 0
-0.010000003 -0.12464906 0.001244602 0
-0.010000017 -0.12470557 0.0045477571 0
-0.010000026 -0.12444322 0.0074048098 0
-0.0097921574 -0.12427808 0.009786021 0
-0.0072424579 -0.12479018 -0.0099995751 0
-0.0075612837 -0.12443526 0.010000424 0
-0.0043425388 -0.12478609 -0.0099995639 0
-0.004457783 -0.12448892 0.010000434 0
-0.0013199329 -0.12447647 -0.0099995555 0
-0.0014865439 -0.1246841 0.010000443 0
0.0013431046 -0.12425493 -0.0099995444 0
0.0015497847 -0.12446672 0.010000453 0
0.0044983337 -0.12468 -0.0099995304 0
0.0042600953 -0.12438405 0.010000464 0
0.0075352755 -0.12442679 -0.0099995211 0
0.0075452686 -0.12452728 0.010000476 0
0.0097456854 -0.12440868 -0.0098042842 0
0.010000025 -0.12427513 -0.0072980952 0
0.010000015 -0.12443001 -0.0045931535 0
0.010000003 -0.12446187 -0.0014236816 0
0.0099999942 -0.12436302 0.0012726341 0
0.009999983 -0.12453943 0.0047521703 0
0.0099999718 -0.12415116 0.0075826645 0
0.009664638 -0.12448005 0.0098530464 0
-0.0097234258 -0.12177241 -0.0097544091 0
-0.0099999709 -0.12156247 -0.007557123 0
-0.0099999858 -0.12161568 -0.0044764145 0
-0.0099999951 -0.12153104 -0.001640639 0
-0.010000003 -0.12163955 0.0013022227 0
-0.010000014 -0.12157909 0.0043870793 0
-0.010000026 -0.12134266 0.0074178758 0
-0.0096724937 -0.12173633 0.0097895386 0
-0.0071711163 -0.12167176 -0.0099995853 0
-0.0074829301 -0.12147605 0.01000041 0
-0.0046372986 -0.12184905 -0.0099995732 0
-0.0045180721 -0.12150376 0.010000421 0
-0.0014798102 -0.12132113 -0.009999563 0
-0.0015732533 -0.1213401 0.010000432 0
0.0014792362 -0.12137572 -0.0099995537 0
0.0014419791 -0.12132316 0.010000444 0
0.0047613378 -0.12134146 -0.0099995444 0
0.0045958413 -0.12145745 0.010000454 0
0.0072680712 -0.12174419 -0.0099995341 0
0.0071204342 -0.12148258 0.010000465 0
0.0095568076 -0.12122948 -0.0098085366 0
0.010000026 -0.12154533 -0.007655018 0
0.010000015 -0.12153736 -0.0045788307 0
0.010000004 -0.12143955 -0.0016692141 0
0.0099999923 -0.12158916 0.0016317477 0
0.0099999812 -0.12145296 0.004768936 0
0.0099999737 -0.12166291 0.0075576245 0
0.009754532 -0.12172822 0.0096875122 0
-0.0096816085 -0.11850963 -0.00972284 0
-0.0099999737 -0.11813416 -0.0073258723 0
-0.0099999839 -0.11846323 -0.0041953814 0
-0.0099999942 -0.11863106 -0.0013519173 0
-0.010000004 -0.11870591 0.001480241 0
-0.010000014 -0.1184113 0.004277823 0
-0.010000026 -0.1185756 0.007503795 0
-0.0098528983 -0.11872628 0.0096610384 0
-0.0073596644 -0.11875518 -0.0099995947 0
-0.0076793074 -0.11825557 0.0100004 0
-0.0046406733 -0.11853167 -0.0099995853 0
-0.0043269922 -0.11831744 0.010000409 0
-0.0014487618 -0.1184098 -0.0099995779 0
-0.001530392 -0.11872102 0.010000423 0
0.0015313828 -0.1183062 -0.0099995667 0
0.0013793804 -0.11865912 0.010000433 0
0.0044619604 -0.11881523 -0.0099995518 0
0.0043280437 -0.11837211 0.010000442 0
0.0072088731 -0.11840653 -0.0099995453 0
0.0076113464 -0.11857155 0.010000455 0
0.0096715819 -0.11835133 -0.0098357163 0
0.010000025 -0.11803661 -0.0073554264 0
0.010000013 -0.11858959 -0.0045686415 0
0.010000006 -0.11857042 -0.0016011806 0
0.0099999933 -0.11853261 0.0014211285 0
0.0099999812 -0.11848897 0.0045285099 0
0.0099999737 -0.11831785 0.0074851499 0
0.0099985339 -0.11829535 0.0096062189 0
-0.0096842647 -0.11557329 -0.0097670322 0
-0.0099999728 -0.11548939 -0.0075812791 0
-0.0099999821 -0.11559065 -0.0043078256 0
-0.0099999933 -0.11549218 -0.0014964353 0
-0.010000004 -0.11562336 0.0014461558 0
-0.010000016 -0.1153203 0.0046488945 0
-0.010000025 -0.11536685 0.0075661629 0
-0.009800938 -0.11494818 0.0096925534 0
-0.0072972798 -0.11552558 -0.0099996096 0
-0.0075562536 -0.1155603 0.010000388 0
-0.00466828 -0.11551887 -0.0099995993 0
-0.0041030077 -0.11527678 0.010000401 0
-0.0016164206 -0.11550137 -0.0099995881 0
-0.0016624565 -0.11543702 0.01000041 0
0.001276154 -0.11555563 -0.0099995742 0
0.0016939018 -0.11552569 0.010000423 0
0.0044761021 -0.11555947 -0.0099995639 0
0.004255963 -0.11556572 0.010000432 0
0.0073375385 -0.11523496 -0.0099995537 0
0.0074940883 -0.11540724 0.010000445 0
0.0096925525 -0.1154541 -0.0097667649 0
0.010000024 -0.11555346 -0.0073056053 0
0.010000014 -0.11556689 -0.0042791828 0
0.010000003 -0.11557171 -0.0013246295 0
0.0099999914 -0.11547843 0.0014412109 0
0.0099999849 -0.11561854 0.0045825401 0
0.0099999746 -0.11554217 0.0073536555 0
0.0098052109 -0.11528758 0.0097591793 0
-0.0098064132 -0.112854 -0.0098111862 0
-0.0099999718 -0.1123003 -0.0075349412 0
-0.0099999821 -0.11265525 -0.0045025814 0
-0.0099999923 -0.11267633 -0.0013713152 0
-0.010000004 -0.11287017 0.0015473212 0
-0.010000013 -0.11253869 0.004450365 0
-0.010000025 -0.11237954 0.0074503142 0
-0.0097883986 -0.11296757 0.0097584706 0
-0.0074751223 -0.11248954 -0.0099996198 0
-0.0075225863 -0.11260457 0.010000379 0
-0.0046213339 -0.1123623 -0.0099996096 0
-0.0043555163 -0.11239281 0.010000393 0
-0.0014303555 -0.1122223 -0.0099996002 0
-0.0018226088 -0.11257541 0.010000402 0
0.0013098564 -0.11237349 -0.0099995863 0
0.0015503311 -0.11242713 0.010000409 0
0.0046410458 -0.11267263 -0.0099995732 0
0.0043045161 -0.11250816 0.010000421 0
0.0076419264 -0.11271188 -0.009999563 0
0.0075269397 -0.11212501 0.010000432 0
0.0097485892 -0.11275226 -0.0098211523 0
0.010000026 -0.11258462 -0.0075385156 0
0.010000017 -0.11231486 -0.0044146865 0
0.010000004 -0.11229903 -0.0015356581 0
0.0099999914 -0.11248184 0.0014143604 0
0.0099999821 -0.11234864 0.004497719 0
0.0099999728 -0.11249307 0.0076431991 0
0.0096100979 -0.11256875 0.0097517492 0
-0.0097763445 -0.10945766 -0.0098131681 0
-0.0099999718 -0.10957448 -0.0077037136 0
-0.009999983 -0.10925875 -0.0044299089 0
-0.0099999933 -0.10950201 -0.0014280217 0
-0.010000005 -0.10898769 0.0013519523 0
-0.010000016 -0.10936829 0.0045538819 0
-0.010000026 -0.1092562 0.0076960907 0
-0.0097980173 -0.10967384 0.0097472947 0
-0.0074025732 -0.10924516 -0.00999963 0
-0.0073098508 -0.10930882 0.010000369 0
-0.0046971911 -0.10956392 -0.0099996179 0
-0.0045731445 -0.10930701 0.010000377 0
-0.001603339 -0.10938141 -0.0099996096 0
-0.0014978617 -0.10944872 0.010000387 0
0.0019040403 -0.10939696 -0.0099995974 0
0.0015337716 -0.1094011 0.010000402 0
0.0044029201 -0.10949371 -0.0099995863 0
0.004371217 -0.10955694 0.010000411 0
0.0075876317 -0.10957353 -0.009999576 0
0.007418931 -0.10945691 0.010000422 0
0.009737853 -0.10933739 -0.0096785156 0
0.010000024 -0.1095233 -0.0075977617 0
0.010000014 -0.10950904 -0.0046569169 0
0.010000007 -0.10952625 -0.0017505062 0
0.0099999951 -0.10956356 0.0015441929 0
0.009999983 -0.10950769 0.0048267762 0
0.0099999718 -0.10954364 0.0073963781 0
0.009797479 -0.10945163 0.0097781597 0
-0.0096551785 -0.10650678 -0.009774467 0
-0.0099999718 -0.10627677 -0.0074398192 0
-0.0099999849 -0.10635559 -0.004524142 0
-0.0099999942 -0.10681514 -0.0013371515 0
-0.010000004 -0.10619424 0.0016957885 0
-0.010000017 -0.10641692 0.0045115375 0
-0.010000026 -0.10649259 0.0077881669 0
-0.0097260764 -0.10639504 0.0097392164 0
-0.0075942567 -0.10637151 -0.0099996449 0
-0.0073251287 -0.10653087 0.01000036 0
-0.0044026417 -0.10643115 -0.0099996282 0
-0.0045451461 -0.10654343 0.010000367 0
-0.0014197463 -0.10649706 -0.0099996179 0
-0.0015612805 -0.1065301 0.010000378 0
0.0014511886 -0.10656295 -0.0099996096 0
0.0014535027 -0.10648691 0.01000039 0
0.0043897736 -0.10633293 -0.0099995965 0
0.0044629667 -0.106477 0.010000401 0
0.0075882389 -0.10634368 -0.0099995891 0
0.0071755424 -0.1065173 0.010000411 0
0.0096642869 -0.10650647 -0.009808939 0
0.010000028 -0.1067079 -0.0074216691 0
0.010000015 -0.10636929 -0.0045593027 0
0.010000004 -0.1066848 -0.0014775937 0
0.009999997 -0.10656232 0.0010571349 0
0.0099999821 -0.10654672 0.0044660862 0
0.00999997 -0.10620623 0.0075800563 0
0.009642926 -0.10634402 0.0097965701 0
-0.0097358217 -0.10368205 -0.0097754449 0
-0.0099999718 -0.10352418 -0.0075559136 0
-0.0099999812 -0.10343339 -0.0043876558 0
-0.0099999933 -0.10359193 -0.001593666 0
-0.010000003 -0.103453 0.0015748276 0
-0.010000017 -0.10368395 0.0043577855 0
-0.010000028 -0.10369661 0.0073907231 0
-0.0098068388 -0.10347145 0.0097029218 0
-0.0073690945 -0.10365387 -0.0099996505 0
-0.0074332803 -0.10345156 0.010000349 0
-0.004474673 -0.10334723 -0.0099996384 0
-0.0044309748 -0.10363367 0.010000357 0
-0.0016718007 -0.10337116 -0.0099996282 0
-0.001556727 -0.10349941 0.010000369 0
0.0014185768 -0.10347709 -0.009999617 0
0.0017578118 -0.10339262 0.010000378 0
0.0041938904 -0.10340736 -0.0099996086 0
0.0042951931 -0.10332644 0.01000039 0
0.0074489294 -0.10335912 -0.0099995965 0
0.0074765519 -0.10373554 0.010000401 0
0.0095665688 -0.1034001 -0.0099878181 0
0.010000025 -0.10364682 -0.0075489101 0
0.010000017 -0.10357869 -0.004578671 0
0.010000004 -0.10343258 -0.0015772906 0
0.0099999951 -0.10354159 0.0015774121 0
0.0099999821 -0.10372774 0.0044156052 0
0.0099999709 -0.10337764 0.0075252526 0
0.0097368192 -0.10352574 0.0097579174 0
-0.0096005267 -0.10047616 -0.0098337736 0
-0.0099999718 -0.10042834 -0.0072790133 0
-0.0099999812 -0.1005491 -0.0045919339 0
-0.0099999951 -0.10044095 -0.0015139874 0
-0.010000004 -0.10041079 0.0016933921 0
-0.010000014 -0.10061402 0.0042731105 0
-0.010000028 -0.100232 0.0076599158 0
-0.009673181 -0.10040807 0.0098129297 0
-0.0074929474 -0.10061242 -0.0099996608 0
-0.0075263511 -0.10065835 0.010000335 0
-0.0043989979 -0.10033521 -0.0099996524 0
-0.0042896564 -0.1003469 0.010000344 0
-0.001631431 -0.10033648 -0.0099996403 0
-0.0015573497 -0.10059144 0.010000356 0
0.0011821898 -0.10056797 -0.0099996291 0
0.0017215634 -0.10038146 0.010000368 0
0.0045859762 -0.10040113 -0.0099996189 0
0.004413391 -0.10045711 0.010000378 0
0.007445469 -0.10037011 -0.0099996086 0
0.007438668 -0.10002016 0.01000039 0
0.0098435469 -0.10067736 -0.0096263736 0
0.010000028 -0.10018819 -0.0075671091 0
0.010000013 -0.10045423 -0.004407383 0
0.010000004 -0.10050908 -0.0015291541 0
0.0099999942 -0.10070413 0.0016239877 0
0.0099999821 -0.10051601 0.0043763374 0
0.0099999718 -0.10028933 0.0074736858 0
0.0096912868 -0.10016363 0.0098296953 0
-0.0098320469 -0.097435087 -0.0097161541 0
-0.0099999756 -0.098066472 -0.0072058397 0
-0.0099999821 -0.097441055 -0.0046273456 0
-0.009999997 -0.097559609 -0.0012864107 0
-0.010000003 -0.097410254 0.0014675476 0
-0.010000015 -0.097506784 0.004448215 0
-0.010000029 -0.097480014 0.0077659013 0
-0.0096446313 -0.097418718 0.0098219151 0
-0.0076243342 -0.097452179 -0.0099996729 0
-0.0073966146 -0.09763065 0.010000327 0
-0.0046174852 -0.097698249 -0.0099996608 0
-0.004533154 -0.09729591 0.010000334 0
-0.001733263 -0.097719155 -0.0099996524 0
-0.0016937209 -0.097635396 0.010000345 0
0.0016182323 -0.09709122 -0.0099996403 0
0.0015662432 -0.097485378 0.010000357 0
0.0045080115 -0.097353712 -0.0099996328 0
0.0045337654 -0.0974475 0.010000369 0
0.0076887025 -0.097348697 -0.0099996198 0
0.0075737997 -0.097593755 0.010000378 0
0.0096972361 -0.097721696 -0.0098286942 0
0.010000029 -0.097653948 -0.0076443986 0
0.010000017 -0.097453095 -0.0045916229 0
0.010000003 -0.097525306 -0.0014978173 0
0.0099999951 -0.09721081 0.0012848161 0
0.0099999821 -0.097670443 0.0044011166 0
0.00999997 -0.09737888 0.0077201384 0
0.0098253535 -0.097703531 0.0096473666 0
-0.0097381212 -0.094581962 -0.0097216815 0
-0.0099999709 -0.094517685 -0.0075912904 0
-0.0099999867 -0.094453976 -0.0042404076 0
-0.0099999923 -0.094480723 -0.0015709796 0
-0.010000007 -0.094091065 0.0016250334 0
-0.010000012 -0.094615616 0.0042683338 0
-0.010000024 -0.094608821 0.0074614231 0
-0.0096824542 -0.094650224 0.0097473664 0
-0.0074474122 -0.094791703 -0.0099996831 0
-0.0074945791 -0.094393037 0.010000314 0
-0.0046039359 -0.094592847 -0.009999672 0
-0.0043585594 -0.094465576 0.010000327 0
-0.0015436811 -0.094848983 -0.0099996589 0
-0.0015964571 -0.094423264 0.010000335 0
0.0014725573 -0.094267465 -0.0099996515 0
0.0014843838 -0.094254375 0.010000346 0
0.0047423439 -0.094196692 -0.0099996421 0
0.0043413541 -0.094468817 0.010000356 0
0.0075595602 -0.094619758 -0.0099996291 0
0.0076806191 -0.094766378 0.010000369 0
0.0098548979 -0.094710566 -0.0098960344 0
0.010000027 -0.094785288 -0.0074176961 0
0.010000015 -0.094788931 -0.0046433127 0
0.010000004 -0.094575502 -0.0012726281 0
0.0099999923 -0.09446077 0.0015432229 0
0.0099999812 -0.094448388 0.0046756803 0
0.0099999728 -0.094366983 0.0077434252 0
0.0096359542 -0.094261035 0.0097556738 0
-0.0098529635 -0.091262206 -0.0096721128 0
-0.0099999746 -0.091295667 -0.0072410265 0
-0.0099999821 -0.091345511 -0.0045790537 0
-0.0099999923 -0.091421232 -0.001517262 0
-0.010000004 -0.091476157 0.0016007741 0
-0.010000017 -0.091601811 0.0045721615 0
-0.010000025 -0.091794558 0.0073632281 0
-0.0097733187 -0.091376826 0.0095693506 0
-0.0075261644 -0.091696948 -0.0099996924 0
-0.0075393938 -0.091682024 0.010000305 0
-0.0045984797 -0.091275334 -0.0099996841 0
-0.0043791239 -0.091645136 0.010000313 0
-0.0013906946 -0.09166988 -0.009999672 0
-0.0015532158 -0.091498673 0.010000323 0
0.0017311565 -0.091337033 -0.0099996608 0
0.0014853802 -0.091392063 0.010000337 0
0.0044637686 -0.091396034 -0.0099996515 0
0.0044460469 -0.091607861 0.010000346 0
0.0072428994 -0.091489479 -0.0099996421 0
0.0072332905 -0.091569051 0.010000355 0
0.0097583914 -0.091338485 -0.0096873371 0
0.010000025 -0.091398977 -0.0074965572 0
0.010000013 -0.091392636 -0.0041659884 0
0.010000004 -0.091576487 -0.0016376204 0
0.0099999933 -0.091354258 0.0015942086 0
0.0099999849 -0.09156774 0.0044331653 0
0.0099999718 -0.091204107 0.0076416661 0
0.0097522419 -0.091631807 0.0097682029 0
-0.0097794747 -0.088631958 -0.0097489432 0
-0.0099999728 -0.088386066 -0.0076438752 0
-0.009999983 -0.088458918 -0.0043635503 0
-0.0099999942 -0.088297918 -0.0012160836 0
-0.010000005 -0.088332601 0.0014470797 0
-0.010000017 -0.088432923 0.0047466811 0
-0.010000024 -0.088576771 0.0072626774 0
-0.0097333305 -0.088433318 0.0098623959 0
-0.0074774232 -0.088450626 -0.0099997064 0
-0.0073991823 -0.088538051 0.010000295 0
-0.0042400267 -0.088347726 -0.0099996943 0
-0.004412171 -0.088567704 0.010000302 0
-0.0015859276 -0.088534035 -0.0099996841 0
-0.0015123592 -0.08845216 0.010000313 0
0.0014283881 -0.088394076 -0.0099996738 0
0.001578 -0.08847031 0.010000324 0
0.0045266086 -0.088811912 -0.0099996608 0
0.0044631204 -0.088598832 0.010000334 0
0.007257848 -0.088366687 -0.0099996533 0
0.0073772692 -0.088520966 0.010000346 0
0.0097954134 -0.088357583 -0.0097476924 0
0.010000028 -0.088769846 -0.0074608889 0
0.010000017 -0.088389821 -0.0044084177 0
0.010000004 -0.088613175 -0.0016300653 0
0.0099999933 -0.088736489 0.0015298668 0
0.009999983 -0.088541709 0.0044341669 0
0.0099999718 -0.088365965 0.0076270639 0
0.009729661 -0.088362657 0.0096846595 0
-0.0097544221 -0.085395567 -0.0097567532 0
-0.00999997 -0.085504062 -0.0076410593 0
-0.0099999812 -0.085544161 -0.0045901262 0
-0.0099999933 -0.085840121 -0.001623617 0
-0.010000005 -0.085748658 0.0015850766 0
-0.010000015 -0.085294962 0.004477791 0
-0.010000025 -0.085471153 0.0075504277 0
-0.009802294 -0.085305698 0.0097787725 0
-0.0077504246 -0.08552774 -0.0099997176 0
-0.0074462895 -0.085716859 0.010000282 0
-0.0044582239 -0.085481778 -0.0099997064 0
-0.004471621 -0.08536154 0.010000292 0
-0.0013755088 -0.085660435 -0.0099996915 0
-0.0015344569 -0.085545324 0.010000302 0
0.0018066735 -0.085323684 -0.0099996822 0
0.0014082335 -0.08545927 0.010000315 0
0.0043436689 -0.08544749 -0.0099996729 0
0.0044777868 -0.085602693 0.010000328 0
0.0076112971 -0.08556816 -0.0099996626 0
0.0076255882 -0.085439257 0.010000336 0
0.0096939448 -0.085170828 -0.0098189376 0
0.010000026 -0.085620433 -0.0077338065 0
0.010000016 -0.085223407 -0.0043476778 0
0.010000004 -0.085325226 -0.0014290059 0
0.0099999933 -0.085226573 0.0014678632 0
0.0099999802 -0.085294522 0.0044985823 0
0.0099999737 -0.085149691 0.0073400093 0
0.0096945344 -0.085333355 0.0099154115 0
-0.0096959388 -0.082464471 -0.0097465245 0
-0.0099999728 -0.082688563 -0.0078064357 0
-0.0099999849 -0.082717672 -0.0044636233 0
-0.0099999914 -0.082662798 -0.0016523743 0
-0.010000007 -0.082333393 0.0014532937 0
-0.010000016 -0.082559399 0.0045648888 0
-0.010000023 -0.082401566 0.0074545462 0
-0.0097869383 -0.082447246 0.0096793482 0
-0.007806744 -0.082477324 -0.009999726 0
-0.0075248932 -0.082371771 0.01000027 0
-0.0047428813 -0.082348421 -0.0099997176 0
-0.0045817629 -0.082495928 0.010000279 0
-0.001330073 -0.082444936 -0.0099997036 0
-0.0015233727 -0.082555026 0.01000029 0
0.0012108329 -0.082486682 -0.0099996924 0
0.0011963776 -0.082872994 0.010000303 0
0.0045589432 -0.082470275 -0.0099996813 0
0.0043941624 -0.082449436 0.010000311 0
0.0074832859 -0.082448617 -0.0099996738 0
0.0078062764 -0.082725674 0.010000326 0
0.0097797951 -0.082315236 -0.0098089231 0
0.010000028 -0.082243346 -0.0078299753 0
0.010000015 -0.082390755 -0.0045017833 0
0.010000003 -0.0823045 -0.0015225309 0
0.0099999923 -0.082467221 0.0013342536 0
0.0099999821 -0.082646616 0.0043538259 0
0.0099999718 -0.082234465 0.0074864281 0
0.0097919218 -0.082484432 0.0096577313 0
-0.009745053 -0.07955534 -0.0098278504 0
-0.00999997 -0.079409353 -0.0075645023 0
-0.009999983 -0.079671338 -0.0042377454 0
-0.0099999914 -0.079527989 -0.0015597122 0
-0.010000004 -0.079376318 0.0017034204 0
-0.010000017 -0.079273865 0.0045687915 0
-0.010000024 -0.07952296 0.0074652908 0
-0.0098909615 -0.07965944 0.0096360911 0
-0.0075161704 -0.079593204 -0.0099997381 0
-0.0073867179 -0.079227008 0.010000259 0
-0.0044135693 -0.079352789 -0.0099997288 0
-0.0044005699 -0.079449721 0.010000273 0
-0.0012557283 -0.079618223 -0.0099997148 0
-0.0016202256 -0.079541877 0.010000279 0
0.0010077236 -0.079333782 -0.0099997083 0
0.0014390061 -0.079481073 0.010000293 0
0.0043682605 -0.079409882 -0.0099996934 0
0.004522691 -0.079545081 0.010000303 0
0.007366817 -0.079550914 -0.0099996869 0
0.0076253484 -0.0795708 0.010000312 0
0.0097938944 -0.07938534 -0.0097810011 0
0.010000026 -0.079511657 -0.0077629923 0
0.010000015 -0.07945697 -0.0045470791 0
0.010000007 -0.079710558 -0.0017877851 0
0.0099999905 -0.07955455 0.001802351 0
0.0099999849 -0.0792486 0.0043065669 0
0.0099999709 -0.07919281 0.0073603047 0
0.0096922116 -0.079664737 0.009753014 0
-0.0095864246 -0.076715074 -0.0098868767 0
-0.0099999709 -0.076500952 -0.0075094136 0
-0.0099999821 -0.076530688 -0.0045940978 0
-0.0099999914 -0.076420568 -0.001690743 0
-0.010000004 -0.076325521 0.0014521745 0
-0.010000015 -0.076588422 0.0045599383 0
-0.010000027 -0.076712005 0.007636243 0
-0.0098781995 -0.076891482 0.0097239288 0
-0.007344564 -0.076768495 -0.0099997502 0
-0.0075616371 -0.076743551 0.010000249 0
-0.0045549441 -0.076274261 -0.009999739 0
-0.0043786108 -0.076533765 0.010000261 0
-0.0011717717 -0.076333247 -0.009999725 0
-0.0014341495 -0.076424755 0.010000269 0
0.0014817031 -0.076578595 -0.0099997129 0
0.0014109588 -0.076587968 0.01000028 0
0.0044799908 -0.076693647 -0.0099997073 0
0.0044415756 -0.076347083 0.01000029 0
0.0074696857 -0.076356098 -0.0099996943 0
0.0077762152 -0.076217286 0.010000302 0
0.0098528806 -0.076680094 -0.0098522166 0
0.010000025 -0.07644441 -0.007417467 0
0.010000015 -0.076562501 -0.004311963 0
0.010000004 -0.076428115 -0.0013837448 0
0.0099999923 -0.076527879 0.0014604591 0
0.0099999821 -0.076411597 0.0047340118 0
0.009999969 -0.076303497 0.0075295595 0
0.0097582499 -0.076489396 0.0097068101 0
-0.0097956052 -0.073329575 -0.0096367802 0
-0.0099999709 -0.073566832 -0.0073705898 0
-0.0099999812 -0.073508456 -0.0044099563 0
-0.0099999942 -0.073898152 -0.0016540772 0
-0.010000003 -0.073598132 0.0016304918 0
-0.010000015 -0.073384903 0.0046138871 0
-0.010000026 -0.073406853 0.0075200219 0
-0.0097255763 -0.073768586 0.009736592 0
-0.0075765373 -0.073223129 -0.0099997604 0
-0.0077022729 -0.073496252 0.010000238 0
-0.0046386127 -0.073381618 -0.0099997493 0
-0.0046556722 -0.07329943 0.010000247 0
-0.0014083065 -0.073546767 -0.0099997353 0
-0.0014448734 -0.07340607 0.010000259 0
0.0014350847 -0.073415413 -0.0099997278 0
0.0016281924 -0.073246576 0.010000273 0
0.004407546 -0.073563904 -0.0099997139 0
0.0041751866 -0.073493488 0.010000282 0
0.0076351278 -0.073372945 -0.0099997064 0
0.0075743715 -0.073514506 0.010000291 0
0.0098485267 -0.074015737 -0.0095950533 0
0.010000028 -0.073154852 -0.0076902867 0
0.010000014 -0.073370852 -0.0044513498 0
0.010000006 -0.073543668 -0.001476309 0
0.0099999923 -0.073290035 0.0011627463 0
0.0099999821 -0.073167555 0.0045314599 0
0.0099999718 -0.07360331 0.0074108862 0
0.0097031975 -0.073551014 0.0097989421 0
-0.012061798 -0.069231473 -0.012199793 0
-0.012186389 -0.069549695 -0.010108396 0
-0.012197163 -0.069715239 -0.0075920555 0
-0.01219063 -0.069579363 -0.0044292323 0
-0.012187223 -0.069678284 -0.0015107639 0
-0.012185859 -0.069675066 0.0013531104 0
-0.012173456 -0.069514103 0.0047513065 0
-0.012173651 -0.069533616 0.0070264367 0
-0.012182423 -0.069677055 0.010565817 0
-0.012116932 -0.069070689 0.012200206 0
-0.010428732 -0.069560051 -0.01218048 0
-0.010250347 -0.070323072 -0.010335598 0
-0.010658635 -0.070424646 -0.0074851387 0
-0.010620375 -0.07046511 -0.0046957135 0
-0.010621798 -0.070518009 -0.0014412651 0
-0.010464739 -0.070511281 0.0017017684 0
-0.01059579 -0.070573278 0.0046230475 0
-0.010559683 -0.07041496 0.0074227243 0
-0.010338116 -0.070386216 0.010228554 0
-0.010111589 -0.069541685 0.012172312 0
-0.0072198338 -0.069529802 -0.012181092 0
-0.0076556988 -0.070419557 -0.010439014 0
-0.0076004309 -0.070343524 0.010566996 0
-0.0068810075 -0.069590554 0.012198685 0
-0.0043280944 -0.069554709 -0.012182206 0
-0.004527851 -0.070383206 -0.010671928 0
-0.0044035497 -0.07037206 0.010578148 0
-0.0046984549 -0.069594234 0.012175903 0
-0.0013327744 -0.069616735 -0.01218824 0
-0.0014816498 -0.070330091 -0.010670695 0
-0.0014145777 -0.07047762 0.010513937 0
-0.00149972 -0.069589794 0.012168712 0
0.0016056185 -0.069634162 -0.012179705 0
0.0017720391 -0.070269763 -0.010679943 0
0.0014641093 -0.070437841 0.010529979 0
0.0015443419 -0.069590501 0.012184766 0
0.0046742423 -0.06946224 -0.012184939 0
0.0043889792 -0.070286334 -0.010661704 0
0.0045510894 -0.070383899 0.010458075 0
0.0043669851 -0.069611907 0.01216363 0
0.0078537781 -0.069515266 -0.012185764 0
0.0076585873 -0.070430212 -0.010538444 0
0.0074893585 -0.070397936 0.010606366 0
0.0075963624 -0.06950593 0.012183107 0
0.010544669 -0.069690511 -0.012199709 0
0.010537164 -0.070271321 -0.010387436 0
0.010502163 -0.070474423 -0.0075021442 0
0.010548029 -0.070375919 -0.0044669746 0
0.010449944 -0.070511125 -0.0017905141 0
0.010362551 -0.070553549 0.001386351 0
0.010490675 -0.070523776 0.0045213127 0
0.01045254 -0.070494756 0.0075674416 0
0.010445857 -0.070204169 0.010298695 0
0.011151529 -0.069663428 0.012194606 0
0.01202386 -0.06965138 -0.012180943 0
0.012178531 -0.069826327 -0.010335087 0
0.012186611 -0.069714971 -0.007756942 0
0.012183907 -0.069536418 -0.004815456 0
0.012200003 -0.069503568 -0.00095443986 0
0.012199993 -0.069573924 0.0018118586 0
0.012172463 -0.069524094 0.0047361222 0
0.012190538 -0.069553874 0.0075291046 0
0.01219996 -0.069392897 0.010853863 0
0.012199956 -0.069052652 0.012034499 0
-0.012149044 -0.066643201 -0.012199802 0
-0.012199963 -0.067626044 -0.010228219 0
-0.012199972 -0.067599751 -0.0075696884 0
-0.012199983 -0.067658573 -0.004629862 0
-0.012199993 -0.067783698 -0.0015363222 0
-0.012200005 -0.067321204 0.0017693844 0
-0.012200016 -0.067340724 0.0045067435 0
-0.012200025 -0.067408115 0.0072580716 0
-0.012200037 -0.067725934 0.010341402 0
-0.01212349 -0.067563251 0.012166685 0
-0.010675595 -0.067466453 -0.012199793 0
-0.010685552 -0.067547463 0.012200205 0
-0.0074717468 -0.067306839 -0.012199782 0
-0.0075194901 -0.067329153 0.012200216 0
-0.0043549035 -0.067471698 -0.012199771 0
-0.0044112611 -0.067406751 0.012200227 0
-0.0017647296 -0.067659192 -0.01219976 0
-0.0016448466 -0.067408182 0.012200237 0
0.0014876133 -0.067333892 -0.012199749 0
0.0014146098 -0.067634992 0.012200249 0
0.0044677295 -0.06766355 -0.012199738 0
0.0045021176 -0.067628741 0.01220026 0
0.0073638968 -0.067322694 -0.012199729 0
0.0077709453 -0.067468017 0.012200271 0
0.010630804 -0.067763671 -0.012199716 0
0.010507344 -0.067777872 0.012200283 0
0.012135857 -0.068083845 -0.01218993 0
0.012200036 -0.067508548 -0.010237711 0
0.012200027 -0.067484736 -0.0075927665 0
0.012200016 -0.067603774 -0.0045200498 0
0.012200004 -0.067304857 -0.0015413645 0
0.012199993 -0.067479067 0.0016458776 0
0.012199982 -0.067676544 0.0045115631 0
0.012199971 -0.067456514 0.007603426 0
0.012199961 -0.067543201 0.010426964 0
0.012165406 -0.066766858 0.01215312 0
-0.012157015 -0.064477012 -0.012130789 0
-0.012199962 -0.06456434 -0.010214583 0
-0.012199972 -0.064375438 -0.0075772218 0
-0.012199983 -0.064198978 -0.0043439204 0
-0.012199993 -0.064511694 -0.0016427065 0
-0.012200004 -0.064360365 0.0015168334 0
-0.012200016 -0.064646684 0.0045705196 0
-0.012200027 -0.06476748 0.0076408023 0
-0.012200037 -0.064311422 0.010597088 0
-0.012159823 -0.064131953 0.012126276 0
-0.010634759 -0.064663112 -0.012199803 0
-0.010655224 -0.064168043 0.012200193 0
-0.0074784937 -0.064657517 -0.012199792 0
-0.0077952566 -0.064336896 0.012200204 0
-0.0045663561 -0.064392976 -0.012199783 0
-0.0042705005 -0.064749017 0.012200218 0
-0.0014570134 -0.064553231 -0.012199771 0
-0.0014296721 -0.064351581 0.012200226 0
0.0013369106 -0.064583801 -0.01219976 0
0.0013319107 -0.064589567 0.012200237 0
0.0047360719 -0.064676136 -0.012199748 0
0.0043207016 -0.064721785 0.012200249 0
0.0074766465 -0.064468846 -0.012199738 0
0.0076054437 -0.064416647 0.01220026 0
0.010295448 -0.064769052 -0.012199727 0
0.010623999 -0.064360037 0.012200271 0
0.012145528 -0.064363852 -0.012166231 0
0.012200036 -0.064303398 -0.010395917 0
0.012200025 -0.064331926 -0.0072824997 0
0.012200015 -0.064443231 -0.0044409777 0
0.012200003 -0.064686753 -0.0013803691 0
0.012199994 -0.064428523 0.0013634907 0
0.012199983 -0.064518057 0.0044393921 0
0.012199973 -0.064493105 0.0075081005 0
0.012199961 -0.064415649 0.010663982 0
0.012139549 -0.064331889 0.012161373 0
-0.012098745 -0.061944574 -0.012199819 0
-0.012199962 -0.061568327 -0.010481409 0
-0.012199972 -0.06137367 -0.0074124546 0
-0.012199985 -0.061398253 -0.0040628952 0
-0.012199993 -0.061393198 -0.0016243064 0
-0.012200005 -0.061435781 0.0014678196 0
-0.012200016 -0.061443523 0.0044304482 0
-0.012200026 -0.061179467 0.0075007835 0
-0.012200038 -0.061540034 0.010433684 0
-0.0121628 -0.062299773 0.012140702 0
-0.010422799 -0.06172381 -0.012199814 0
-0.010613507 -0.061426848 0.012200183 0
-0.0073017539 -0.061388094 -0.012199803 0
-0.0077702967 -0.061083943 0.012200193 0
-0.004585349 -0.06148532 -0.012199794 0
-0.004595736 -0.061596956 0.012200205 0
-0.0012637083 -0.061491694 -0.012199781 0
-0.0014431778 -0.061629765 0.012200217 0
0.0014710526 -0.061647628 -0.01219977 0
0.00129852 -0.061325118 0.012200226 0
0.0045219637 -0.06121213 -0.01219976 0
0.004763389 -0.061573032 0.012200239 0
0.007552031 -0.061514005 -0.01219975 0
0.0076515786 -0.061322112 0.012200248 0
0.010522271 -0.061120175 -0.012199739 0
0.010397243 -0.061445456 0.012200259 0
0.012104816 -0.061997674 -0.012121153 0
0.012200036 -0.061663151 -0.010261516 0
0.012200028 -0.061474103 -0.0077438462 0
0.012200016 -0.061294883 -0.0042685694 0
0.012200003 -0.061372947 -0.001128061 0
0.012199993 -0.061068699 0.0015138724 0
0.012199983 -0.061560784 0.0042996029 0
0.012199972 -0.06148934 0.0073501519 0
0.012199962 -0.061454002 0.010318162 0
0.012111579 -0.061764598 0.012169128 0
-0.012107072 -0.058024913 -0.012199833 0
-0.012199963 -0.058291797 -0.010173379 0
-0.012199971 -0.058388483 -0.0076090079 0
-0.012199983 -0.058237102 -0.0044066543 0
-0.012199993 -0.0585231 -0.0015262286 0
-0.012200004 -0.058580667 0.0014197554 0
-0.012200015 -0.058385033 0.0044869031 0
-0.012200027 -0.058435816 0.0074467817 0
-0.012200036 -0.058741271 0.010416843 0
-0.01212126 -0.058746122 0.012169204 0
-0.010325586 -0.058607206 -0.012199824 0
-0.010401168 -0.0582406 0.012200172 0
-0.0074238242 -0.058463011 -0.012199814 0
-0.0075123473 -0.058698043 0.012200184 0
-0.0046676379 -0.058347765 -0.012199805 0
-0.004453884 -0.058240112 0.012200193 0
-0.0016092536 -0.058661833 -0.012199793 0
-0.001553455 -0.058616117 0.012200206 0
0.0015146083 -0.058182608 -0.012199783 0
0.0014805446 -0.058332231 0.012200216 0
0.0046796086 -0.058713015 -0.01219977 0
0.0047439877 -0.058655925 0.012200229 0
0.007525499 -0.058314186 -0.01219976 0
0.0075508822 -0.058564864 0.012200238 0
0.010599053 -0.058293417 -0.012199749 0
0.010466587 -0.058440045 0.012200248 0
0.012125375 -0.058994081 -0.012176435 0
0.012200037 -0.058329426 -0.010605326 0
0.012200028 -0.058701914 -0.0077273552 0
0.012200015 -0.05855348 -0.0042871269 0
0.012200004 -0.058353376 -0.0014210268 0
0.012199993 -0.058604114 0.0014764596 0
0.012199983 -0.058740743 0.0045861457 0
0.012199972 -0.058464423 0.0074379724 0
0.012199963 -0.05855003 0.010383561 0
0.012144126 -0.05892786 0.012142746 0
-0.012162829 -0.055252198 -0.012106235 0
-0.012199961 -0.055267271 -0.01073757 0
-0.012199972 -0.055650704 -0.0074633197 0
-0.012199983 -0.055234339 -0.0044190618 0
-0.012199994 -0.055476915 -0.0013908833 0
-0.012200004 -0.055448614 0.0015211378 0
-0.012200016 -0.055658974 0.0046200734 0
-0.012200026 -0.055631008 0.0075518335 0
-0.012200038 -0.055540334 0.010628544 0
-0.012163905 -0.055445414 0.012155823 0
-0.010428761 -0.055367719 -0.012199837 0
-0.010387813 -0.055390321 0.012200162 0
-0.0075632059 -0.055540837 -0.012199826 0
-0.007441585 -0.055412181 0.012200173 0
-0.0044649909 -0.055358764 -0.012199814 0
-0.0045162337 -0.055702697 0.012200184 0
-0.0013433649 -0.055543456 -0.012199802 0
-0.00149796 -0.055473328 0.012200194 0
0.0015009291 -0.055437207 -0.012199793 0
0.001539154 -0.055504672 0.012200206 0
0.0045739911 -0.055610549 -0.012199781 0
0.00449439 -0.055398289 0.012200215 0
0.0073413337 -0.055711038 -0.01219977 0
0.0074621467 -0.055646002 0.012200227 0
0.010477454 -0.055724915 -0.012199759 0
0.010539845 -0.055323981 0.012200237 0
0.012169747 -0.05540299 -0.012148733 0
0.012200037 -0.055501904 -0.010471393 0
0.012200027 -0.055496488 -0.0075963745 0
0.012200016 -0.055412035 -0.0046933019 0
0.012200004 -0.055633981 -0.0011854422 0
0.012199993 -0.055746224 0.0014433635 0
0.012199983 -0.055568926 0.0042636665 0
0.012199972 -0.055184193 0.0075415331 0
0.012199962 -0.05556358 0.010346601 0
0.012185724 -0.056129392 0.012091547 0
-0.012199957 -0.051967479 -0.012121517 0
-0.012199962 -0.052352984 -0.01063546 0
-0.012199971 -0.052607909 -0.0077152848 0
-0.012199984 -0.0524741 -0.0043076077 0
-0.012199993 -0.052506518 -0.00155566 0
-0.012200006 -0.052474342 0.0016917469 0
-0.012200015 -0.052642729 0.0040122811 0
-0.012200026 -0.052458685 0.0075123883 0
-0.012200037 -0.052614626 0.0103818 0
-0.012171472 -0.052935205 0.012165449 0
-0.010409424 -0.052483913 -0.012199846 0
-0.010411331 -0.052489296 0.012200153 0
-0.0073404522 -0.052467819 -0.012199836 0
-0.0073677804 -0.052619457 0.012200163 0
-0.0046647862 -0.052594699 -0.012199826 0
-0.0045662113 -0.052628741 0.012200174 0
-0.001460679 -0.052588344 -0.012199814 0
-0.00155328 -0.052674919 0.012200185 0
0.0012912108 -0.05275495 -0.012199803 0
0.0014511377 -0.052387979 0.012200194 0
0.0046883477 -0.05236844 -0.012199792 0
0.0044349218 -0.052406821 0.012200205 0
0.0077394526 -0.052737236 -0.01219978 0
0.0077429633 -0.052413285 0.012200218 0
0.010967902 -0.052313391 -0.012199771 0
0.010668336 -0.05251915 0.012200227 0
0.012152982 -0.052278403 -0.012160113 0
0.012200038 -0.052324101 -0.010475963 0
0.012200027 -0.052514188 -0.0075582503 0
0.012200015 -0.052514173 -0.0044826772 0
0.012200004 -0.052568883 -0.0015444112 0
0.012199993 -0.052464824 0.0015025996 0
0.012199982 -0.052256722 0.0045892741 0
0.012199973 -0.052726045 0.0072942306 0
0.012199961 -0.052562691 0.010501074 0
0.012178468 -0.052783322 0.012093401 0
-0.012199962 -0.049431216 -0.010174838 0
-0.012199972 -0.049334127 -0.0078327702 0
-0.012199984 -0.049710535 -0.0044121048 0
-0.012199994 -0.049484484 -0.0013774922 0
-0.012200003 -0.04939004 0.0013190021 0
-0.012200015 -0.049672894 0.0043773223 0
-0.012200028 -0.049277864 0.0076168366 0
-0.012200036 -0.049666367 0.010391725 0
-0.012154417 -0.049752723 0.012153052 0
-0.010412888 -0.049408361 -0.012199857 0
-0.010558556 -0.049417745 0.012200139 0
-0.007335458 -0.049351938 -0.012199847 0
-0.0072357655 -0.049391307 0.012200152 0
-0.0042661517 -0.049217958 -0.012199837 0
-0.0048048026 -0.04960781 0.012200162 0
-0.0014541207 -0.049410798 -0.012199826 0
-0.0014727849 -0.049722493 0.012200174 0
0.0018105956 -0.049511243 -0.012199814 0
0.0015263329 -0.049606416 0.012200184 0
0.0044589587 -0.049400825 -0.012199804 0
0.0045825639 -0.049502566 0.012200194 0
0.0073469114 -0.049341951 -0.012199794 0
0.0074718897 -0.049597617 0.012200206 0
0.010623232 -0.049804389 -0.01219978 0
0.010556024 -0.049680796 0.012200217 0
0.012113917 -0.049654827 -0.012140389 0
0.012200037 -0.049465269 -0.010524712 0
0.012200027 -0.049534418 -0.0076440419 0
0.012200015 -0.049386062 -0.0044122059 0
0.012200004 -0.049672347 -0.0015010807 0
0.012199993 -0.049556158 0.0015000883 0
0.012199983 -0.049445614 0.0045511369 0
0.012199971 -0.049603939 0.0076026479 0
0.01219996 -0.049296111 0.010724774 0
0.012119277 -0.048587158 0.012166216 0
-0.012117586 -0.045896169 -0.012190463 0
-0.012199961 -0.046700511 -0.010565293 0
-0.012199973 -0.046606667 -0.0073113493 0
-0.012199983 -0.046254974 -0.0044353344 0
-0.012199994 -0.046471991 -0.0012658866 0
-0.012200003 -0.046366703 0.0011430406 0
-0.012200014 -0.046252344 0.004133387 0
-0.012200025 -0.046625115 0.0072002984 0
-0.012200037 -0.046755482 0.010578326 0
-0.012158583 -0.046714332 0.012105887 0
-0.01043037 -0.046352897 -0.01219987 0
-0.010388987 -0.046473086 0.01220013 0
-0.007434133 -0.046435591 -0.012199858 0
-0.0076527777 -0.04662101 0.01220014 0
-0.0042154533 -0.046494763 -0.012199845 0
-0.0045605688 -0.046462271 0.012200151 0
-0.0012027542 -0.046483725 -0.012199835 0
-0.0015419708 -0.046841253 0.012200163 0
0.0017200907 -0.046396591 -0.012199825 0
0.0014621619 -0.046078742 0.012200171 0
0.0043730894 -0.046315845 -0.012199815 0
0.0045620571 -0.046337806 0.012200184 0
0.0076870937 -0.046602257 -0.012199802 0
0.007584333 -0.046820469 0.012200196 0
0.01058334 -0.04663505 -0.012199792 0
0.01060317 -0.046209056 0.012200205 0
0.012088462 -0.046584215 -0.012193331 0
0.012200036 -0.046326846 -0.010358454 0
0.012200026 -0.046420917 -0.0075864159 0
0.012200016 -0.046350792 -0.0046272306 0
0.012200003 -0.04646644 -0.0013493791 0
0.012199994 -0.046282291 0.0014790503 0
0.012199983 -0.046718571 0.0046069929 0
0.012199973 -0.046883229 0.0075816861 0
0.012199961 -0.046242665 0.010772929 0
0.012156856 -0.046217479 0.012197666 0
-0.01214539 -0.043738287 -0.012172134 0
-0.012199962 -0.043669317 -0.010280694 0
-0.012199973 -0.04368205 -0.0073470534 0
-0.012199983 -0.043503135 -0.0043119006 0
-0.012199994 -0.043621168 -0.001349796 0
-0.012200004 -0.043421116 0.0014227149 0
-0.012200015 -0.043614872 0.0043229428 0
-0.012200027 -0.043693967 0.0076606227 0
-0.012200037 -0.043640144 0.010605553 0
-0.012144877 -0.04332022 0.012167986 0
-0.010460248 -0.043485176 -0.012199881 0
-0.01051816 -0.043583933 0.012200118 0
-0.007585966 -0.043395322 -0.012199868 0
-0.0073924866 -0.043416694 0.012200129 0
-0.0043217782 -0.043593582 -0.012199857 0
-0.0043931277 -0.043436453 0.01220014 0
-0.0016870445 -0.043375626 -0.012199848 0
-0.001669153 -0.043420468 0.012200151 0
0.0014850463 -0.043421406 -0.012199836 0
0.0014976903 -0.043484099 0.012200162 0
0.0044228025 -0.043549746 -0.012199827 0
0.0043900623 -0.043433398 0.012200172 0
0.0074607995 -0.043574221 -0.012199814 0
0.0076353867 -0.043538157 0.012200185 0
0.010208019 -0.043520063 -0.012199804 0
0.010634529 -0.043574121 0.012200194 0
0.012128277 -0.043175876 -0.012198106 0
0.012200037 -0.043543644 -0.010524578 0
0.012200026 -0.043426935 -0.0074227038 0
0.012200016 -0.043505922 -0.0045263036 0
0.012200004 -0.043401361 -0.001649341 0
0.012199993 -0.04340316 0.0014342034 0
0.012199983 -0.043427661 0.0044969413 0
0.012199971 -0.043256 0.0077018142 0
0.012199962 -0.043378174 0.010554116 0
0.012158207 -0.042430338 0.012167954 0
-0.012102152 -0.040228292 -0.012173313 0
-0.01219996 -0.040479343 -0.010680738 0
-0.012199971 -0.04069256 -0.0077216984 0
-0.012199982 -0.040510502 -0.0045597251 0
-0.012199993 -0.040783186 -0.0014380863 0
-0.012200005 -0.040568214 0.0015902381 0
-0.012200016 -0.040486544 0.0046802303 0
-0.012200028 -0.040533621 0.0077557052 0
-0.012200037 -0.040453289 0.01065371 0
-0.012119894 -0.040661313 0.012182129 0
-0.010609675 -0.040621333 -0.01219989 0
-0.010529385 -0.040384747 0.012200107 0
-0.0075857108 -0.040607374 -0.012199879 0
-0.0072467732 -0.040611785 0.01220012 0
-0.0047201151 -0.040493321 -0.012199869 0
-0.0043240823 -0.040381476 0.012200129 0
-0.0014275153 -0.04044535 -0.012199858 0
-0.0015246592 -0.040494114 0.012200139 0
0.0015310209 -0.040297177 -0.012199847 0
0.0017121397 -0.040547654 0.012200153 0
0.0046667778 -0.040621057 -0.012199836 0
0.0045483392 -0.040433716 0.012200163 0
0.0074667488 -0.040525846 -0.012199825 0
0.0074582882 -0.040534373 0.012200174 0
0.01053896 -0.040827665 -0.012199813 0
0.01057304 -0.040346697 0.012200184 0
0.012043488 -0.041423082 -0.012199807 0
0.012200037 -0.040690977 -0.010535383 0
0.012200025 -0.040446892 -0.00732031 0
0.012200015 -0.04060043 -0.0043957606 0
0.012200004 -0.040444303 -0.0014119339 0
0.012199993 -0.040434387 0.00142998 0
0.012199984 -0.040451642 0.0044408762 0
0.012199972 -0.040341239 0.0074255145 0
0.01219996 -0.040475424 0.01075949 0
0.012128826 -0.040265672 0.012143808 0
-0.012171891 -0.037083331 -0.012162304 0
-0.012199961 -0.037502717 -0.010521673 0
-0.012199972 -0.037485398 -0.0073895552 0
-0.012199983 -0.037284207 -0.0047210599 0
-0.012199993 -0.037489552 -0.001500811 0
-0.012200005 -0.037653781 0.00178473 0
-0.012200016 -0.037480399 0.0045472174 0
-0.012200026 -0.037715424 0.0075559476 0
-0.012200036 -0.037290715 0.010409884 0
-0.012200044 -0.03637705 0.012078948 0
-0.010149619 -0.037644792 -0.012199899 0
-0.010341988 -0.037639644 0.012200098 0
-0.0072582588 -0.037377357 -0.012199891 0
-0.0073194467 -0.037656888 0.012200109 0
-0.0045038573 -0.037426796 -0.012199881 0
-0.0047047646 -0.037572496 0.012200118 0
-0.0016788983 -0.037407063 -0.01219987 0
-0.0013456247 -0.037779942 0.012200131 0
0.0016191319 -0.037638169 -0.012199857 0
0.0014447459 -0.037344009 0.012200139 0
0.0044054775 -0.03744268 -0.012199847 0
0.0045712264 -0.037613556 0.012200152 0
0.0071066241 -0.037340168 -0.012199838 0
0.0075974502 -0.037686475 0.012200163 0
0.01043591 -0.037609972 -0.012199825 0
0.010184417 -0.037617348 0.012200172 0
0.012200044 -0.037749879 -0.012138328 0
0.012200036 -0.037594724 -0.010336879 0
0.012200027 -0.037583243 -0.0074118064 0
0.012200017 -0.037703611 -0.0045318478 0
0.012200003 -0.037643623 -0.0012361234 0
0.012199993 -0.037505571 0.0015282341 0
0.012199982 -0.037520044 0.0046577752 0
0.012199973 -0.037746578 0.0073169018 0
0.012199963 -0.03755156 0.01028239 0
0.012199956 -0.037392937 0.012135837 0
-0.012108549 -0.035160936 -0.012155458 0
-0.012199961 -0.034503039 -0.010486621 0
-0.012199972 -0.034526393 -0.0074395388 0
-0.012199983 -0.034407616 -0.0045010895 0
-0.012199994 -0.034628499 -0.0016094097 0
-0.012200005 -0.034524206 0.0017117249 0
-0.012200015 -0.034313377 0.0042541362 0
-0.012200026 -0.034959827 0.0073714494 0
-0.012200039 -0.034655739 0.010884585 0
-0.012187706 -0.03476233 0.012110154 0
-0.010521507 -0.034357451 -0.012199912 0
-0.010814002 -0.034316536 0.012200085 0
-0.0077402638 -0.034629136 -0.012199902 0
-0.0073564136 -0.034434885 0.012200097 0
-0.0045007379 -0.034682304 -0.012199889 0
-0.004510134 -0.034544714 0.012200108 0
-0.0017487945 -0.034350589 -0.012199881 0
-0.0016513404 -0.03422894 0.012200117 0
0.0013503466 -0.034448307 -0.012199869 0
0.0014763426 -0.034432437 0.012200129 0
0.0045886133 -0.034573391 -0.012199857 0
0.0044702422 -0.034484793 0.01220014 0
0.0072713429 -0.03455672 -0.012199848 0
0.0073194266 -0.034369975 0.01220015 0
0.010662842 -0.034438606 -0.012199837 0
0.010537799 -0.034548532 0.012200162 0
0.012145458 -0.034919597 -0.012096946 0
0.012200037 -0.034532752 -0.010629551 0
0.012200027 -0.034481209 -0.0075107678 0
0.012200017 -0.034737781 -0.0047770548 0
0.012200004 -0.034562729 -0.0015525946 0
0.012199992 -0.034538358 0.0017248559 0
0.012199982 -0.03463316 0.0046626115 0
0.012199972 -0.034434501 0.0074389181 0
0.012199961 -0.034630384 0.01044265 0
0.012199957 -0.034216896 0.012187577 0
-0.012069718 -0.030964803 -0.012192137 0
-0.012199961 -0.031508945 -0.010655208 0
-0.012199972 -0.031397611 -0.0074185687 0
-0.012199983 -0.031314187 -0.0043395334 0
-0.012199993 -0.031465411 -0.0016434708 0
-0.012200004 -0.031211462 0.0015885313 0
-0.012200017 -0.031684477 0.0045219953 0
-0.012200027 -0.031581953 0.0076702158 0
-0.012200036 -0.031555131 0.010225085 0
-0.012111402 -0.031307634 0.012165804 0
