# .PCD v0.7 - Point Cloud Data file format
VERSION 0.7
FIELDS x y z rgb
SIZE 4 4 4 4
TYPE F F F F
COUNT 1 1 1 1
WIDTH 1190
HEIGHT 1
VIEWPOINT 0 0 0 1 0 0 0
POINTS 1190
DATA ascii
-0.0011962363 -0.24000002 -0.0043494636 0
-0.0019152705 -0.24000001 -0.0015302261 0
-0.0013607017 -0.24000001 0.0014546596 0
-0.0010985769 -0.23999999 0.0046739792 0
-0.0019010224 -0.23999998 0.0072180233 0
-0.0022476842 -0.23999998 0.0094277784 0
0.0016462951 -0.24000004 -0.0092229936 0
0.0013827306 -0.24000004 -0.0068759308 0
0.0016091329 -0.24000002 -0.0043518818 0
0.0015940225 -0.24000001 -0.0012991487 0
0.001665202 -0.24000002 0.0014280459 0
0.0019857273 -0.23999999 0.0047624847 0
0.0015089806 -0.23999998 0.0073927753 0
0.0039502555 -0.24000004 -0.0094264252 0
0.0047359597 -0.24000004 -0.0074801887 0
0.0049708076 -0.24000004 -0.0048021325 0
0.0046984823 -0.24000002 -0.0014685449 0
0.0047933673 -0.24000001 0.0014812456 0
0.0042468505 -0.23999999 0.0039007103 0
0.0044643325 -0.23999998 0.0068245721 0
0.0051311431 -0.23999998 0.0094587132 0
0.0076348754 -0.24000004 -0.0095930202 0
0.0080549503 -0.24000004 -0.0072095538 0
0.0075715417 -0.24000004 -0.0041399007 0
0.0075419247 -0.24000001 -0.0015020428 0
0.0074963649 -0.24000001 0.0013891035 0
0.0076835179 -0.23999999 0.0043746126 0
0.0078934943 -0.23999998 0.0073278914 0
0.0082908636 -0.23999998 0.0095388619 0
0.010941142 -0.24000004 -0.0097108241 0
0.010832581 -0.24000004 -0.007289282 0
0.010512982 -0.24000002 -0.0048649283 0
0.010490718 -0.24000002 -0.0015865257 0
0.010446672 -0.24000002 0.0011486714 0
0.010470166 -0.24000001 0.0047739591 0
0.010831281 -0.23999998 0.0075487634 0
0.010134698 -0.23999998 0.0096534677 0
0.013798038 -0.24000004 -0.0092094243 0
0.013647594 -0.24000004 -0.0072582779 0
0.01347331 -0.24000002 -0.0047551016 0
0.013664282 -0.24000001 -0.0013227433 0
0.013237196 -0.24000001 0.0011627994 0
0.013472289 -0.24000001 0.0047653699 0
0.013799448 -0.23999998 0.0079123201 0
0.01387861 -0.23999998 0.0095466645 0
0.015568298 -0.24000004 -0.009688003 0
0.016515242 -0.24000005 -0.0072935703 0
0.016820775 -0.24000004 -0.0049030809 0
0.016719604 -0.24000001 -0.0011563196 0
0.016852928 -0.24000001 0.0015930004 0
0.016184038 -0.23999999 0.0045106323 0
0.016494613 -0.23999999 0.0076966179 0
0.016623423 -0.23999998 0.0094567463 0
0.019294498 -0.24000004 -0.0094758365 0
0.019468948 -0.24000004 -0.0073617157 0
0.019311752 -0.24000002 -0.0044335183 0
0.019819831 -0.24000001 -0.0018077445 0
0.019631432 -0.24000001 0.0011823025 0
0.019412784 -0.23999996 0.0045300182 0
0.019411428 -0.23999998 0.0075253095 0
0.019421164 -0.23999998 0.009427133 0
0.021893447 -0.24000004 -0.0095663695 0
0.022253172 -0.24000004 -0.0073363255 0
0.022705 -0.24000004 -0.004373319 0
0.021988632 -0.24000001 -0.0019047392 0
0.022537749 -0.23999999 0.0013757445 0
0.022268958 -0.24000001 0.0042239684 0
0.022394558 -0.23999999 0.0077402811 0
0.022610608 -0.23999998 0.0094567901 0
0.025022779 -0.24000004 -0.0093126297 0
0.025736745 -0.24000005 -0.0077170865 0
0.025680406 -0.24000002 -0.0047774627 0
0.025652658 -0.24000001 -0.0015312557 0
0.025789941 -0.24000001 0.0018150924 0
0.02503215 -0.23999999 0.0046090907 0
0.025574766 -0.23999998 0.0071453867 0
0.025767259 -0.23999998 0.0092510907 0
0.029246062 -0.24000004 -0.0092245368 0
0.028078726 -0.24000005 -0.0072236606 0
0.028528482 -0.23999999 -0.0046952241 0
0.028071763 -0.24000001 -0.0018231105 0
0.028394239 -0.24000001 0.0014965247 0
0.028847525 -0.23999999 0.0044032885 0
0.028481729 -0.23999998 0.0073302421 0
0.028477181 -0.23999998 0.0094558615 0
0.032008696 -0.24000004 -0.0096083926 0
0.031715244 -0.24000004 -0.0074853967 0
0.031679008 -0.24000002 -0.0046661594 0
0.031367399 -0.24000002 -0.0012780258 0
0.031287678 -0.24000001 0.0015689424 0
0.031250335 -0.24000001 0.0046376251 0
0.03133408 -0.23999999 0.0078338617 0
0.031571098 -0.23999998 0.0093197124 0
0.034085069 -0.24000004 -0.0095176129 0
0.034440655 -0.24000004 -0.0073864413 0
0.034880459 -0.24000004 -0.0051406329 0
0.034667153 -0.24000001 -0.0014783199 0
0.034376465 -0.23999999 0.0016319151 0
0.034630306 -0.23999999 0.0045436798 0
0.034747392 -0.23999998 0.0072140372 0
0.035393655 -0.23999998 0.0094597023 0
0.037001718 -0.24000004 -0.009375968 0
0.037725665 -0.24000004 -0.0080458699 0
0.037424337 -0.24000002 -0.005423143 0
0.037109058 -0.24000001 -0.0010739334 0
0.037482187 -0.24000001 0.00157732 0
0.037551593 -0.24000001 0.0047376556 0
0.037840486 -0.23999998 0.007533899 0
0.037407365 -0.23999998 0.0093479659 0
0.041063692 -0.24000004 -0.0093862824 0
0.040478837 -0.24000001 -0.0076001179 0
0.040652391 -0.24000004 -0.0045607113 0
0.040159184 -0.24000001 -0.0010823576 0
0.040449433 -0.24000002 0.0014444903 0
0.040579483 -0.23999999 0.0049089608 0
0.040082287 -0.23999995 0.0073896493 0
0.039494324 -0.23999999 0.0095492871 0
0.042952269 -0.24000004 -0.0092083979 0
0.042713352 -0.24000004 -0.0076493984 0
0.043450445 -0.24000002 -0.0042840568 0
0.043826472 -0.24000002 -0.0013492422 0
0.043992892 -0.24000002 0.0014283282 0
0.043823048 -0.23999999 0.0043439819 0
0.043313771 -0.23999998 0.0069189598 0
0.042543117 -0.23999998 0.009592941 0
0.046819974 -0.24000004 -0.0094241742 0
0.046084188 -0.24000004 -0.0072167898 0
0.047031656 -0.24000002 -0.0042795083 0
0.04642133 -0.24000002 -0.0011265159 0
0.046428874 -0.24000001 0.0015688596 0
0.04654913 -0.23999999 0.0050937776 0
0.046561819 -0.23999998 0.0070038191 0
0.050184101 -0.24000004 -0.0094635617 0
0.049243283 -0.24000004 -0.0079135764 0
0.049680617 -0.24000002 -0.0045402749 0
0.049509615 -0.24000002 -0.0012956791 0
0.049800921 -0.24000001 0.0017085406 0
0.049316183 -0.23999999 0.0040555443 0
0.049143717 -0.23999999 0.0079449788 0
0.049751591 -0.23999998 0.0093362182 0
0.052240066 -0.24000004 -0.0068362928 0
0.052533925 -0.24000004 -0.0040820041 0
0.052895036 -0.24000001 -0.0014859238 0
0.052856669 -0.24000001 0.0016519495 0
0.051996652 -0.23999999 0.0043777311 0
0.052239582 -0.23999998 0.0074220034 0
0.052058104 -0.23999998 0.0096415104 0
0.054972842 -0.24000004 -0.0096743898 0
0.056157175 -0.24000005 -0.007663914 0
0.055445734 -0.24000002 -0.0045854375 0
0.055030763 -0.24000001 -0.0012920887 0
0.055754259 -0.24000001 0.0013798018 0
0.055462491 -0.23999999 0.0044415863 0
0.055584189 -0.23999999 0.0073507214 0
0.058732618 -0.24000004 -0.0073454063 0
0.058047421 -0.24000004 -0.003991555 0
0.058338549 -0.23999998 -0.0016046307 0
0.058348145 -0.24000001 0.0013947223 0
0.058688909 -0.24000001 0.0046351161 0
0.059249368 -0.23999998 0.0083782496 0
-0.0096113244 -0.23895973 -0.0097253304 0
-0.0098842271 -0.23896196 -0.0075037437 0
-0.0099310465 -0.23864378 -0.0044450206 0
-0.0098274136 -0.23906001 -0.001422697 0
-0.0099904584 -0.23858757 0.0011950729 0
-0.0099149458 -0.23863685 0.0043081213 0
-0.009913017 -0.23864807 0.0074172383 0
-0.0095166117 -0.2388642 0.0097309398 0
-0.0074469354 -0.23853889 -0.0098551884 0
-0.0075624278 -0.23999991 -0.0073199873 0
-0.0075902389 -0.23999991 -0.0042213826 0
-0.0076156361 -0.23999989 -0.0016744406 0
-0.00771333 -0.23999992 0.001757324 0
-0.0073250229 -0.23999991 0.0043438417 0
-0.0073414519 -0.23999986 0.0074339574 0
-0.0075843367 -0.23897396 0.0099197878 0
-0.0047434252 -0.2390462 -0.0098620942 0
-0.0044696745 -0.23999991 -0.0073554688 0
-0.0043261698 -0.23999996 -0.0048073297 0
-0.0044943597 -0.23999992 -0.0015039811 0
-0.0045036632 -0.23999989 0.001559224 0
-0.0045332741 -0.23999988 0.0046500554 0
-0.00478308 -0.23999986 0.0074808677 0
-0.0043837358 -0.23868641 0.0099123782 0
-0.0017220537 -0.23899734 -0.0098914448 0
-0.0016066934 -0.23999994 -0.0077371723 0
-0.0015046266 -0.23999994 -0.0046073301 0
-0.0014693104 -0.23999995 -0.0013733373 0
-0.0014181528 -0.23999992 0.0015970912 0
-0.0016668924 -0.23999989 0.0041310564 0
-0.0013930087 -0.23999991 0.0075156861 0
-0.0013743119 -0.23915642 0.0098435869 0
0.0016518577 -0.23890486 -0.009888676 0
0.0012952345 -0.23999995 -0.0074783089 0
0.0016099385 -0.23999994 -0.0043036812 0
0.0015048737 -0.23999994 -0.0015239259 0
0.0013188688 -0.23999992 0.0016238347 0
0.0014021161 -0.23999998 0.0043497677 0
0.0015105038 -0.23999988 0.0075845839 0
0.0014431967 -0.23875318 0.0099163083 0
0.0043895231 -0.23888791 -0.0098985378 0
0.0046767225 -0.23999994 -0.0076643145 0
0.0045669987 -0.23999994 -0.0046506985 0
0.0045078988 -0.23999989 -0.0015461994 0
0.0044675292 -0.23999998 0.0014910733 0
0.0045615081 -0.23999992 0.0044308822 0
0.0046135536 -0.23999986 0.00750951 0
0.0046085953 -0.23885891 0.0099150157 0
0.0075536631 -0.23861794 -0.0099083725 0
0.0077498686 -0.23999994 -0.0074331886 0
0.007437746 -0.23999989 -0.0044525107 0
0.0072210371 -0.24000001 -0.0017432411 0
0.0073235123 -0.23999992 0.0017370974 0
0.0076000076 -0.23999989 0.0043678884 0
0.007612193 -0.23999988 0.007673325 0
0.007619747 -0.23876272 0.0098589649 0
0.010500756 -0.23899177 -0.0099516483 0
0.010754055 -0.23999995 -0.0075403508 0
0.010804258 -0.23999994 -0.0044856481 0
0.010701019 -0.23999995 -0.001701551 0
0.010559797 -0.23999992 0.0016034519 0
0.010378597 -0.23999994 0.0047145966 0
0.010475718 -0.23999986 0.0076978193 0
0.010560381 -0.23851626 0.0099479137 0
0.013601737 -0.2387055 -0.0099269319 0
0.013717667 -0.23999995 -0.0075556277 0
0.013593206 -0.23999995 -0.0046299142 0
0.013463569 -0.23999998 -0.0016686412 0
0.013400196 -0.23999992 0.001430011 0
0.013519506 -0.23999986 0.0046319836 0
0.01341348 -0.23999989 0.0075873267 0
0.013265223 -0.23900329 0.0098889703 0
0.016503923 -0.23866069 -0.0099288346 0
0.016649995 -0.23999992 -0.0073373704 0
0.01630141 -0.23999996 -0.0050605047 0
0.016601492 -0.23999992 -0.0016343326 0
0.016610723 -0.23999992 0.0015419225 0
0.016464358 -0.23999998 0.0043761572 0
0.016560648 -0.23999989 0.0074290377 0
0.01662584 -0.23878072 0.0098797223 0
0.019665902 -0.2385824 -0.0098981457 0
0.019496994 -0.23999994 -0.007457322 0
0.019763866 -0.23999996 -0.0045096846 0
0.019304598 -0.23999991 -0.0014291902 0
0.019652793 -0.23999995 0.0016372513 0
0.019583404 -0.23999991 0.0043259836 0
0.019656083 -0.23999985 0.0073043103 0
0.01927698 -0.23876514 0.009896785 0
0.022532819 -0.23909761 -0.0098560713 0
0.022718359 -0.23999992 -0.0077728857 0
0.022813439 -0.23999994 -0.0043229302 0
0.022901313 -0.23999999 -0.0016255837 0
0.022502543 -0.23999989 0.0014263558 0
0.022679148 -0.23999992 0.0048226137 0
0.022468662 -0.23999988 0.0075083622 0
0.022376778 -0.23871394 0.0099166697 0
0.0256334 -0.23887569 -0.0098754419 0
0.025340386 -0.23999991 -0.0078017265 0
0.02558204 -0.23999994 -0.0043081227 0
0.025550693 -0.23999989 -0.0014628698 0
0.025629006 -0.23999995 0.0011466802 0
0.025561625 -0.23999988 0.0045076604 0
0.025301738 -0.23999989 0.0078311833 0
0.025416978 -0.23913719 0.0097935703 0
0.028639823 -0.23873575 -0.0098538278 0
0.028654745 -0.23999992 -0.00729963 0
0.028644776 -0.23999992 -0.0045979773 0
0.028434284 -0.23999992 -0.001566242 0
0.028369451 -0.23999998 0.0015939783 0
0.028560502 -0.23999991 0.0047579342 0
0.028539736 -0.23999986 0.0075178375 0
0.028363412 -0.23888662 0.0098487251 0
0.03135835 -0.23867536 -0.0098941382 0
0.031307779 -0.23999999 -0.0073263929 0
0.031437516 -0.23999989 -0.0046047275 0
0.031446125 -0.23999992 -0.0014729601 0
0.031585515 -0.23999995 0.001422547 0
0.031532072 -0.23999991 0.0044607674 0
0.031528987 -0.23999988 0.0075408313 0
0.031472467 -0.2387284 0.0098943207 0
0.034517873 -0.23892008 -0.0099466378 0
0.034748912 -0.23999996 -0.007649451 0
0.034378458 -0.23999998 -0.0045576869 0
0.034615494 -0.23999992 -0.0014480118 0
0.034469124 -0.23999992 0.0012336454 0
0.03439397 -0.23999998 0.0043195616 0
0.034414079 -0.23999988 0.0074440264 0
0.034471568 -0.23879339 0.0098978681 0
0.037666779 -0.23884268 -0.0098934937 0
0.037892029 -0.23999998 -0.007560391 0
0.037288558 -0.23999994 -0.0045502377 0
0.037603647 -0.23999992 -0.0012776792 0
0.037412453 -0.23999992 0.0014391112 0
0.037587665 -0.23999994 0.0046166112 0
0.036986548 -0.23999995 0.0076587787 0
0.037328675 -0.23858674 0.0099394489 0
0.040507674 -0.23874705 -0.00991257 0
0.040463537 -0.23999994 -0.0074747913 0
0.040641751 -0.23999994 -0.0045684767 0
0.040326841 -0.23999999 -0.0016290422 0
0.040553797 -0.23999996 0.0016536949 0
0.040387332 -0.23999991 0.0044308673 0
0.040187281 -0.23999992 0.0075798114 0
0.040343795 -0.23877677 0.0098711746 0
0.043397166 -0.23868881 -0.0099229002 0
0.04333628 -0.23999992 -0.0075740023 0
0.043671168 -0.23999992 -0.0047254479 0
0.043644618 -0.23999992 -0.0012282652 0
0.043579224 -0.23999998 0.0015720373 0
0.043569293 -0.23999986 0.0045487056 0
0.043260716 -0.23999986 0.0072682346 0
0.04349637 -0.23882122 0.0098171541 0
0.04664015 -0.23878905 -0.0099298889 0
0.046238355 -0.23999996 -0.0074551157 0
0.046239778 -0.23999991 -0.0045965081 0
0.046404835 -0.23999992 -0.0014663656 0
0.046531796 -0.23999992 0.0016954251 0
0.046398297 -0.23999991 0.0047388393 0
0.046459276 -0.23999985 0.0072336709 0
0.046406213 -0.23871163 0.0098899491 0
0.049458247 -0.23894508 -0.0098885791 0
0.04949528 -0.23999994 -0.0073707048 0
0.049512651 -0.23999989 -0.0044221762 0
0.049397349 -0.23999999 -0.0014708856 0
0.049673479 -0.23999995 0.0012904085 0
0.049131602 -0.23999991 0.0041825343 0
0.049101014 -0.23999986 0.0075798896 0
0.049573291 -0.23877627 0.0099153519 0
0.0525483 -0.23897658 -0.0098164333 0
0.052737154 -0.23999998 -0.0075066932 0
0.052646328 -0.23999995 -0.0042855558 0
0.052517757 -0.23999988 -0.001484819 0
0.052406542 -0.23999989 0.0013651685 0
0.052433398 -0.23999992 0.0044076592 0
0.052760087 -0.23999985 0.0076417173 0
0.052487615 -0.23874375 0.0099270716 0
0.055625327 -0.23897038 -0.0098678004 0
0.055426124 -0.23999992 -0.0074318042 0
0.055339802 -0.23999991 -0.0048968233 0
0.05553833 -0.23999989 -0.0016693982 0
0.055510059 -0.23999992 0.0013987449 0
0.055796936 -0.23999991 0.0046213195 0
0.055815969 -0.23999983 0.0076153963 0
0.055527277 -0.23868173 0.0099180639 0
0.05863025 -0.23877446 -0.0098856762 0
0.058947004 -0.23959707 -0.0074759233 0
0.058798257 -0.23978171 -0.0043901787 0
0.059006121 -0.23928419 -0.0015376223 0
0.058910217 -0.23972617 0.0014071293 0
0.058947243 -0.23959295 0.0047790413 0
0.058530927 -0.23970756 0.0073970607 0
0.058590103 -0.23870678 0.0098833693 0
0.060000036 -0.23872776 -0.0095362524 0
0.060000006 -0.23841466 -0.0073858295 0
0.060000002 -0.23885858 -0.0046407771 0
0.059999976 -0.23864758 -0.0015082594 0
0.05999998 -0.23858456 0.0012402809 0
0.059999961 -0.23881149 0.0045995209 0
0.059999943 -0.23851353 0.0074842172 0
0.059999973 -0.23839124 0.0096083973 0
-0.0096636377 -0.23554835 -0.0097463606 0
-0.0099999718 -0.2354032 -0.0075366395 0
-0.0099999812 -0.23543662 -0.0047047469 0
-0.0099999914 -0.2355392 -0.0015120846 0
-0.010000003 -0.23556644 0.0013361357 0
-0.010000017 -0.23551038 0.0043819258 0
-0.010000025 -0.23539059 0.0073963972 0
-0.0097089503 -0.23542763 0.0098014819 0
-0.0075944969 -0.23556627 -0.0099991718 0
-0.0072419797 -0.23548321 0.010000823 0
-0.0047585568 -0.23534524 -0.0099991616 0
-0.0045233881 -0.23564552 0.010000835 0
-0.0015032673 -0.23547128 -0.0099991504 0
-0.0016150728 -0.23549362 0.010000844 0
0.0017460127 -0.23515697 -0.0099991402 0
0.0014936463 -0.23528209 0.010000855 0
0.0043226285 -0.23522766 -0.0099991309 0
0.0046906518 -0.23535281 0.010000868 0
0.00755738 -0.2353241 -0.0099991197 0
0.0075175506 -0.23550668 0.010000877 0
0.01060384 -0.23528589 -0.0099991076 0
0.010423948 -0.23534109 0.010000888 0
0.013266839 -0.23549862 -0.0099990992 0
0.013753358 -0.23556025 0.0100009 0
0.016622476 -0.2356226 -0.0099990824 0
0.016552418 -0.23541394 0.01000091 0
0.019558411 -0.23570684 -0.009999074 0
0.019455401 -0.2356936 0.010000924 0
0.022361087 -0.23558992 -0.0099990657 0
0.022321498 -0.23557888 0.010000933 0
0.025791883 -0.23528031 -0.0099990526 0
0.025749456 -0.23536666 0.010000942 0
0.02860293 -0.23542178 -0.0099990414 0
0.028491618 -0.23558831 0.010000954 0
0.03142336 -0.23526914 -0.0099990321 0
0.031433538 -0.23576909 0.010000964 0
0.034601346 -0.23536554 -0.009999021 0
0.03478929 -0.23549139 0.010000977 0
0.037595205 -0.23560244 -0.0099990079 0
0.037724067 -0.23523502 0.010000989 0
0.040504113 -0.23549722 -0.0099989995 0
0.04065254 -0.23525991 0.010000994 0
0.043480251 -0.23547554 -0.0099989865 0
0.043486539 -0.23553273 0.010001012 0
0.046356715 -0.23548894 -0.0099989772 0
0.046414543 -0.23538974 0.01000102 0
0.049176745 -0.23548609 -0.0099989688 0
0.049405288 -0.2355849 0.01000103 0
0.052439891 -0.23572005 -0.0099989539 0
0.052392952 -0.23560119 0.01000104 0
0.055434827 -0.23533647 -0.0099989446 0
0.055502355 -0.23542447 0.010001051 0
0.058582798 -0.235348 -0.0099245291 0
0.060000028 -0.23566833 -0.0074452003 0
0.060000014 -0.23486002 -0.0044171433 0
0.060000002 -0.23611191 -0.0017295782 0
0.059999991 -0.23574805 0.0016624141 0
0.05999998 -0.23589329 0.0045067011 0
0.059999973 -0.2353434 0.0076022302 0
0.058559813 -0.23565029 0.0099746194 0
0.060000036 -0.23581229 -0.0094402526 0
0.060000006 -0.23534352 -0.0076050214 0
0.059999995 -0.23533814 -0.0043256781 0
0.059999984 -0.23549111 -0.0014219916 0
0.059999965 -0.23536535 0.0016951592 0
0.059999958 -0.23539697 0.0045603709 0
0.059999961 -0.23589313 0.0071978779 0
0.059999969 -0.23492157 0.0093654785 0
-0.0096693467 -0.23250964 -0.0098361345 0
-0.00999997 -0.23268135 -0.0075214356 0
-0.0099999802 -0.23239721 -0.0044801114 0
-0.0099999923 -0.23259287 -0.0012118289 0
-0.010000004 -0.23254399 0.0014505058 0
-0.010000014 -0.23268858 0.0045726039 0
-0.010000027 -0.23280399 0.0077882865 0
-0.0097677335 -0.23246793 0.0097135166 0
-0.0074183899 -0.23243232 -0.0099991839 0
-0.0072738035 -0.23250253 0.010000816 0
-0.0046335417 -0.23233521 -0.0099991765 0
-0.0043191025 -0.23237695 0.010000822 0
-0.0017272029 -0.23250639 -0.0099991625 0
-0.0018870378 -0.23222004 0.010000832 0
0.0015105312 -0.23252067 -0.0099991513 0
0.0015395248 -0.23257895 0.010000846 0
0.0045629567 -0.23257709 -0.0099991402 0
0.0045696143 -0.23249038 0.010000858 0
0.0075126141 -0.2326048 -0.0099991309 0
0.0075602951 -0.23282047 0.010000868 0
0.010460773 -0.23269124 -0.0099991178 0
0.010486148 -0.2328244 0.010000879 0
0.013267491 -0.23257817 -0.0099991085 0
0.013372654 -0.23257053 0.01000089 0
0.016488107 -0.2322827 -0.0099990973 0
0.016454818 -0.23258153 0.010000899 0
0.019474529 -0.23259556 -0.0099990843 0
0.019448197 -0.23223943 0.010000909 0
0.022765195 -0.23236963 -0.009999075 0
0.022281036 -0.23240872 0.010000919 0
0.025792645 -0.23249152 -0.0099990629 0
0.025545593 -0.23255435 0.010000933 0
0.028529732 -0.23251292 -0.0099990517 0
0.028464394 -0.23264667 0.010000941 0
0.031396873 -0.23259835 -0.0099990414 0
0.031741694 -0.23247282 0.010000953 0
0.034304135 -0.23234256 -0.0099990321 0
0.034464885 -0.23259893 0.010000963 0
0.037598468 -0.23254384 -0.0099990182 0
0.037266858 -0.23259351 0.010000976 0
0.040528223 -0.23246267 -0.0099990088 0
0.040720023 -0.23257093 0.010000987 0
0.043368712 -0.23289344 -0.0099989977 0
0.043395843 -0.23253705 0.010000998 0
0.046542954 -0.23241322 -0.0099989865 0
0.046345312 -0.23267412 0.010001007 0
0.04958903 -0.23242167 -0.009998979 0
0.049630407 -0.23253061 0.010001019 0
0.052459307 -0.23246552 -0.0099989651 0
0.052772701 -0.23248516 0.01000103 0
0.055694424 -0.23252191 -0.0099989539 0
0.055591505 -0.23223437 0.010001039 0
0.058683023 -0.23260809 -0.0099527529 0
0.060000028 -0.23268741 -0.0078496896 0
0.060000014 -0.2324477 -0.0044641565 0
0.060000002 -0.23262756 -0.0016335939 0
0.059999995 -0.23252732 0.0011639771 0
0.059999984 -0.23297969 0.0044783629 0
0.059999973 -0.23264754 0.0077008796 0
0.058723081 -0.23246782 0.0099317813 0
0.06000004 -0.23253296 -0.009423092 0
0.059999995 -0.23262937 -0.007684187 0
0.059999995 -0.23226392 -0.0045527848 0
0.05999998 -0.23236454 -0.0014647614 0
0.059999973 -0.23238108 0.0015628771 0
0.059999954 -0.23266509 0.0046435455 0
0.059999973 -0.23262566 0.0074165808 0
0.059999969 -0.23268823 0.0093680881 0
-0.0098052071 -0.22969402 -0.0097084157 0
-0.00999997 -0.22958492 -0.0077542081 0
-0.0099999802 -0.22937895 -0.0045951759 0
-0.0099999914 -0.22942905 -0.0017679182 0
-0.010000004 -0.22939922 0.0017085127 0
-0.010000014 -0.22968131 0.0046761176 0
-0.010000027 -0.22974727 0.0073796343 0
-0.0096780108 -0.22938298 0.0097352788 0
-0.0074969134 -0.22961499 -0.0099991951 0
-0.0071554934 -0.22939067 0.010000804 0
-0.0045069251 -0.22944464 -0.0099991821 0
-0.0045295963 -0.22965072 0.010000811 0
-0.0016648149 -0.22958982 -0.0099991718 0
-0.0012593007 -0.2296548 0.010000829 0
0.0011735421 -0.23012957 -0.0096697779 0
0.00073442812 -0.22968264 -0.0075640325 0
0.00083265384 -0.22983955 -0.004539765 0
0.0011563814 -0.22983906 -0.0013566463 0
0.00073287287 -0.22972541 0.0013072902 0
0.00092559936 -0.22974896 0.0045850673 0
0.00093503029 -0.22973585 0.0074199615 0
0.00088355027 -0.2299863 0.0097060483 0
0.004373055 -0.23046578 -0.0097051868 0
0.0042073205 -0.23019996 -0.0074095065 0
0.004499984 -0.23019992 -0.0046032299 0
0.0043259463 -0.23019993 -0.0013654964 0
0.0041662809 -0.23019992 0.0016377661 0
0.0047505987 -0.2301999 0.0043313359 0
0.0046604872 -0.23019989 0.007666748 0
0.0047879783 -0.23038292 0.009608116 0
0.007523234 -0.23041043 -0.009717037 0
0.0073872614 -0.23019995 -0.0075926953 0
0.0074677272 -0.23019995 -0.004527247 0
0.0072627827 -0.23019992 -0.0016934018 0
0.0074881995 -0.23019989 0.0016956622 0
0.0075678434 -0.23019987 0.0045080436 0
0.0075820195 -0.23019989 0.0073747467 0
0.0080488482 -0.23038001 0.0096833976 0
0.010606152 -0.23030038 -0.0095698601 0
0.010486781 -0.23019995 -0.0074176486 0
0.010519151 -0.23019993 -0.0045082821 0
0.010427553 -0.2301999 -0.0014810829 0
0.010849445 -0.23019993 0.0014806086 0
0.010606655 -0.23019992 0.0044924892 0
0.010470361 -0.23019987 0.0073356065 0
0.01030444 -0.23036499 0.0097587779 0
0.01345017 -0.23038952 -0.0097312983 0
0.013401519 -0.23019999 -0.0074602119 0
0.013393395 -0.23019993 -0.0044828379 0
0.013260847 -0.23019993 -0.0014637789 0
0.01360364 -0.23019992 0.0013177559 0
0.013493838 -0.2301999 0.004514806 0
0.013476639 -0.23019987 0.0075153653 0
0.013210826 -0.23053901 0.009775483 0
0.01639 -0.23033069 -0.0096857315 0
0.016291032 -0.23019993 -0.0075528785 0
0.01652677 -0.23019993 -0.0046573365 0
0.016241204 -0.23019996 -0.0014257204 0
0.016447667 -0.2301999 0.0013765318 0
0.016332466 -0.23019992 0.0046351501 0
0.016607212 -0.23019986 0.0075045903 0
0.01646311 -0.23044202 0.0097029628 0
0.019374335 -0.23041598 -0.0097426223 0
0.019368831 -0.23019996 -0.0076871356 0
0.019493742 -0.23019992 -0.0044731274 0
0.019370114 -0.23019992 -0.0015900069 0
0.019642131 -0.23019989 0.0014956052 0
0.019299764 -0.2301999 0.0047732121 0
0.019594135 -0.23019989 0.0071419044 0
0.019594066 -0.23032999 0.0096701197 0
0.022374468 -0.23036079 -0.0096236588 0
0.022393605 -0.23019995 -0.0076457341 0
0.022500841 -0.23019992 -0.0044430643 0
0.022476405 -0.2301999 -0.0016950796 0
0.022644443 -0.23019992 0.0016456501 0
0.022573408 -0.23019992 0.0044789608 0
0.022287097 -0.23019989 0.0074188057 0
0.02257154 -0.23034492 0.0097601032 0
0.02565957 -0.23032147 -0.0096755801 0
0.025555614 -0.23019993 -0.0078123929 0
0.025543371 -0.23019993 -0.0042809094 0
0.025590645 -0.23019993 -0.0016687635 0
0.025323989 -0.23019993 0.0011929206 0
0.025543623 -0.2301999 0.0047941757 0
0.025480319 -0.23019989 0.0072634234 0
0.025372805 -0.23039436 0.0097420784 0
0.028337037 -0.23038018 -0.0098064253 0
0.028422294 -0.23019996 -0.0075052404 0
0.028470047 -0.23019995 -0.0043354263 0
0.028345162 -0.23019996 -0.0016108775 0
0.028527645 -0.23019996 0.0013454701 0
0.028573547 -0.23019992 0.0046825577 0
0.028561711 -0.2301999 0.0073742359 0
0.02859785 -0.23034368 0.0095645413 0
0.031347178 -0.23040302 -0.0096366536 0
0.031489167 -0.23019999 -0.0074838637 0
0.03147117 -0.23019993 -0.0043071597 0
0.03144053 -0.23019992 -0.0016267814 0
0.031509187 -0.23019992 0.0015592162 0
0.03139006 -0.2301999 0.0044599534 0
0.031292897 -0.23019989 0.0075060418 0
0.031667728 -0.23036927 0.0097103985 0
0.034293842 -0.23039921 -0.0097583514 0
0.034546189 -0.23019993 -0.0076450752 0
0.034306746 -0.2301999 -0.0047240378 0
0.034571681 -0.23019992 -0.0016523624 0
0.034483578 -0.2301999 0.0015674211 0
0.034476303 -0.2301999 0.0042659715 0
0.034501318 -0.23019992 0.0074592866 0
0.034573253 -0.23033805 0.0096200388 0
0.037243497 -0.23047501 -0.0097141769 0
0.03755131 -0.23019995 -0.0074331337 0
0.037626352 -0.23019992 -0.0046817991 0
0.037550408 -0.2301999 -0.0014776569 0
0.03739661 -0.23019993 0.0017432098 0
0.037369121 -0.2301999 0.0044861515 0
0.037548393 -0.23019987 0.0075114286 0
0.037607469 -0.23038915 0.0097911069 0
0.040152118 -0.23043525 -0.00982395 0
0.040604006 -0.23019995 -0.007374946 0
0.040495235 -0.23019993 -0.004459037 0
0.040530354 -0.2301999 -0.0015539619 0
0.040539846 -0.23019992 0.0014462692 0
0.040428739 -0.23019993 0.0042674611 0
0.040630955 -0.23019989 0.0075271362 0
0.040594012 -0.23034531 0.009663336 0
0.04345898 -0.2303102 -0.0096877012 0
0.043444149 -0.23019993 -0.0076412973 0
0.043539781 -0.23019993 -0.0045052296 0
0.043410391 -0.2301999 -0.0015950752 0
0.043576151 -0.23019992 0.0015766892 0
0.043438122 -0.23019989 0.0045237779 0
0.043384008 -0.23019989 0.0075895255 0
0.043615613 -0.23028976 0.0097382292 0
0.046637651 -0.23030081 -0.0097221369 0
0.046496972 -0.23019995 -0.0075472742 0
0.046528343 -0.23019992 -0.0044195708 0
0.046489447 -0.23019992 -0.0016576858 0
0.046508256 -0.2301999 0.0016575189 0
0.046275768 -0.23019989 0.0046113101 0
0.046523456 -0.23019992 0.007533133 0
0.046321038 -0.2303921 0.009785125 0
0.049803291 -0.23036556 -0.0096480586 0
0.049538579 -0.23019992 -0.007748866 0
0.0494412 -0.23019993 -0.0045276559 0
0.049523771 -0.23019995 -0.0012759501 0
0.049351543 -0.23019992 0.0014984225 0
0.049523618 -0.2301999 0.0046575656 0
0.04950821 -0.2301999 0.0074608512 0
0.049553689 -0.23042782 0.0097385673 0
0.052275062 -0.2303635 -0.0097783143 0
0.052579623 -0.23019993 -0.0074409428 0
0.05237307 -0.23019998 -0.0046840003 0
0.052629501 -0.23019992 -0.0014210641 0
0.052758131 -0.23019989 0.0015069162 0
0.052440181 -0.2301999 0.0044251462 0
0.052378029 -0.23019987 0.0074813529 0
0.052544404 -0.23044594 0.0099122729 0
0.055614535 -0.230377 -0.0096888971 0
0.055406932 -0.23019993 -0.0074884975 0
0.05569604 -0.23019992 -0.00469372 0
0.05553421 -0.23019992 -0.0017838356 0
0.055369776 -0.2301999 0.0013853444 0
0.055778343 -0.2301999 0.0044635078 0
0.055665914 -0.23019987 0.0075846133 0
0.055639211 -0.23042811 0.0098316139 0
0.058203444 -0.2302538 -0.0096300682 0
0.058470178 -0.23021495 -0.0073771519 0
0.058499247 -0.23020735 -0.0045544137 0
0.058751378 -0.23020017 -0.0012900986 0
0.058804497 -0.23024637 0.0013922943 0
0.058383681 -0.23022674 0.0046227556 0
0.05853292 -0.23023587 0.0077259713 0
0.058373481 -0.23034418 0.0097180754 0
0.060000036 -0.23057397 -0.0099609727 0
0.060000028 -0.23058708 -0.0074838675 0
0.060000017 -0.23051924 -0.0044461326 0
0.060000006 -0.23061904 -0.0012977547 0
0.060000002 -0.23043014 0.0012282486 0
0.059999984 -0.2306665 0.0043303557 0
0.059999976 -0.23064023 0.0076977299 0
0.059999969 -0.23074487 0.0095652342 0
-0.0099241389 -0.22646388 -0.009555513 0
-0.0099999737 -0.22644715 -0.0075286804 0
-0.0099999802 -0.2266366 -0.0046549635 0
-0.0099999923 -0.22638555 -0.0013975337 0
-0.010000002 -0.22645482 0.0015247799 0
-0.010000017 -0.22652857 0.0045374963 0
-0.010000026 -0.22648259 0.0076369732 0
-0.0096599022 -0.22663018 0.0097590555 0
-0.0075953584 -0.22653697 -0.0099992035 0
-0.007773513 -0.22642897 0.01000079 0
-0.00448801 -0.22668236 -0.0099991923 0
-0.0044215946 -0.22639225 0.010000802 0
-0.0016361241 -0.22661391 -0.0099991821 0
-0.0015027357 -0.22658102 0.010000812 0
3.4778289e-08 -0.2263485 -0.0096064685 0
2.7524425e-08 -0.22648619 -0.007602633 0
1.7275791e-08 -0.22672141 -0.0047715101 0
5.0228399e-09 -0.22638565 -0.001386709 0
-5.9811351e-09 -0.22670381 0.0016530724 0
-1.5543957e-08 -0.22647996 0.0042947424 0
-2.7278491e-08 -0.22657122 0.0075363354 0
-3.3946755e-08 -0.22665472 0.0093784025 0
-0.0096415076 -0.22335938 -0.0098641245 0
-0.0099999718 -0.22343613 -0.0075799832 0
-0.0099999839 -0.22376588 -0.0045148982 0
-0.0099999923 -0.22351523 -0.0015304771 0
-0.010000003 -0.22360505 0.0015513279 0
-0.010000013 -0.22375239 0.0044719754 0
-0.010000024 -0.22366153 0.0075157145 0
-0.0097707361 -0.22337134 0.0096927043 0
-0.0076427055 -0.22333631 -0.0099992175 0
-0.007344211 -0.22349124 0.01000078 0
-0.0045895823 -0.22362506 -0.0099992063 0
-0.0043233191 -0.22333987 0.01000079 0
-0.0014937369 -0.22380826 -0.0099991933 0
-0.0015356194 -0.22362408 0.010000801 0
3.3937273e-08 -0.22369653 -0.0093741538 0
2.7300375e-08 -0.22352979 -0.0075407512 0
1.7083183e-08 -0.22328866 -0.0047183158 0
5.1695372e-09 -0.22377814 -0.0014272429 0
-4.5987312e-09 -0.22347412 0.0012711801 0
-1.6588368e-08 -0.22314307 0.0045832423 0
-2.658501e-08 -0.22359699 0.0073447549 0
-3.4136587e-08 -0.22365725 0.0094308313 0
-0.0098661864 -0.22048727 -0.0096828556 0
-0.0099999728 -0.22055484 -0.0075066434 0
-0.0099999812 -0.2204026 -0.0046033454 0
-0.0099999923 -0.22039181 -0.0014251415 0
-0.010000004 -0.22063373 0.0014657872 0
-0.010000015 -0.22035721 0.0042465404 0
-0.010000025 -0.22045243 0.007791237 0
-0.0097228335 -0.22035146 0.0098337512 0
-0.0074913003 -0.22043499 -0.0099992249 0
-0.0072814184 -0.22050519 0.010000769 0
-0.0044103311 -0.22041306 -0.0099992156 0
-0.0045617768 -0.22026521 0.010000777 0
-0.0015998526 -0.22045839 -0.0099992063 0
-0.0016253395 -0.22073919 0.010000791 0
3.3861046e-08 -0.22088736 -0.0093531059 0
2.7695018e-08 -0.22058702 -0.0076497798 0
1.5227931e-08 -0.22055651 -0.0042058234 0
4.4264472e-09 -0.22055618 -0.0012219804 0
-4.9475068e-09 -0.22054359 0.0013675167 0
-1.7089608e-08 -0.22053817 0.004721697 0
-2.7423701e-08 -0.22046022 0.0075764265 0
-3.4588361e-08 -0.22051026 0.0095556201 0
-0.0097460682 -0.21750793 -0.0096453363 0
-0.00999997 -0.21754651 -0.0074746474 0
-0.0099999812 -0.21753034 -0.0042802696 0
-0.0099999905 -0.21734075 -0.001790777 0
-0.010000004 -0.21755604 0.0014995085 0
-0.010000016 -0.21737941 0.004592333 0
-0.010000023 -0.21749827 0.0072840089 0
-0.009769992 -0.21740831 0.0097637316 0
-0.0074674301 -0.21755832 -0.009999237 0
-0.0075912164 -0.2175328 0.010000758 0
-0.004487101 -0.2174367 -0.0099992277 0
-0.0042259851 -0.21733968 0.01000077 0
-0.00175965 -0.21736646 -0.0099992165 0
-0.0014672276 -0.21749558 0.010000778 0
3.4646703e-08 -0.21751994 -0.0095701516 0
2.6923662e-08 -0.21736857 -0.007436709 0
1.7951322e-08 -0.2173728 -0.0049581551 0
5.214535e-09 -0.21739824 -0.0014396963 0
-5.6067901e-09 -0.21728666 0.0015496279 0
-1.5714807e-08 -0.21716519 0.004341905 0
-2.7561002e-08 -0.21766827 0.0076143453 0
-3.4414207e-08 -0.2180583 0.0095075024 0
-0.0097041167 -0.21470758 -0.0097231977 0
-0.0099999709 -0.21465945 -0.007409133 0
-0.0099999821 -0.21452568 -0.0042810016 0
-0.0099999905 -0.21435691 -0.0014176184 0
-0.010000006 -0.21462999 0.0015489236 0
-0.010000013 -0.21462496 0.0044802232 0
-0.010000028 -0.21458797 0.0077627432 0
-0.009780461 -0.21489145 0.0097684283 0
-0.0074510789 -0.21472634 -0.0099992482 0
-0.0074293036 -0.21446759 0.01000075 0
-0.0045559239 -0.21480529 -0.0099992361 0
-0.0046659424 -0.2146353 0.010000758 0
-0.0011477881 -0.21439599 -0.0099992258 0
-0.0016170584 -0.21452183 0.010000769 0
3.4479037e-08 -0.21436599 -0.0095238462 0
2.7106285e-08 -0.21450089 -0.0074871676 0
1.6816431e-08 -0.21471624 -0.0046446584 0
5.4546048e-09 -0.2146634 -0.0015060239 0
-5.4452229e-09 -0.21450885 0.0015049858 0
-1.6935713e-08 -0.21437426 0.004679163 0
-2.6793781e-08 -0.21434522 0.007402393 0
-3.4490501e-08 -0.21464373 0.0095285652 0
-0.0097593237 -0.21166876 -0.0097944653 0
-0.0099999681 -0.21149303 -0.0074883546 0
-0.009999983 -0.21146993 -0.0043680454 0
-0.0099999923 -0.21104877 -0.0014990575 0
-0.010000004 -0.21129611 0.0019446575 0
-0.010000013 -0.21152471 0.0042328252 0
-0.010000024 -0.21157837 0.0073822709 0
-0.0097777778 -0.21136564 0.0097566918 0
-0.0076144738 -0.21161968 -0.0099992575 0
-0.0073987413 -0.21165551 0.010000736 0
-0.0044364687 -0.21164861 -0.0099992454 0
-0.004350163 -0.21137336 0.010000748 0
-0.0018087239 -0.21140847 -0.0099992435 0
-0.0012654139 -0.21155404 0.01000076 0
3.4591398e-08 -0.211289 -0.0095548965 0
2.6273506e-08 -0.21166126 -0.0072571281 0
1.7598536e-08 -0.21161579 -0.0048607211 0
4.5747988e-09 -0.21112479 -0.0012629958 0
-5.2893161e-09 -0.21130922 0.001461906 0
-1.5777184e-08 -0.21143697 0.0043591154 0
-2.7116666e-08 -0.2115327 0.0074915779 0
-3.4809212e-08 -0.21160629 0.0096165966 0
-0.0098921452 -0.2082862 -0.0096558761 0
-0.0099999709 -0.20836672 -0.0077036405 0
-0.009999983 -0.20843178 -0.0043781111 0
-0.0099999914 -0.20834547 -0.0013586965 0
-0.010000005 -0.20870733 0.0012009033 0
-0.010000013 -0.20853059 0.0043772152 0
-0.010000025 -0.20840652 0.0074263755 0
-0.009784284 -0.20831494 0.0097866282 0
-0.0074325898 -0.20849149 -0.0099992715 0
-0.0074229483 -0.20857158 0.010000727 0
-0.0042652008 -0.20880923 -0.0099992584 0
-0.0045265718 -0.20853563 0.010000735 0
-0.0013842208 -0.20826757 -0.0099992482 0
-0.0015469433 -0.20835719 0.010000746 0
3.4751455e-08 -0.20841928 -0.0095991213 0
2.7588779e-08 -0.20851612 -0.0076204757 0
1.6485631e-08 -0.20861903 -0.0045532989 0
4.3487534e-09 -0.20837593 -0.001200562 0
-5.3363038e-09 -0.20855913 0.0014748761 0
-1.6146203e-08 -0.20821306 0.004461043 0
-2.7249117e-08 -0.2083219 0.0075281546 0
-3.4565016e-08 -0.20835905 0.009549127 0
-0.0096607795 -0.20559458 -0.0098124305 0
-0.0099999709 -0.20574616 -0.0074056685 0
-0.0099999821 -0.20554151 -0.0044442606 0
-0.0099999914 -0.20557149 -0.0016323851 0
-0.010000004 -0.20562987 0.0015834946 0
-0.010000015 -0.20548578 0.0046761436 0
-0.010000027 -0.20550705 0.0076082582 0
-0.0096471235 -0.20557891 0.0098503726 0
-0.0075236382 -0.20569566 -0.0099992799 0
-0.0073574521 -0.20560853 0.010000714 0
-0.0047153835 -0.2055779 -0.0099992706 0
-0.0048065269 -0.20542614 0.010000722 0
-0.0013860773 -0.20553634 -0.0099992566 0
-0.001417917 -0.20520456 0.010000736 0
3.4251077e-08 -0.20566249 -0.0094609046 0
2.7692215e-08 -0.20549853 -0.0076490599 0
1.6299039e-08 -0.20544243 -0.0045017656 0
5.6843565e-09 -0.20570061 -0.0015695239 0
-5.0613171e-09 -0.20557646 0.0013989018 0
-1.6449283e-08 -0.20553537 0.0045447573 0
-2.7183326e-08 -0.20538369 0.0075099701 0
-3.4917225e-08 -0.20555663 0.0096464129 0
-0.0097061135 -0.20282026 -0.0098057073 0
-0.0099999737 -0.20253003 -0.007335146 0
-0.0099999812 -0.20251924 -0.004426545 0
-0.0099999914 -0.20257209 -0.0015468755 0
-0.010000004 -0.2024496 0.0015301566 0
-0.010000013 -0.20252898 0.0043789949 0
-0.010000024 -0.20268282 0.0072708824 0
-0.0097417776 -0.20279321 0.0097532263 0
-0.0075077047 -0.20242733 -0.0099992929 0
-0.0075159702 -0.2024162 0.010000706 0
-0.004299595 -0.20252548 -0.0099992808 0
-0.0046232543 -0.2024516 0.010000711 0
-0.0016202102 -0.20261364 -0.0099992678 0
-0.0012760458 -0.20249875 0.010000725 0
3.4233015e-08 -0.20248175 -0.0094559267 0
2.6377108e-08 -0.20249851 -0.0072857807 0
1.6121691e-08 -0.2024624 -0.004452785 0
5.6307918e-09 -0.20235039 -0.0015547391 0
-6.1531908e-09 -0.20235208 0.0017005136 0
-1.5720104e-08 -0.20190038 0.0043433132 0
-2.6474034e-08 -0.20268624 0.0073140226 0
-3.445351e-08 -0.20222914 0.009518302 0
-0.0097638965 -0.19972794 -0.0098019736 0
-0.0099999672 -0.19950067 -0.0076600057 0
-0.0099999793 -0.19949931 -0.0045959684 0
-0.0099999923 -0.19942467 -0.0014490831 0
-0.010000002 -0.19945061 0.0014079141 0
-0.010000014 -0.19985713 0.0044593941 0
-0.010000026 -0.19941075 0.0075447294 0
-0.0096224109 -0.19945732 0.0098971259 0
-0.0073823393 -0.19956993 -0.0099993022 0
-0.0076716393 -0.19959731 0.010000693 0
-0.0044247671 -0.19973452 -0.009999291 0
-0.004358741 -0.1996088 0.010000705 0
-0.0013410501 -0.19956125 -0.0099992817 0
-0.0015863688 -0.19928005 0.010000717 0
3.4034699e-08 -0.19903125 -0.0094011556 0
2.6676762e-08 -0.19933981 -0.0073685697 0
1.6717703e-08 -0.19954166 -0.0046174405 0
5.5988552e-09 -0.19955248 -0.0015459269 0
-5.7886393e-09 -0.19975667 0.0015997991 0
-1.6364442e-08 -0.19942185 0.0045212982 0
-2.794237e-08 -0.19951931 0.0077196299 0
-3.4267579e-08 -0.19959356 0.0094669303 0
-0.009803677 -0.1967461 -0.0097099589 0
-0.00999997 -0.19646761 -0.0076807267 0
-0.0099999821 -0.19677542 -0.004462983 0
-0.0099999914 -0.19655414 -0.0019106775 0
-0.010000004 -0.19662473 0.00145118 0
-0.010000016 -0.19630927 0.0045552454 0
-0.010000028 -0.19674301 0.0074108266 0
-0.0097252242 -0.1966517 0.0098479008 0
-0.0075220852 -0.19655646 -0.0099993143 0
-0.0074162697 -0.19647247 0.010000682 0
-0.0047174483 -0.19633666 -0.0099993041 0
-0.0044454699 -0.19649486 0.010000694 0
-0.0014665716 -0.1962222 -0.0099992957 0
-0.0014611461 -0.19632135 0.010000703 0
3.4246533e-08 -0.19621107 -0.0094596837 0
2.7256785e-08 -0.19664508 -0.007528807 0
1.634238e-08 -0.1962132 -0.0045137717 0
5.4186917e-09 -0.1966816 -0.0014961682 0
-6.2449388e-09 -0.19659528 0.0017258376 0
-1.7308025e-08 -0.19610094 0.0047819451 0
-2.7204047e-08 -0.1963781 0.0075156614 0
-3.4465945e-08 -0.19622087 0.0095217153 0
-0.0097285919 -0.19342543 -0.0097603649 0
-0.0099999718 -0.19353504 -0.0075389459 0
-0.0099999802 -0.19368376 -0.0046130996 0
-0.0099999951 -0.19367585 -0.0013446131 0
-0.010000002 -0.19336291 0.001566596 0
-0.010000013 -0.19352943 0.0043666526 0
-0.010000024 -0.19351834 0.0075488663 0
-0.0095823957 -0.19384496 0.0098661045 0
-0.0076330942 -0.19354789 -0.0099993246 0
-0.0074076019 -0.19374321 0.010000675 0
-0.0045820074 -0.1933118 -0.0099993153 0
-0.004710855 -0.1934474 0.010000681 0
-0.0012332933 -0.19335769 -0.0099993022 0
-0.0013247471 -0.19353151 0.010000693 0
3.4447737e-08 -0.19344617 -0.0095152752 0
2.842026e-08 -0.19361974 -0.0078502204 0
1.6181684e-08 -0.19358093 -0.0044693896 0
5.4783436e-09 -0.19348109 -0.0015126583 0
-6.4678125e-09 -0.19357933 0.0017873942 0
-1.6175171e-08 -0.19349861 0.0044689919 0
-2.7113558e-08 -0.19335876 0.0074906535 0
-3.4186147e-08 -0.19367978 0.0094444137 0
-0.0097067272 -0.19073036 -0.0097759496 0
-0.0099999737 -0.1905431 -0.007492254 0
-0.0099999802 -0.19045834 -0.0046357173 0
-0.0099999923 -0.19049233 -0.0012449163 0
-0.010000004 -0.19034669 0.0015102956 0
-0.010000017 -0.19064569 0.0044482304 0
-0.010000025 -0.19039108 0.0076283361 0
-0.0096989656 -0.19027223 0.0097081149 0
-0.0073896013 -0.19064771 -0.0099993357 0
-0.0077671474 -0.19054252 0.010000661 0
-0.0045204861 -0.19054352 -0.0099993246 0
-0.0045568645 -0.19047411 0.010000669 0
-0.0014689316 -0.190467 -0.0099993143 0
-0.00137365 -0.19060801 0.010000684 0
3.491035e-08 -0.19050619 -0.0096430806 0
2.809792e-08 -0.19025835 -0.0077611888 0
1.6465727e-08 -0.19065945 -0.0045478656 0
6.406502e-09 -0.19032392 -0.0017690678 0
-5.7606799e-09 -0.19053097 0.0015920422 0
-1.5719197e-08 -0.19042572 0.0043430207 0
-2.7666291e-08 -0.19052519 0.0076433322 0
-3.4821483e-08 -0.19046761 0.0096199093 0
-0.0097944457 -0.18762608 -0.0096805422 0
-0.0099999718 -0.18769862 -0.0072894683 0
-0.009999983 -0.18765026 -0.0044591399 0
-0.0099999961 -0.18777025 -0.0013558917 0
-0.010000003 -0.18726936 0.0015575056 0
-0.010000014 -0.1876819 0.0047488506 0
-0.010000025 -0.18747063 0.0076491339 0
-0.0097255586 -0.18739891 0.0097344136 0
-0.0073777731 -0.18742256 -0.0099993469 0
-0.007341072 -0.1873557 0.010000648 0
-0.0046122666 -0.18752328 -0.0099993348 0
-0.0044660899 -0.18753651 0.010000661 0
-0.001673407 -0.18777286 -0.0099993255 0
-0.001632033 -0.18744209 0.010000674 0
3.4873754e-08 -0.18739173 -0.0096329814 0
2.7492923e-08 -0.1872967 -0.0075940727 0
1.675571e-08 -0.18760268 -0.0046279826 0
5.670985e-09 -0.18770342 -0.0015658952 0
-6.6283423e-09 -0.18749639 0.0018317174 0
-1.6406732e-08 -0.18752047 0.0045329379 0
-2.7455298e-08 -0.18768504 0.0075850366 0
-3.4563072e-08 -0.18754062 0.0095485151 0
-0.0098059997 -0.18437937 -0.009722339 0
-0.0099999718 -0.18434446 -0.0074547669 0
-0.0099999812 -0.18438636 -0.0042624865 0
-0.0099999905 -0.18468529 -0.0016042509 0
-0.010000004 -0.18460789 0.0015415041 0
-0.010000014 -0.18469204 0.0045722625 0
-0.010000025 -0.18457374 0.0074914838 0
-0.0097052641 -0.18456466 0.0097100101 0
-0.0076968307 -0.18460867 -0.0099993572 0
-0.0073334775 -0.18442743 0.010000638 0
-0.0044900072 -0.18470994 -0.009999346 0
-0.004587491 -0.18459094 0.010000649 0
-0.00150664 -0.18459812 -0.0099993348 0
-0.0014598243 -0.18449906 0.01000066 0
3.4170576e-08 -0.18469313 -0.0094387429 0
2.681079e-08 -0.18442547 -0.007405648 0
1.5284657e-08 -0.18486905 -0.0042216233 0
5.5383755e-09 -0.18472621 -0.0015292735 0
-5.1461102e-09 -0.184631 0.0014222496 0
-1.6508583e-08 -0.18437627 0.004561062 0
-2.7355414e-08 -0.18452811 0.0075574326 0
-3.4195967e-08 -0.18491973 0.009447095 0
-0.0097821727 -0.18131651 -0.0097644553 0
-0.0099999718 -0.18138726 -0.0074822521 0
-0.0099999784 -0.18164568 -0.00476027 0
-0.0099999905 -0.18153439 -0.0014906094 0
-0.010000003 -0.18158038 0.0014915435 0
-0.010000015 -0.18146619 0.004630683 0
-0.010000023 -0.18164228 0.0072731003 0
-0.0096805636 -0.18145049 0.0097598359 0
-0.0075748204 -0.18140391 -0.0099993702 0
-0.0074174083 -0.18154402 0.010000629 0
-0.0044968855 -0.1814685 -0.0099993581 0
-0.0044155405 -0.18161379 0.010000641 0
-0.0016626035 -0.18159136 -0.009999346 0
-0.0015383313 -0.18153761 0.010000651 0
3.4370878e-08 -0.18184808 -0.0094940849 0
2.7065536e-08 -0.18155916 -0.0074760304 0
1.6727437e-08 -0.18156904 -0.0046201944 0
5.9634448e-09 -0.18143636 -0.0016467081 0
-5.0878892e-09 -0.18145843 0.0014061551 0
-1.6592489e-08 -0.18139014 0.0045842296 0
-2.7361144e-08 -0.18155725 0.0075590047 0
-3.4659866e-08 -0.18162414 0.0095752319 0
-0.0097692758 -0.17850991 -0.009697834 0
-0.0099999709 -0.17844839 -0.0075960141 0
-0.0099999821 -0.17839821 -0.0044183149 0
-0.0099999923 -0.17857052 -0.0014729487 0
-0.010000002 -0.17849542 0.0015829212 0
-0.010000014 -0.17830133 0.004351065 0
-0.010000027 -0.17886809 0.0075396551 0
-0.0098038968 -0.17857309 0.0097273709 0
-0.0075478223 -0.17863235 -0.0099993795 0
-0.0074655921 -0.1783925 0.010000616 0
-0.0048515778 -0.17843814 -0.0099993683 0
-0.0045744465 -0.17837141 0.010000627 0
-0.0019354955 -0.17865366 -0.009999359 0
-0.0016273479 -0.17863972 0.010000641 0
3.4296718e-08 -0.17864054 -0.0094736107 0
2.6635195e-08 -0.17835665 -0.0073571629 0
1.6920893e-08 -0.17856656 -0.0046736463 0
5.5073759e-09 -0.17876154 -0.0015207316 0
-5.9122707e-09 -0.17844947 0.0016338744 0
-1.5372404e-08 -0.1783942 0.0042471779 0
-2.6811486e-08 -0.17874204 0.0074071554 0
-3.4752631e-08 -0.17843188 0.009600847 0
-0.0097064441 -0.17549825 -0.0098321512 0
-0.009999969 -0.17542242 -0.0076516205 0
-0.0099999812 -0.1755964 -0.0045469711 0
-0.0099999914 -0.17549355 -0.0014426876 0
-0.010000003 -0.17528522 0.0016192091 0
-0.010000015 -0.1756705 0.0047870707 0
-0.010000024 -0.17529325 0.0072571361 0
-0.0097394325 -0.17517859 0.0097072572 0
-0.0075072399 -0.17517778 -0.0099993916 0
-0.0075417203 -0.17531864 0.010000604 0
-0.0044297529 -0.17537549 -0.0099993786 0
-0.004692948 -0.17558175 0.010000615 0
-0.0013505436 -0.17552306 -0.0099993674 0
-0.0015906788 -0.17554788 0.01000063 0
3.4394876e-08 -0.1751184 -0.0095007392 0
2.7466063e-08 -0.17561486 -0.0075866953 0
1.5876054e-08 -0.17553888 -0.0043850266 0
6.4866401e-09 -0.17535745 -0.0017912596 0
-4.9339492e-09 -0.17565492 0.001363609 0
-1.673056e-08 -0.1754761 0.0046223495 0
-2.7084903e-08 -0.1754249 0.007482673 0
-3.4388382e-08 -0.17559531 0.0095002148 0
-0.0097426958 -0.17285669 -0.0096865464 0
-0.0099999728 -0.17235158 -0.007478164 0
-0.0099999802 -0.17254998 -0.004591987 0
-0.0099999914 -0.17250086 -0.0014406708 0
-0.010000004 -0.17259558 0.0014230803 0
-0.010000014 -0.17224658 0.0045561637 0
-0.010000025 -0.17246601 0.0073857293 0
-0.0098385401 -0.17212273 0.0097434986 0
-0.0076927999 -0.17253786 -0.0099994 0
-0.0074653719 -0.17268196 0.010000595 0
-0.0046423157 -0.17250597 -0.0099993916 0
-0.0045594028 -0.17247266 0.010000602 0
-0.0014810539 -0.17228638 -0.0099993804 0
-0.0013759449 -0.17248425 0.010000617 0
3.406457e-08 -0.17344834 -0.0094095003 0
2.7864001e-08 -0.1725089 -0.0076966342 0
1.5688615e-08 -0.17241582 -0.0043332595 0
5.2891607e-09 -0.17258365 -0.0014604733 0
-4.6830486e-09 -0.17240812 0.0012942875 0
-1.698254e-08 -0.17248976 0.0046919468 0
-2.6568161e-08 -0.17238714 0.0073399148 0
-3.4818068e-08 -0.17226028 0.0096189007 0
-0.0097369915 -0.16929552 -0.0098153558 0
-0.0099999718 -0.16937277 -0.0071082632 0
-0.0099999784 -0.1693757 -0.0047898702 0
-0.0099999923 -0.16941227 -0.0014080412 0
-0.010000004 -0.16967644 0.001963876 0
-0.010000013 -0.16956225 0.0043824953 0
-0.010000025 -0.16949728 0.0074191513 0
-0.009810729 -0.16970819 0.009677968 0
-0.0075174607 -0.16951543 -0.0099994102 0
-0.0073647741 -0.16934952 0.010000585 0
-0.0043924688 -0.16959226 -0.0099993981 0
-0.0045001395 -0.16952455 0.010000598 0
-0.0014591864 -0.16931266 -0.0099993926 0
-0.0015426476 -0.16968231 0.010000608 0
3.445497e-08 -0.16959089 -0.0095173595 0
2.6297879e-08 -0.16972581 -0.0072640129 0
1.6027363e-08 -0.16948964 -0.0044268467 0
5.3814504e-09 -0.16939838 -0.0014859793 0
-5.6159957e-09 -0.16968857 0.0015519985 0
-1.6844824e-08 -0.16959877 0.0046538929 0
-2.631162e-08 -0.16946498 0.007269036 0
-3.4559214e-08 -0.16912669 0.0095473826 0
-0.0097351791 -0.16656643 -0.0097417627 0
-0.0099999718 -0.16649561 -0.007481839 0
-0.0099999812 -0.16623208 -0.0043854709 0
-0.0099999933 -0.16657013 -0.0013404443 0
-0.010000006 -0.16666155 0.0017346066 0
-0.010000013 -0.16644399 0.004532272 0
-0.010000026 -0.16661194 0.0076360023 0
-0.009713077 -0.16668154 0.0097895404 0
-0.0074767699 -0.16610084 -0.0099994224 0
-0.0076347506 -0.1668233 0.010000574 0
-0.0046809143 -0.16652729 -0.0099994121 0
-0.0042904536 -0.16655545 0.010000583 0
-0.0013578958 -0.16637547 -0.0099993991 0
-0.0015159127 -0.16646327 0.010000595 0
3.4505014e-08 -0.1664196 -0.0095311953 0
2.7446724e-08 -0.16644925 -0.0075813862 0
1.6721414e-08 -0.16645825 -0.0046185851 0
5.5431335e-09 -0.16623351 -0.0015306547 0
-5.578316e-09 -0.16644613 0.0015415781 0
-1.6201486e-08 -0.16656004 0.004476164 0
-2.693141e-08 -0.16671506 0.0074402397 0
-3.4544286e-08 -0.16644511 0.0095432485 0
-0.0099216672 -0.16360293 -0.0095691122 0
-0.0099999709 -0.16321395 -0.0074480064 0
-0.0099999821 -0.1634185 -0.0047350768 0
-0.0099999923 -0.16343327 -0.0015017831 0
-0.010000004 -0.16333264 0.0015709592 0
-0.010000013 -0.16337135 0.0044260458 0
-0.010000024 -0.1634198 0.007340617 0
-0.0096929884 -0.16332419 0.0098292828 0
-0.0077026845 -0.1636766 -0.0099994326 0
-0.0076041371 -0.16362768 0.010000562 0
-0.0044721412 -0.16325542 -0.0099994224 0
-0.0045363633 -0.16334164 0.010000572 0
-0.0015300665 -0.1634946 -0.0099994112 0
-0.0015951104 -0.16346523 0.010000583 0
3.4033526e-08 -0.16325609 -0.009400961 0
2.7293511e-08 -0.16349976 -0.0075390725 0
1.5841591e-08 -0.16355324 -0.0043755504 0
5.6778968e-09 -0.16347174 -0.0015678923 0
-5.4660192e-09 -0.16351938 0.0015105462 0
-1.7020984e-08 -0.16347161 0.0047025341 0
-2.6098382e-08 -0.16330831 0.0072101089 0
-3.406937e-08 -0.16383776 0.0094120465 0
-0.0097470544 -0.16041993 -0.0097749541 0
-0.0099999709 -0.16046301 -0.0078435512 0
-0.0099999812 -0.16065216 -0.0045634196 0
-0.0099999942 -0.16044392 -0.0012986631 0
-0.010000003 -0.16054875 0.0015189651 0
-0.010000017 -0.16040692 0.004710122 0
-0.010000025 -0.1604103 0.0076225465 0
-0.0096409889 -0.1605998 0.0097733196 0
-0.0075991899 -0.1604415 -0.0099994447 0
-0.0075515732 -0.16044666 0.010000554 0
-0.0046155239 -0.16054647 -0.0099994317 0
-0.0044583888 -0.16076349 0.010000568 0
-0.001392878 -0.16028085 -0.0099994214 0
-0.0016053891 -0.16044396 0.010000574 0
3.3741419e-08 -0.16044499 -0.0093202777 0
2.6776931e-08 -0.16039233 -0.0073963818 0
1.5936349e-08 -0.160778 -0.0044017364 0
5.3022133e-09 -0.16040358 -0.0014641231 0
-5.7753957e-09 -0.16049692 0.0015959985 0
-1.5693603e-08 -0.16062787 0.004335843 0
-2.7465026e-08 -0.1601122 0.0075876242 0
-3.4556745e-08 -0.16044649 0.0095466692 0
-0.0097280378 -0.15749753 -0.0098160524 0
-0.0099999709 -0.15735079 -0.0074798628 0
-0.009999983 -0.15752503 -0.0041500381 0
-0.0099999933 -0.15731777 -0.0012942825 0
-0.010000004 -0.15734765 0.0015806878 0
-0.010000013 -0.15749739 0.0042649894 0
