# .PCD v0.7 - Point Cloud Data file format
VERSION 0.7
FIELDS x y z rgb
SIZE 4 4 4 4
TYPE F F F F
COUNT 1 1 1 1
WIDTH 1164
HEIGHT 1
VIEWPOINT 0 0 0 1 0 0 0
POINTS 1164
DATA ascii
-2.7289168e-08 -0.1125343 0.0075388723 0
-3.4244312e-08 -0.11252432 0.0094601875 0
-0.0096979691 -0.10948361 -0.0097401412 0
-0.009999969 -0.10957724 -0.0076412633 0
-0.0099999821 -0.10963506 -0.0047152033 0
-0.0099999923 -0.10930878 -0.0014114323 0
-0.010000002 -0.10950299 0.0012977255 0
-0.010000014 -0.10931271 0.0046602432 0
-0.010000028 -0.10981262 0.0077962861 0
-0.0097723268 -0.10974532 0.0096691325 0
-0.0075052851 -0.10907291 -0.0099996328 0
-0.0073503545 -0.10936636 0.010000367 0
-0.0043851691 -0.10928874 -0.0099996179 0
-0.0043613375 -0.10929437 0.010000377 0
-0.0014640222 -0.10961939 -0.0099996086 0
-0.0015939691 -0.10937322 0.010000387 0
3.375731e-08 -0.10976778 -0.0093248514 0
2.6710987e-08 -0.10967018 -0.0073783486 0
1.5857802e-08 -0.1095235 -0.0043802238 0
5.6259601e-09 -0.10953739 -0.0015537404 0
-5.2912457e-09 -0.1096391 0.001462071 0
-1.5213626e-08 -0.10948516 0.0042030667 0
-2.7740141e-08 -0.10959158 0.00766344 0
-3.4421511e-08 -0.1100888 0.0095091294 0
-0.0097825564 -0.1062752 -0.0096637644 0
-0.0099999709 -0.10644262 -0.0077350303 0
-0.0099999839 -0.10639151 -0.0043571698 0
-0.0099999933 -0.10653492 -0.0014642572 0
-0.010000004 -0.1067492 0.0016362737 0
-0.010000013 -0.10649615 0.004387374 0
-0.010000026 -0.10642254 0.0075904699 0
-0.0097730067 -0.106553 0.0096585574 0
-0.0076263309 -0.10667704 -0.0099996384 0
-0.0075766407 -0.10665722 0.010000358 0
-0.0044095404 -0.1064624 -0.009999631 0
-0.0047471584 -0.10640095 0.010000366 0
-0.0016114293 -0.10639963 -0.009999617 0
-0.0016733486 -0.10652506 0.010000377 0
3.3877459e-08 -0.10632352 -0.009358055 0
2.7713842e-08 -0.10638575 -0.0076553933 0
1.686586e-08 -0.10662747 -0.0046587042 0
6.4405756e-09 -0.10658222 -0.0017787836 0
-5.7517209e-09 -0.10646723 0.001589263 0
-1.6377221e-08 -0.10640472 0.0045244917 0
-2.7429246e-08 -0.10634179 0.0075775455 0
-3.3854487e-08 -0.10640842 0.0093524791 0
-0.0096795689 -0.10393122 -0.0098212454 0
-0.0099999709 -0.10340296 -0.0075033735 0
-0.0099999802 -0.10358544 -0.0046063233 0
-0.0099999923 -0.10360651 -0.0014967707 0
-0.010000003 -0.10359671 0.001354172 0
-0.010000013 -0.1033499 0.0041010166 0
-0.010000026 -0.10329691 0.007495543 0
-0.0098645734 -0.10373294 0.0096046375 0
-0.007754778 -0.1032992 -0.0099996505 0
-0.0075030164 -0.10365895 0.010000346 0
-0.0047515938 -0.10360932 -0.0099996403 0
-0.0045878235 -0.10351765 0.010000356 0
-0.0014186398 -0.10345288 -0.009999631 0
-0.0014327604 -0.10348997 0.010000367 0
3.4583945e-08 -0.103592 -0.0095532266 0
2.5941842e-08 -0.10330147 -0.0071659004 0
1.6056028e-08 -0.10356212 -0.0044350037 0
6.5884289e-09 -0.10340393 -0.0018196387 0
-5.4021565e-09 -0.10351852 0.0014926873 0
-1.6117665e-08 -0.10340118 0.0044527804 0
-2.6807109e-08 -0.10333527 0.0074056732 0
-3.4221703e-08 -0.10384658 0.0094539113 0
-0.0097414581 -0.10034927 -0.0097633405 0
-0.0099999709 -0.10072631 -0.0076272869 0
-0.0099999812 -0.10065594 -0.0045812447 0
-0.0099999914 -0.10030872 -0.001406346 0
-0.010000003 -0.10065293 0.0014912471 0
-0.010000017 -0.10055777 0.0046755034 0
-0.010000026 -0.10019941 0.0077662133 0
-0.0098959487 -0.10077374 0.0096752169 0
-0.0075705759 -0.10042373 -0.0099996617 0
-0.0073373527 -0.10076607 0.010000336 0
-0.0044057989 -0.10027232 -0.0099996505 0
-0.0042778994 -0.10067923 0.010000346 0
-0.0012427964 -0.10057868 -0.0099996394 0
-0.0012166707 -0.1005385 0.010000357 0
3.5045392e-08 -0.10055124 -0.0096807098 0
2.6923493e-08 -0.10040709 -0.0074370857 0
1.5960541e-08 -0.10028878 -0.004408638 0
5.6306786e-09 -0.10060195 -0.0015550762 0
-5.7810001e-09 -0.1005711 0.0015973297 0
-1.6822984e-08 -0.10035113 0.0046476088 0
-2.7247022e-08 -0.10038963 0.0075271856 0
-3.3837619e-08 -0.1006247 0.0093477983 0
-0.0098693129 -0.097607329 -0.0095539372 0
-0.0099999718 -0.097739793 -0.0073527689 0
-0.009999983 -0.097361922 -0.0046677124 0
-0.0099999961 -0.097375333 -0.0012332643 0
-0.010000002 -0.097663566 0.0015277429 0
-0.010000016 -0.097254016 0.0041995472 0
-0.010000025 -0.097533204 0.0073378305 0
-0.0097736409 -0.097820744 0.0098013682 0
-0.0076788114 -0.097314276 -0.0099996729 0
-0.007311956 -0.097612448 0.010000326 0
-0.0045911754 -0.097421728 -0.0099996617 0
-0.0047126799 -0.097656161 0.010000334 0
-0.0013544371 -0.097446747 -0.0099996505 0
-0.0012827977 -0.097320825 0.010000345 0
3.4832908e-08 -0.097739182 -0.0096220225 0
2.7368047e-08 -0.097352244 -0.007559902 0
1.5920014e-08 -0.097397044 -0.0043974533 0
5.2836509e-09 -0.097320087 -0.0014592238 0
-4.8988635e-09 -0.097704805 0.0013536345 0
-1.6053933e-08 -0.097517096 0.0044351532 0
-2.8127342e-08 -0.097464003 0.0077703581 0
-3.4514944e-08 -0.097827978 0.0095348945 0
-0.0095781637 -0.094796591 -0.0099052703 0
-0.0099999709 -0.094513141 -0.0076261279 0
-0.0099999812 -0.094617955 -0.004694222 0
-0.0099999914 -0.094445877 -0.0016430269 0
-0.010000003 -0.094418146 0.0011785243 0
-0.010000013 -0.094194755 0.0044432762 0
-0.010000028 -0.094621733 0.0077256355 0
-0.009677154 -0.094507597 0.0097287484 0
-0.007260934 -0.094639853 -0.0099996803 0
-0.0075596604 -0.094513319 0.010000311 0
-0.0043699928 -0.094495125 -0.0099996701 0
-0.004512242 -0.094359681 0.010000323 0
-0.0015221997 -0.094504602 -0.0099996608 0
-0.0013062659 -0.094426543 0.010000335 0
3.4319793e-08 -0.094398007 -0.0094802901 0
2.7464091e-08 -0.094879046 -0.0075864424 0
1.6341938e-08 -0.094576389 -0.0045140176 0
5.5077525e-09 -0.094692945 -0.0015211399 0
-6.0385159e-09 -0.094572879 0.0016684453 0
-1.6229745e-08 -0.094780609 0.0044837105 0
-2.7282871e-08 -0.094673268 0.0075370679 0
-3.4563687e-08 -0.094305694 0.0095483474 0
-0.0096194055 -0.091376893 -0.009833293 0
-0.0099999718 -0.091756366 -0.0076433532 0
-0.0099999802 -0.091428846 -0.0047007278 0
-0.0099999914 -0.09153115 -0.0016612489 0
-0.010000003 -0.091625012 0.0013450349 0
-0.010000015 -0.091573372 0.0045062094 0
-0.010000027 -0.09173964 0.0072515868 0
-0.009790305 -0.091506988 0.0097450567 0
-0.0076142065 -0.091646098 -0.0099996934 0
-0.0073722079 -0.091459185 0.0100003 0
-0.0046858927 -0.091501683 -0.0099996831 0
-0.0043079457 -0.091326758 0.010000315 0
-0.001493749 -0.091453366 -0.0099996766 0
-0.0016926058 -0.091648139 0.010000325 0
3.4539539e-08 -0.091415405 -0.0095410049 0
2.7642207e-08 -0.091331035 -0.0076356591 0
1.6128041e-08 -0.091587707 -0.0044549406 0
4.957017e-09 -0.091360845 -0.0013690147 0
-5.2410365e-09 -0.091303386 0.0014481345 0
-1.638247e-08 -0.091644533 0.0045258882 0
-2.7336855e-08 -0.091590583 0.0075519695 0
-3.3916898e-08 -0.091238357 0.0093696648 0
-0.009626152 -0.088440046 -0.0098293694 0
-0.0099999728 -0.088599667 -0.0072838725 0
-0.0099999821 -0.088394947 -0.0045400867 0
-0.0099999923 -0.088251866 -0.0017682104 0
-0.010000003 -0.088423312 0.0014370659 0
-0.010000015 -0.088488378 0.0046828059 0
-0.010000025 -0.088646777 0.0074955719 0
-0.0097989645 -0.088120922 0.0097085517 0
-0.0077570598 -0.088432185 -0.0099997055 0
-0.0075582676 -0.088541798 0.010000291 0
-0.0042623696 -0.088484503 -0.0099996962 0
-0.0044056349 -0.088667952 0.010000304 0
-0.0012992179 -0.088524185 -0.0099996831 0
-0.0015318841 -0.08830481 0.010000312 0
3.4037114e-08 -0.088789158 -0.009402222 0
2.7380723e-08 -0.088534437 -0.0075634359 0
1.6362167e-08 -0.088444315 -0.0045196274 0
5.9624736e-09 -0.088680372 -0.0016467756 0
-5.9267862e-09 -0.088598244 0.0016375589 0
-1.6464934e-08 -0.088485613 0.0045486572 0
-2.6564818e-08 -0.088670455 0.0073386882 0
-3.4172587e-08 -0.088336058 0.0094402861 0
-0.0097446162 -0.085528553 -0.0097723668 0
-0.0099999737 -0.085566916 -0.0072709392 0
-0.0099999812 -0.085559979 -0.0045388881 0
-0.0099999905 -0.085520506 -0.0015408052 0
-0.010000005 -0.085366383 0.0016780833 0
-0.010000013 -0.085492194 0.0044142772 0
-0.010000026 -0.085697889 0.0072188121 0
-0.0097402306 -0.085317589 0.0098178759 0
-0.007204446 -0.085503027 -0.0099997167 0
-0.0073629539 -0.085482121 0.01000028 0
-0.0044029821 -0.085206233 -0.0099997064 0
-0.0043623042 -0.085463874 0.010000291 0
-0.0014585361 -0.085423805 -0.0099996943 0
-0.0013624261 -0.08538156 0.010000303 0
3.4313018e-08 -0.085637525 -0.0094784498 0
2.7213309e-08 -0.085604139 -0.0075171995 0
1.6159273e-08 -0.085584104 -0.0044635902 0
5.0637343e-09 -0.085715488 -0.0013985152 0
-5.0867186e-09 -0.085545711 0.0014054844 0
-1.6700973e-08 -0.085631408 0.0046138512 0
-2.7533661e-08 -0.085769378 0.007606315 0
-3.442636e-08 -0.085456826 0.0095103793 0
-0.0096551534 -0.082577951 -0.0098661119 0
-0.00999997 -0.082403876 -0.007434079 0
-0.0099999849 -0.082391538 -0.0045586526 0
-0.0099999933 -0.082443938 -0.0012033071 0
-0.010000006 -0.082220413 0.0016630853 0
-0.010000016 -0.082461588 0.0046704439 0
-0.010000027 -0.082606643 0.0076692714 0
-0.0096774641 -0.082571819 0.0098269172 0
-0.0076799439 -0.082476914 -0.0099997288 0
-0.0075582145 -0.082541317 0.01000027 0
-0.0044950498 -0.08235731 -0.0099997129 0
-0.0047044354 -0.082248889 0.010000279 0
-0.001556225 -0.082569905 -0.0099997036 0
-0.00137867 -0.082281299 0.010000291 0
3.5043954e-08 -0.082798429 -0.0096803764 0
2.6605159e-08 -0.082372449 -0.0073492136 0
1.6125357e-08 -0.082491763 -0.0044542323 0
5.0249529e-09 -0.082378238 -0.0013878141 0
-5.3839821e-09 -0.082580239 0.0014875908 0
-1.5938337e-08 -0.0823327 0.0044031655 0
-2.8055338e-08 -0.082571134 0.0077504134 0
-3.4042078e-08 -0.082578257 0.0094042132 0
-0.0097577553 -0.07956519 -0.0096979281 0
-0.009999969 -0.079623409 -0.0073838574 0
-0.0099999812 -0.07937596 -0.0043010581 0
-0.0099999942 -0.079798162 -0.0013183 0
-0.010000004 -0.079670094 0.0015806089 0
-0.010000016 -0.079649851 0.0048181 0
-0.010000026 -0.079612426 0.0076227314 0
-0.0096435705 -0.07942047 0.0097898515 0
-0.0073430259 -0.079477698 -0.0099997381 0
-0.0077757835 -0.079356186 0.01000026 0
-0.0045826235 -0.079638965 -0.0099997269 0
-0.0045639304 -0.079338372 0.010000267 0
-0.0012161554 -0.079452246 -0.0099997148 0
-0.0013381789 -0.079335675 0.01000028 0
3.4151881e-08 -0.079669237 -0.0094339587 0
2.7075185e-08 -0.079450481 -0.0074790656 0
1.5522598e-08 -0.079598419 -0.0042877342 0
5.2481002e-09 -0.079593807 -0.0014494673 0
-4.3887538e-09 -0.079397909 0.0012126537 0
-1.6561529e-08 -0.079401217 0.0045753079 0
-2.7332216e-08 -0.079601474 0.0075506447 0
-3.4179955e-08 -0.079523839 0.0094422903 0
-0.0098217875 -0.07683076 -0.0097158141 0
-0.00999997 -0.076472163 -0.007628784 0
-0.009999983 -0.076376371 -0.0045816586 0
-0.0099999933 -0.076535732 -0.0017435758 0
-0.010000004 -0.07650286 0.0017229554 0
-0.010000017 -0.076561749 0.0039981129 0
-0.010000025 -0.076534525 0.0075773303 0
-0.0098502841 -0.076575771 0.0097388718 0
-0.0074365577 -0.076553047 -0.0099997455 0
-0.0074277231 -0.076449819 0.010000248 0
-0.0044744876 -0.076649763 -0.0099997353 0
-0.0044258153 -0.076575659 0.01000026 0
-0.001451381 -0.076388389 -0.0099997269 0
-0.0015842359 -0.076524422 0.010000269 0
3.4569204e-08 -0.076307543 -0.0095492536 0
2.6686992e-08 -0.076706804 -0.0073718396 0
1.5912784e-08 -0.076641656 -0.004395531 0
4.7296691e-09 -0.0764964 -0.001306265 0
-5.3028795e-09 -0.076311089 0.0014651641 0
-1.5885844e-08 -0.07647787 0.0043886434 0
-2.689899e-08 -0.076297767 0.0074309567 0
-3.4229075e-08 -0.076847449 0.0094558494 0
-0.0097276792 -0.07377483 -0.0097595276 0
-0.0099999718 -0.073712274 -0.0075691603 0
-0.0099999821 -0.073639333 -0.0045102821 0
-0.0099999933 -0.073693857 -0.0014797668 0
-0.010000003 -0.073278844 0.0016076822 0
-0.010000015 -0.073796757 0.0044015106 0
-0.010000026 -0.073417477 0.0076534902 0
-0.0097823814 -0.073805392 0.0096305609 0
-0.0075821658 -0.073718809 -0.0099997567 0
-0.0075099575 -0.073570237 0.01000024 0
-0.0041972618 -0.0734322 -0.0099997483 0
-0.004476116 -0.073634662 0.010000249 0
-0.0016634292 -0.073584095 -0.0099997381 0
-0.0014843127 -0.073468417 0.010000259 0
3.4262875e-08 -0.073410101 -0.009464643 0
2.6803907e-08 -0.073639244 -0.0074041481 0
1.6480355e-08 -0.073725611 -0.0045523299 0
6.0822858e-09 -0.073782921 -0.001679927 0
-5.186668e-09 -0.073484883 0.0014330511 0
-1.5267691e-08 -0.073191322 0.0042178705 0
-2.679964e-08 -0.073458269 0.0074035013 0
-3.4723289e-08 -0.073405601 0.0095923608 0
-0.012428211 -0.06981381 -0.0064863842 0
-0.012942889 -0.069744073 -0.0043772319 0
-0.013404281 -0.069857001 -0.0013845079 0
-0.013250925 -0.069844879 0.0013903516 0
-0.012897031 -0.069851197 0.0043658568 0
-0.012334095 -0.069565311 0.0065981979 0
-0.0097215464 -0.070213608 -0.010001529 0
-0.010637452 -0.070239365 -0.0076057096 0
-0.010347497 -0.070621945 -0.0043648388 0
-0.010568968 -0.070441991 -0.0016488818 0
-0.01053462 -0.070428796 0.0019366657 0
-0.010510583 -0.070513524 0.0044360505 0
-0.010505935 -0.070452884 0.0076522981 0
-0.0098338649 -0.07065285 0.0097598843 0
-0.0065865619 -0.069868505 -0.012315592 0
-0.0074105156 -0.070447773 -0.010610147 0
-0.0074155978 -0.070231833 0.010711782 0
-0.0066607287 -0.069591746 0.012318878 0
-0.0043017548 -0.069744371 -0.013027245 0
-0.0045788237 -0.070426434 -0.010456136 0
-0.0042606662 -0.070515126 0.010501469 0
-0.0044168942 -0.069670811 0.012982298 0
-0.0015020194 -0.069806337 -0.013292261 0
-0.001835129 -0.070378728 -0.010589235 0
-0.0015387384 -0.070533223 0.010537854 0
-0.001462874 -0.069851667 0.013370228 0
0.0016602091 -0.069832459 -0.013240438 0
0.0013215755 -0.070030719 -0.010404255 0
0.00083085324 -0.070553817 -0.0073754089 0
0.00081203127 -0.070362993 -0.00456433 0
0.00064770784 -0.070456788 -0.0015711323 0
0.0010446638 -0.070490256 0.001285688 0
0.00093356305 -0.070399888 0.0045307302 0
0.00098692637 -0.070313439 0.0075379321 0
0.00096911157 -0.070239268 0.010171943 0
0.0016387451 -0.069809176 0.013279645 0
0.0041327989 -0.069800384 -0.013065357 0
0.0044976724 -0.070000052 -0.010532538 0
0.0046771024 -0.070000023 -0.007454453 0
0.0045393161 -0.07000003 -0.004592482 0
0.0042889477 -0.070000015 -0.001526751 0
0.0047142045 -0.07 0.0017805474 0
0.0047820588 -0.069999993 0.0047967862 0
0.0044738096 -0.069999978 0.0074937777 0
0.0047201244 -0.069999948 0.010290565 0
0.0044358289 -0.069740385 0.01302149 0
0.0064926292 -0.06964989 -0.012423826 0
0.0072497972 -0.069963269 -0.010330732 0
0.0076191984 -0.070000052 -0.0074038873 0
0.0074804248 -0.070000008 -0.0045288899 0
0.0069774506 -0.07000003 -0.0016320354 0
0.0074777845 -0.069999993 0.0015974999 0
0.0075654248 -0.069999978 0.00462313 0
0.0074583525 -0.069999985 0.0075970907 0
0.0076923589 -0.069877774 0.010652978 0
0.0066068964 -0.069742747 0.012353247 0
0.0096010268 -0.069745027 -0.0098931734 0
0.010538437 -0.069919415 -0.0074916445 0
0.010533184 -0.07 -0.0047389884 0
0.010472757 -0.070000008 -0.0016982785 0
0.010570759 -0.070000008 0.0014695977 0
0.010746903 -0.069999978 0.0044017159 0
0.010634582 -0.069906123 0.0074411007 0
0.0099689467 -0.069639578 0.0098061496 0
0.012356935 -0.069362782 -0.0067344159 0
0.01283193 -0.069794297 -0.0048934612 0
0.013460451 -0.069757342 -0.0014522425 0
0.013275589 -0.069882885 0.0014514128 0
0.012967272 -0.069834463 0.0040592505 0
0.01243888 -0.069430351 0.0065209405 0
-0.01234437 -0.067674473 -0.006746578 0
-0.013269272 -0.067345321 -0.0046323421 0
-0.013940414 -0.067462809 -0.0014759087 0
-0.013916921 -0.067662835 0.0016937359 0
-0.013253741 -0.067634165 0.0046637906 0
-0.012300651 -0.067388743 0.0068363394 0
-0.0099475943 -0.067385666 -0.0099365916 0
-0.011349187 -0.067526154 -0.0082212826 0
-0.011295581 -0.067548543 0.0082924319 0
-0.0097129624 -0.06759613 0.010160185 0
-0.0068159294 -0.067301147 -0.012307176 0
-0.0080933254 -0.067292176 -0.011446196 0
-0.0082153194 -0.067439072 0.01135414 0
-0.0066952524 -0.067519911 0.012370321 0
-0.0045280545 -0.067350395 -0.013308005 0
-0.0044669197 -0.067450941 0.013327383 0
-0.0012225398 -0.067018911 -0.01396759 0
-0.001284616 -0.067338973 0.013961365 0
0.001390779 -0.067333885 -0.013949404 0
0.0015443749 -0.06735944 0.013933285 0
0.0043800669 -0.067612387 -0.013364671 0
0.0046020793 -0.067452088 0.01326352 0
0.0068307607 -0.067495115 -0.012311193 0
0.0080944356 -0.067492627 -0.011445359 0
0.0082172975 -0.067288853 0.011352638 0
0.0066640559 -0.067457043 0.012386418 0
0.0099671017 -0.067372523 -0.0099277059 0
0.011358781 -0.067522123 -0.0082086334 0
0.011413319 -0.067633688 0.0081372354 0
0.01002482 -0.067348853 0.0098672295 0
0.012337917 -0.067096353 -0.0067600748 0
0.013312196 -0.067278534 -0.0045405435 0
0.013944013 -0.067628451 -0.0014426397 0
0.013934777 -0.067559607 0.0015285434 0
0.013283446 -0.067461267 0.0045791022 0
0.0123385 -0.067450106 0.0067650205 0
-0.012362257 -0.064044841 -0.0067194356 0
-0.013280973 -0.064712569 -0.0046091597 0
-0.013969604 -0.064325668 -0.001205957 0
-0.013928006 -0.064532056 0.0015911815 0
-0.013282756 -0.064566016 0.0045868554 0
-0.012351749 -0.064454459 0.0067271781 0
-0.0099757677 -0.064581327 -0.0099180266 0
-0.011436972 -0.064815126 -0.0081055779 0
-0.011180826 -0.064392947 0.0084436918 0
-0.0098398998 -0.06431254 0.010073734 0
-0.0067931735 -0.064465456 -0.012318624 0
-0.0081792753 -0.064574786 -0.011381004 0
-0.0082057631 -0.064621903 0.011361379 0
-0.0066932756 -0.064440079 0.012364529 0
-0.0047164299 -0.064467788 -0.013243819 0
-0.0047693225 -0.064529173 0.01321385 0
-0.0014180146 -0.064706832 -0.013946468 0
-0.0015924335 -0.064682908 0.013928079 0
0.0010949138 -0.064389504 -0.013981401 0
0.0016431528 -0.06445495 0.013922596 0
0.0047012921 -0.064266376 -0.013244667 0
0.0044459216 -0.064568713 0.013346733 0
0.0067469599 -0.06457407 -0.012347255 0
0.0082537159 -0.064506017 -0.011324534 0
0.008076095 -0.064543463 0.011459745 0
0.0067602736 -0.064371213 0.012334486 0
0.0098492978 -0.064416431 -0.010049785 0
0.011421318 -0.064395875 -0.0081262058 0
0.011483634 -0.064351805 0.0080445381 0
0.010025415 -0.064437568 0.0098738614 0
0.012289558 -0.064288221 -0.0068467436 0
0.013220083 -0.06443423 -0.0047682449 0
0.013951659 -0.064467676 -0.0013719061 0
0.013919708 -0.064473301 0.0016679285 0
0.013164468 -0.064490527 0.0049030972 0
0.012453552 -0.064594053 0.0065255072 0
-0.01236757 -0.061353907 -0.0066951718 0
-0.013349118 -0.061349429 -0.0044088103 0
-0.013944692 -0.061191492 -0.0014363957 0
-0.01392882 -0.061508365 0.0015836338 0
-0.013226878 -0.061304662 0.0047389958 0
-0.012402244 -0.061817914 0.0066263229 0
-0.010050831 -0.061941072 -0.0098244585 0
-0.011329202 -0.061271485 -0.0082476484 0
-0.011338536 -0.061619792 0.0082357898 0
-0.0098679839 -0.061379418 0.0099978317 0
-0.0065740016 -0.061322536 -0.012426286 0
-0.0080320183 -0.061347637 -0.011492728 0
-0.0083996002 -0.061556768 0.011214321 0
-0.0066746934 -0.061291743 0.012379819 0
-0.0042894096 -0.061483234 -0.013398129 0
-0.0042878711 -0.061651886 0.013405637 0
-0.0013156974 -0.061426837 -0.013957541 0
-0.0013783202 -0.061770376 0.013951218 0
0.0014937449 -0.06192258 -0.01393829 0
0.0015251063 -0.061348878 0.013935344 0
0.0044548945 -0.061445065 -0.013332522 0
0.0044785021 -0.061770603 0.013323156 0
0.0066947122 -0.061234728 -0.012369077 0
0.0081432844 -0.061448116 -0.011408322 0
0.0082041621 -0.061716352 0.011362582 0
0.0066602123 -0.061453801 0.012392231 0
0.0098312339 -0.061365873 -0.010027015 0
0.011300921 -0.0614204 -0.0082849264 0
0.011378281 -0.061779302 0.0081834001 0
0.010000629 -0.061543729 0.0098777227 0
0.012418474 -0.061788894 -0.0066031017 0
0.013346875 -0.061626676 -0.0044618421 0
0.013933673 -0.061472856 -0.001538325 0
0.013941161 -0.061441585 0.0014694707 0
0.013358583 -0.061727814 0.0044270218 0
0.012374117 -0.061550066 0.0066742925 0
-0.012334409 -0.058646251 -0.0067723822 0
-0.013334624 -0.058457475 -0.0044768364 0
-0.013950652 -0.058509335 -0.0013812749 0
-0.013938096 -0.058601435 0.0014978123 0
-0.013305898 -0.05844092 0.0045223865 0
-0.012329101 -0.05853866 0.0067841588 0
-0.010002408 -0.058604565 -0.0098726638 0
-0.011425368 -0.058293343 -0.0081208954 0
-0.011344481 -0.058467709 0.0082279388 0
-0.0098734908 -0.058295146 0.010016373 0
-0.006668984 -0.058695264 -0.012385002 0
-0.0081849052 -0.058256801 -0.011376756 0
-0.0081046456 -0.058537077 0.011438069 0
-0.0067116139 -0.05868087 0.012364525 0
-0.0046261195 -0.058583509 -0.01326809 0
-0.0043051452 -0.058586963 0.013399545 0
-0.001306338 -0.058620602 -0.013958561 0
-0.0013187767 -0.058371402 0.013957642 0
0.0011561392 -0.058682024 -0.013974803 0
0.0014398795 -0.058402859 0.013944549 0
0.0046327193 -0.058530331 -0.013268681 0
0.0043102265 -0.058214407 0.013409126 0
0.0067463331 -0.058296025 -0.012343711 0
0.0083920192 -0.058130905 -0.011219639 0
0.0081386156 -0.058510102 0.011412295 0
0.006853722 -0.058507565 0.012302063 0
0.010034597 -0.058558356 -0.0098551419 0
0.011386589 -0.058453642 -0.008172011 0
0.01140124 -0.058699593 0.0081531284 0
0.0099161025 -0.058261961 0.0099602435 0
0.012379328 -0.058328573 -0.006672278 0
0.013267038 -0.058345351 -0.0046243574 0
0.013940784 -0.058336888 -0.0014725351 0
0.013930573 -0.058392417 0.0015673955 0
0.013236206 -0.058616985 0.0047270637 0
0.012414763 -0.058085393 0.006602142 0
-0.012404576 -0.056015879 -0.0066168308 0
-0.01328106 -0.055530634 -0.0045883795 0
-0.013932465 -0.055467211 -0.0015494983 0
-0.01396909 -0.055552248 0.0012111326 0
-0.013409005 -0.055606239 0.0042709066 0
-0.012372643 -0.055376813 0.0066834455 0
-0.0099879028 -0.055283125 -0.0098872297 0
-0.011387839 -0.055470124 -0.0081703775 0
-0.01136882 -0.055753183 0.0081958482 0
-0.0099461591 -0.055235934 0.0099372221 0
-0.0065625194 -0.055570647 -0.012435495 0
-0.0080284132 -0.055553716 -0.011495481 0
-0.0081723817 -0.055315454 0.011386671 0
-0.0067391368 -0.055423882 0.012348587 0
-0.0047277571 -0.055287391 -0.013234724 0
-0.0047201202 -0.055488411 0.013237831 0
-0.0013625568 -0.055370897 -0.013952495 0
-0.0013134264 -0.055382933 0.01395821 0
0.0014123536 -0.055457115 -0.013947112 0
0.0016489014 -0.05530569 0.013921942 0
0.0043551927 -0.0554104 -0.013377181 0
0.0045266375 -0.055627257 0.013312479 0
0.0067945584 -0.055421431 -0.012324327 0
0.008281393 -0.055145349 -0.011303574 0
0.0081880596 -0.055521227 0.011374775 0
0.0067557269 -0.055521931 0.012343626 0
0.0099488683 -0.055625435 -0.009949523 0
0.0114384 -0.055407278 -0.0081037246 0
0.011417506 -0.055269577 0.0081316717 0
0.0099016344 -0.055573776 0.0099508697 0
0.012353454 -0.05583841 -0.0067411764 0
0.013318604 -0.055340655 -0.0045120167 0
0.013930855 -0.055662673 -0.0015644018 0
0.013918784 -0.055356171 0.0016764663 0
0.013317535 -0.055439446 0.0045218673 0
0.01231051 -0.055710129 0.0068158298 0
-0.012372148 -0.052388594 -0.0066818236 0
-0.013297405 -0.052683063 -0.0045403545 0
-0.013938163 -0.052436914 -0.0014968101 0
-0.0139476 -0.052676655 0.0014098774 0
-0.0134198 -0.052477907 0.0042576175 0
-0.012294909 -0.052599959 0.0068577966 0
-0.0099989679 -0.052535933 -0.0099033406 0
-0.011433571 -0.05231085 -0.0081101069 0
-0.011400891 -0.052534353 0.0081535596 0
-0.0098610651 -0.052822556 0.01001383 0
-0.0065624607 -0.052092079 -0.012433726 0
-0.0080453856 -0.052506126 -0.01148262 0
-0.0079783015 -0.052564681 0.011533895 0
-0.0066591371 -0.052781682 0.01238521 0
-0.0043984172 -0.052285749 -0.013350529 0
-0.0044943318 -0.052541099 0.013337203 0
-0.0013800447 -0.052445028 -0.013950616 0
-0.0016034942 -0.052331649 0.013926839 0
0.0015116817 -0.052424878 -0.013936385 0
0.0018062004 -0.052414484 0.013904926 0
0.00459512 -0.052407447 -0.013278765 0
0.0043772361 -0.052490149 0.013359957 0
0.0067460062 -0.052689984 -0.012341489 0
0.0083400663 -0.052639473 -0.011259071 0
0.0081260363 -0.052522074 0.011421817 0
0.0063845934 -0.052439481 0.012515815 0
0.01005872 -0.052559335 -0.0098115029 0
0.011273943 -0.052356191 -0.0083205206 0
0.011321144 -0.052455377 0.0082586864 0
0.0099784508 -0.052561164 0.0098791402 0
0.012399456 -0.052129477 -0.0066314265 0
0.013348218 -0.052318666 -0.0044452357 0
0.01394885 -0.052444689 -0.0013979368 0
0.013954644 -0.052658249 0.0013447192 0
0.013371427 -0.052495662 0.0043811481 0
0.012295637 -0.052654609 0.0068562534 0
-0.012381633 -0.049447048 -0.0066768094 0
-0.013329597 -0.049478512 -0.0044617821 0
-0.013940954 -0.049515937 -0.0014709913 0
-0.013944225 -0.049744509 0.0014410884 0
-0.013311163 -0.049587101 0.0045186542 0
-0.012330594 -0.049205273 0.006785146 0
-0.0098156333 -0.049494855 -0.010067234 0
-0.011317845 -0.049640179 -0.0082626631 0
-0.011452513 -0.049461391 0.0080854977 0
-0.0099683842 -0.049666896 0.00990088 0
-0.006675208 -0.04953751 -0.012377529 0
-0.0083131716 -0.049676619 -0.011279482 0
-0.0081876963 -0.049127031 0.011375029 0
-0.0068300096 -0.049776126 0.012301724 0
-0.0048576305 -0.049505163 -0.013177044 0
-0.0044575506 -0.049608115 0.013332456 0
-0.0017033421 -0.049554173 -0.013915678 0
-0.0015896513 -0.049703799 0.013928324 0
0.0014906909 -0.049529262 -0.013938665 0
0.0015142198 -0.049671385 0.013936483 0
0.0045139468 -0.049524773 -0.013313754 0
0.0046909964 -0.049808685 0.013248816 0
0.0068114051 -0.049698155 -0.012315416 0
0.0081201671 -0.049681757 -0.011425901 0
0.0081956154 -0.049528252 0.011369023 0
0.0067637153 -0.049607012 0.012346615 0
0.00995709 -0.049528934 -0.0099237906 0
0.011395067 -0.04962505 -0.0081608677 0
0.011315487 -0.049575567 0.0082661295 0
0.010154553 -0.049441788 0.0097076362 0
0.012391115 -0.049509019 -0.0066666389 0
0.013283521 -0.049479719 -0.0045618028 0
0.013928798 -0.049223974 -0.0015834464 0
0.013938599 -0.049529668 0.0014931372 0
0.013281278 -0.049597759 0.0046066232 0
0.012390231 -0.049252626 0.0066621066 0
-0.012383042 -0.04641543 -0.0066756774 0
-0.013269133 -0.046352927 -0.0046376246 0
-0.013948413 -0.046283558 -0.0014020271 0
-0.013951959 -0.046554204 0.0013695257 0
-0.013364529 -0.046529386 0.0043853736 0
-0.012312 -0.04646625 0.0068178405 0
-0.010095932 -0.046448592 -0.0097771809 0
-0.011287192 -0.046547618 -0.0083030798 0
-0.011315188 -0.046325635 0.0082665058 0
-0.010093371 -0.046700228 0.009786482 0
-0.0065450175 -0.046339761 -0.012439703 0
-0.0081507275 -0.046429168 -0.011402725 0
-0.0082648592 -0.046390295 0.011316484 0
-0.0068490608 -0.046376605 0.012294375 0
-0.0044983281 -0.046671923 -0.013318161 0
-0.0043859212 -0.046357103 0.013356635 0
-0.0014911686 -0.046478115 -0.013938622 0
-0.0016195148 -0.046558183 0.013925084 0
0.001526519 -0.046434611 -0.013934803 0
0.0015752035 -0.046430271 0.013929876 0
0.0044633802 -0.046754692 -0.013348727 0
0.0046747075 -0.046482012 0.013253701 0
0.0065900912 -0.046833638 -0.012421435 0
0.0080584222 -0.046189204 -0.011472756 0
0.00829597 -0.046540618 0.011292879 0
0.0066832649 -0.046097819 0.012376427 0
0.009794035 -0.046443339 -0.010071561 0
0.011258479 -0.046739288 -0.008340924 0
0.011371261 -0.046449959 0.0081926007 0
0.0098623578 -0.046525531 0.010016308 0
0.012386307 -0.04676583 -0.0066520539 0
0.013346818 -0.046604592 -0.0044468264 0
0.013933022 -0.046380598 -0.0015443844 0
0.013935974 -0.046393014 0.0015173972 0
0.013372344 -0.046587039 0.0043816427 0
0.012311829 -0.046896737 0.0068201902 0
-0.012317016 -0.043485813 -0.0068169963 0
-0.013303765 -0.043326017 -0.004546274 0
-0.013928505 -0.043356836 -0.0015861695 0
-0.01397427 -0.043411605 0.0011631477 0
-0.01325322 -0.043738656 0.0046296748 0
-0.012353464 -0.043717351 0.0067216423 0
-0.0098786214 -0.043479729 -0.0099994354 0
-0.011256044 -0.043363068 -0.0083441511 0
-0.011277952 -0.04353242 0.0083155809 0
-0.0098951152 -0.043645456 0.0099491533 0
-0.0065406566 -0.043425601 -0.012446041 0
-0.008189844 -0.043600608 -0.011373064 0
-0.0081654135 -0.043649524 0.011391914 0
-0.0066229794 -0.043108623 0.012400576 0
-0.0045250868 -0.043347627 -0.013292745 0
-0.0044645234 -0.043208856 0.013341029 0
-0.0017302242 -0.04368519 -0.01391279 0
-0.0016286161 -0.043595009 0.01392409 0
0.0013169323 -0.043750849 -0.013957473 0
0.0012976014 -0.043636546 0.013959875 0
0.004738742 -0.043672383 -0.013229692 0
0.0047467342 -0.043563865 0.013221908 0
0.0067871027 -0.043228902 -0.012321214 0
0.0082351714 -0.043717384 -0.011338678 0
0.0082282154 -0.04334043 0.011344266 0
0.0069556474 -0.043275006 0.012243387 0
0.0099276053 -0.04383732 -0.0099654673 0
0.011647718 -0.043397941 -0.0078278445 0
0.011367056 -0.043756779 0.0081981327 0
0.0097499285 -0.043453593 0.010109254 0
0.012389477 -0.043584183 -0.006663525 0
0.013354466 -0.043596189 -0.0044128015 0
0.013948536 -0.043631986 -0.0014008672 0
0.01392022 -0.043463565 0.0016631255 0
0.013351441 -0.043520514 0.0044557815 0
0.012385983 -0.043702934 0.0066502118 0
-0.012401804 -0.040646132 -0.0066272388 0
-0.013385039 -0.040649146 -0.0042983573 0
-0.013915894 -0.040519927 -0.0017028423 0
-0.013925225 -0.040423099 0.0016168094 0
-0.013241889 -0.040408559 0.0047103106 0
-0.012388866 -0.040802822 0.0066529242 0
-0.010008761 -0.040473729 -0.0098771947 0
-0.0112766 -0.040548842 -0.0083170636 0
-0.011313395 -0.040738661 0.0082688555 0
-0.0098223723 -0.04045454 0.010061598 0
-0.006816058 -0.040495493 -0.012316955 0
-0.0082884328 -0.040118963 -0.011298284 0
-0.0080683194 -0.040518455 0.011465563 0
-0.0067804209 -0.040306937 0.012330424 0
-0.00445865 -0.040646091 -0.01333987 0
-0.0047756997 -0.040310338 0.013214682 0
-0.0015457473 -0.040555641 -0.013932746 0
-0.0016505468 -0.040443316 0.013921708 0
0.0014233236 -0.040468067 -0.013945981 0
0.0013471893 -0.040257983 0.013954505 0
0.0046114507 -0.040957604 -0.013274398 0
0.0045907497 -0.040654659 0.013287919 0
0.0066513512 -0.040345225 -0.012394307 0
0.008157365 -0.040725689 -0.011397715 0
0.0081608212 -0.040590093 0.011395385 0
0.0067483792 -0.040474482 0.012346605 0
0.0098874513 -0.040666498 -0.0099835237 0
0.011487955 -0.040660854 -0.0080384519 0
0.011319321 -0.040563721 0.0082610454 0
0.01000482 -0.040505469 0.0098622814 0
0.012392783 -0.040577449 -0.0066425689 0
0.013294513 -0.040386666 -0.0045466842 0
0.013937013 -0.040520143 -0.0015074804 0
0.01395697 -0.040561501 0.0013231812 0
0.013335753 -0.040317245 0.0044581546 0
0.01237732 -0.040419281 0.0066888733 0
-0.01239779 -0.037307952 -0.0066447463 0
-0.013328946 -0.037551373 -0.0044643246 0
-0.013959859 -0.03746403 -0.0012961698 0
-0.01394216 -0.037564181 0.0014601757 0
-0.013286972 -0.037399322 0.0046085576 0
-0.012322944 -0.037609532 0.0067891818 0
-0.010023493 -0.037457082 -0.009880241 0
-0.011358056 -0.037637401 -0.0082097016 0
-0.011381277 -0.037654746 0.008179361 0
-0.010071721 -0.037230667 0.0098018683 0
-0.0067272717 -0.037403513 -0.012352252 0
-0.0080246199 -0.03748402 -0.011498427 0
-0.0081083234 -0.037569672 0.011435203 0
-0.0067193029 -0.037817881 0.012355247 0
-0.0044767577 -0.037477508 -0.013331139 0
-0.0044864803 -0.037225887 0.01333396 0
-0.0013817667 -0.037501458 -0.013950483 0
-0.0015182007 -0.037578542 0.013936004 0
0.0012774074 -0.037436318 -0.013961766 0
0.0011574464 -0.037861563 0.013975006 0
0.0044488455 -0.037309248 -0.013336534 0
0.0044953395 -0.037585206 0.013317862 0
0.0067746178 -0.037788756 -0.01233994 0
0.0081234742 -0.037233584 -0.011423438 0
0.0082188519 -0.037673064 0.01135135 0
0.0066729947 -0.037487768 0.01237619 0
0.010016112 -0.037329968 -0.0098722829 0
0.011335733 -0.037438273 -0.0082391249 0
0.01129149 -0.037161849 0.0082977181 0
0.010039684 -0.037362561 0.0098401541 0
0.012386427 -0.037323829 -0.0066607022 0
0.013316525 -0.037647102 -0.0044889105 0
0.013941471 -0.037617233 -0.0014662395 0
0.013945277 -0.037488788 0.0014313313 0
0.013218953 -0.037582271 0.0047598165 0
0.012365234 -0.037651315 0.0067092404 0
-0.012300924 -0.0346605 -0.0068209688 0
-0.013315568 -0.034383483 -0.0044948193 0
-0.013935386 -0.034602735 -0.0015225535 0
-0.013958177 -0.034627553 0.0013119843 0
-0.013268932 -0.034584638 0.0046200943 0
-0.012401663 -0.034490876 0.0066401078 0
-0.010008998 -0.034524787 -0.0098776361 0
-0.01141481 -0.034362976 -0.0081349015 0
-0.011385703 -0.034529451 0.008173516 0
-0.010107303 -0.034615863 0.0097608352 0
-0.0065983827 -0.034408435 -0.012417031 0
-0.008215623 -0.034572475 -0.01135354 0
-0.0082075922 -0.034647107 0.011359883 0
-0.0066375923 -0.034693711 0.012395515 0
-0.0045269616 -0.034627818 -0.013316948 0
-0.0047749272 -0.034401733 0.013211971 0
-0.0010516223 -0.034793496 -0.013986182 0
-0.0014322379 -0.034438219 0.013945285 0
0.0016062674 -0.034749568 -0.013926226 0
0.0013571666 -0.034610137 0.013953405 0
0.0046355724 -0.034583163 -0.013259398 0
0.0045031449 -0.034278549 0.013311141 0
0.006762818 -0.034589954 -0.01234458 0
0.0080650672 -0.034315772 -0.011467759 0
0.0079297768 -0.034238316 0.011570636 0
0.0067915092 -0.034645595 0.012327728 0
0.0099402647 -0.034523401 -0.0099551026 0
0.01133413 -0.034294456 -0.0082412492 0
0.011308141 -0.034542359 0.0082757613 0
0.0099659692 -0.034765899 0.0099168187 0
0.012370834 -0.034232892 -0.0067010662 0
0.013238861 -0.03447511 -0.0047077434 0
0.01395242 -0.034519963 -0.0013649921 0
0.013956173 -0.03448173 0.0013305267 0
0.013297818 -0.034586582 0.0045697582 0
0.012365525 -0.034344133 0.0067078331 0
-0.012408546 -0.031196499 -0.00662148 0
-0.013264602 -0.031658426 -0.0046151984 0
-0.013934396 -0.03168875 -0.0015317127 0
-0.013920659 -0.031565942 0.0016590233 0
-0.013191598 -0.031634782 0.0048111388 0
-0.012428319 -0.031593245 0.0065736556 0
-0.0099448767 -0.031502817 -0.0099026421 0
-0.011413415 -0.031557452 -0.0081367502 0
-0.01127007 -0.031438891 0.0083259298 0
-0.010101095 -0.031465087 0.0097630126 0
-0.006621717 -0.031229071 -0.012408905 0
-0.0082810856 -0.031420749 -0.011303889 0
-0.0081298556 -0.031400152 0.011418846 0
-0.0066009294 -0.031566747 0.012410108 0
-0.0042892275 -0.031671733 -0.013414014 0
-0.0046201823 -0.031662542 0.013273659 0
-0.0015160649 -0.031718049 -0.013935985 0
-0.0015220398 -0.031452067 0.01393557 0
0.0014842168 -0.031442758 -0.01393943 0
0.0012711358 -0.031703424 0.013962694 0
0.0045479187 -0.03124981 -0.013301484 0
0.0045243073 -0.031650618 0.013299989 0
0.0066814031 -0.031679969 -0.012379072 0
0.0081256386 -0.031038504 -0.011421818 0
0.0082175015 -0.031634767 0.011352355 0
0.0066627725 -0.031398095 0.01238199 0
0.010049013 -0.031428639 -0.0098290546 0
0.011425856 -0.03158569 -0.0081203496 0
0.011414553 -0.031718221 0.0081354799 0
0.0099032512 -0.03164693 0.0099824946 0
0.012378628 -0.031485237 -0.0066751977 0
0.013326097 -0.031479593 -0.0044503501 0
0.013921096 -0.031503417 -0.0016547618 0
0.013953259 -0.031631291 0.0013575098 0
0.013349728 -0.031749606 0.0044348515 0
0.01236938 -0.031142788 0.0066994447 0
-0.01238494 -0.028575147 -0.0066554542 0
-0.013362821 -0.028336491 -0.0044076573 0
-0.013921059 -0.028533692 -0.0016550976 0
-0.013930073 -0.028503811 0.0015719103 0
-0.013322824 -0.028629247 0.0044844961 0
-0.012326115 -0.028786959 0.0067766653 0
-0.0098910602 -0.028545097 -0.0099862721 0
-0.011422757 -0.028084034 -0.0081244474 0
-0.01138917 -0.028446291 0.0081689227 0
-0.0099132424 -0.02874141 0.0099908998 0
-0.0066622379 -0.028006749 -0.012386719 0
-0.008083337 -0.028308291 -0.011453914 0
-0.0082136979 -0.028844597 0.011355232 0
-0.0067533101 -0.028428577 0.012336624 0
-0.0044537978 -0.028304964 -0.013341717 0
-0.0043348661 -0.028331043 0.013382749 0
-0.0014287329 -0.028822681 -0.013945438 0
-0.0015982756 -0.028071824 0.013927315 0
0.0015259436 -0.028401641 -0.013934931 0
0.0015076413 -0.0282564 0.013937114 0
0.0047441171 -0.028568435 -0.013229765 0
0.0046636504 -0.028574511 0.013254725 0
0.0067225969 -0.027943015 -0.012359227 0
0.0082035642 -0.028573478 -0.01136271 0
0.0082467953 -0.028486714 0.011330117 0
0.0067332149 -0.028561369 0.012354812 0
0.010044084 -0.028682139 -0.0098306006 0
0.011321872 -0.028617317 -0.0082574245 0
0.01135708 -0.028455505 0.0082112271 0
0.0098900804 -0.028662067 0.009988118 0
0.012420021 -0.028140159 -0.0065822909 0
0.013336378 -0.028581338 -0.0044394839 0
0.01393522 -0.028536145 -0.0015241199 0
0.013967939 -0.028436355 0.0012216817 0
0.013346395 -0.028403863 0.0044473391 0
0.01232654 -0.028435847 0.0067887302 0
-0.012335868 -0.025636224 -0.0067742295 0
-0.013315637 -0.025369922 -0.0045163566 0
-0.013938112 -0.025805229 -0.0014973661 0
-0.013956509 -0.025499215 0.0013273826 0
-0.013333905 -0.025591265 0.0044940892 0
-0.01231065 -0.025425877 0.0068158899 0
-0.0099552069 -0.02548985 -0.0099378647 0
-0.011321672 -0.025635982 -0.0082577029 0
-0.011281715 -0.025106357 0.0083105555 0
-0.0099603524 -0.025328143 0.0099374671 0
-0.006653857 -0.025463223 -0.012393829 0
-0.0080450848 -0.025545666 -0.011482943 0
-0.0081554856 -0.025573039 0.011399381 0
-0.0065971375 -0.025698228 0.012415789 0
-0.0046248683 -0.025583725 -0.013267583 0
-0.004540415 -0.025569635 0.013300503 0
-0.0016379288 -0.02547702 -0.013922835 0
-0.0014236752 -0.025526602 0.013946181 0
0.0014308941 -0.025579985 -0.013945216 0
0.001685209 -0.025449546 0.013917909 0
0.0045291702 -0.025587196 -0.013306404 0
0.0046666954 -0.025196016 0.013244377 0
0.0066280402 -0.025349682 -0.012398963 0
0.0081719691 -0.025192771 -0.011386692 0
0.0080851587 -0.025184726 0.011452727 0
0.0066719428 -0.025603652 0.012377767 0
0.010100641 -0.025424659 -0.0097519858 0
0.011274612 -0.025408823 -0.0083197346 0
0.01140307 -0.025362765 0.0081505915 0
0.010056551 -0.025549538 0.0098226834 0
0.012292831 -0.025487898 -0.0068579358 0
0.013323614 -0.025366856 -0.0044985814 0
0.013938019 -0.025679234 -0.0014982626 0
0.0139298 -0.025479708 0.0015744393 0
0.013301757 -0.025522904 0.0045320909 0
0.012411445 -0.02534057 0.0066053588 0
-0.012306305 -0.022874456 -0.006834297 0
-0.013348296 -0.022458399 -0.004440526 0
-0.013968723 -0.022471337 -0.0012142368 0
-0.013931761 -0.022403795 0.001556291 0
-0.013365684 -0.022388235 0.004368478 0
-0.012365266 -0.022425214 0.0067036347 0
-0.010069769 -0.022607801 -0.0098064821 0
-0.011566548 -0.022658601 -0.0079349261 0
-0.011353406 -0.022411212 0.0082160449 0
-0.010120433 -0.022425586 0.0097416285 0
-0.0067468905 -0.022819029 -0.01235176 0
-0.0082977396 -0.022658126 -0.011291286 0
-0.0081082415 -0.022219701 0.011435209 0
-0.006565317 -0.022785211 0.012431212 0
-0.0046731341 -0.022369981 -0.01325046 0
-0.0045344071 -0.022651369 0.013312076 0
-0.0017689139 -0.022444429 -0.013908686 0
-0.0016398341 -0.022375798 0.013922804 0
0.00146362 -0.022555737 -0.013941689 0
0.0016671687 -0.022269106 0.013919846 0
0.004720401 -0.021998288 -0.013219384 0
0.0046448265 -0.022506014 0.01326305 0
0.0066911886 -0.022265932 -0.012375406 0
0.0081095658 -0.022642424 -0.011434043 0
0.0083067911 -0.022982126 0.011284583 0
0.0066699306 -0.022502661 0.012373732 0
0.010066106 -0.022479635 -0.0097952206 0
0.011499231 -0.022407899 -0.008023656 0
0.011422002 -0.022679282 0.0081256274 0
0.0098007182 -0.022571547 0.010069577 0
0.012376202 -0.022446828 -0.0066884267 0
0.01333302 -0.022380272 -0.0044633062 0
0.013926229 -0.022278054 -0.0016073092 0
0.013958407 -0.022338076 0.0013098363 0
0.013301588 -0.022524908 0.0045485105 0
0.012377431 -0.022854337 0.0066864006 0
-0.01241594 -0.019634349 -0.006600013 0
-0.013377134 -0.019588813 -0.0043833079 0
-0.013947597 -0.019705623 -0.0014096511 0
-0.013932976 -0.019692075 0.0015450589 0
-0.013249122 -0.019373551 0.0047045723 0
-0.01231464 -0.019550916 0.0068197227 0
-0.0099338442 -0.019606534 -0.0099594519 0
-0.011424378 -0.01958243 -0.0081223417 0
-0.011436081 -0.019490875 0.0081070531 0
-0.0098516429 -0.019645747 0.010027333 0
-0.0068420763 -0.019606667 -0.012298218 0
-0.0081411814 -0.019602045 -0.011410066 0
-0.0081864037 -0.01945287 0.011375905 0
-0.0065742303 -0.019520897 0.012425466 0
-0.0046125655 -0.019543821 -0.013278701 0
-0.0046049911 -0.019612504 0.013272249 0
-0.0016218327 -0.019502718 -0.013924598 0
-0.0013912375 -0.01932979 0.013949666 0
0.0014978853 -0.019447975 -0.013937995 0
0.0015626214 -0.019636091 0.013931138 0
0.004721276 -0.019534955 -0.013243596 0
0.0044298242 -0.019428981 0.013355192 0
0.0066924682 -0.019633284 -0.012366894 0
0.0081400145 -0.019377159 -0.011410954 0
0.0082034897 -0.019373449 0.011362938 0
0.0066857557 -0.019463189 0.01236917 0
0.010105102 -0.019443104 -0.0097675035 0
0.011384779 -0.019155493 -0.0081745414 0
0.011362649 -0.019435097 0.0082038529 0
0.0100224 -0.019251075 0.0098702339 0
0.012347948 -0.019330857 -0.0067383759 0
0.013312706 -0.019463874 -0.0045502926 0
0.013930754 -0.019462992 -0.0015654531 0
0.013926747 -0.019525759 0.0016026491 0
0.013316216 -0.019400159 0.0045057973 0
0.012337383 -0.0193513 0.0067606564 0
-0.012389058 -0.016794562 -0.0066564861 0
-0.013352166 -0.016401531 -0.0044061709 0
-0.013942235 -0.016351983 -0.0014592485 0
-0.013932085 -0.016506057 0.0015532863 0
-0.013353648 -0.016460786 0.004398264 0
-0.012366939 -0.016595369 0.0066919741 0
-0.0098581044 -0.016319361 -0.010018751 0
-0.011256428 -0.016103206 -0.0083437422 0
-0.011403191 -0.016545022 0.0081503987 0
-0.010076139 -0.016543778 0.0098050265 0
-0.0066060661 -0.016213989 -0.012412524 0
-0.0081357695 -0.016643427 -0.011414183 0
-0.0082403421 -0.016579174 0.011334971 0
-0.0069022076 -0.016780524 0.012277436 0
-0.0046148398 -0.016458578 -0.013281812 0
-0.0044232518 -0.016492104 0.013355225 0
-0.0015013956 -0.016486045 -0.013937628 0
-0.0015564193 -0.016602671 0.013931799 0
0.0014792373 -0.016402325 -0.013940023 0
0.0015722854 -0.016194355 0.01393008 0
0.0043594269 -0.016303835 -0.013392098 0
0.0046377969 -0.016571479 0.013265675 0
0.006594595 -0.016350275 -0.012417627 0
0.0083218748 -0.016849419 -0.011273001 0
0.0083973818 -0.01666081 0.01121584 0
0.0065396209 -0.016212743 0.012442389 0
0.01000683 -0.016696738 -0.0098820562 0
0.01152443 -0.016464198 -0.0079904599 0
0.011367562 -0.016634753 0.0081973644 0
0.0099754194 -0.01683623 0.0099016363 0
0.012366542 -0.016788324 -0.0067179678 0
0.013186752 -0.016501253 -0.0048442152 0
0.013964253 -0.016449632 -0.0012555779 0
0.013941429 -0.01663362 0.0014668474 0
0.013340537 -0.016574275 0.0044395602 0
0.012335038 -0.016731033 0.0067754667 0
-0.012280991 -0.013446795 -0.0068833758 0
-0.013343402 -0.013380573 -0.0044124629 0
-0.013951063 -0.013476239 -0.0013776276 0
-0.013935985 -0.013510501 0.0015171636 0
-0.013308645 -0.01356127 0.0045631519 0
-0.012433432 -0.013255061 0.0065558292 0
-0.0098514743 -0.013359055 -0.010036565 0
-0.011554283 -0.013568619 -0.0079511274 0
-0.011454557 -0.013480834 0.0080826739 0
-0.0099272346 -0.013698916 0.0099539049 0
-0.0064815385 -0.013475613 -0.012464322 0
-0.0082185753 -0.013308908 -0.011351375 0
-0.0081434194 -0.013271917 0.011408489 0
-0.0066491971 -0.013950672 0.012392643 0
-0.0048550898 -0.013437144 -0.013181646 0
-0.0045175105 -0.013393641 0.013308712 0
-0.0016676962 -0.013438639 -0.013919659 0
-0.0015796124 -0.013341233 0.013929281 0
0.0015209765 -0.013690108 -0.01393552 0
0.0017768947 -0.013794522 0.013907957 0
0.0046165311 -0.013506918 -0.013273531 0
0.0045335689 -0.013571549 0.013312791 0
0.0067163156 -0.013720764 -0.012359264 0
0.0082337474 -0.013280516 -0.011339869 0
0.0081058173 -0.013242854 0.011437014 0
0.0066555338 -0.013384918 0.012389631 0
0.0099062184 -0.013685239 -0.01000008 0
0.011446662 -0.013031573 -0.0080929874 0
0.011196367 -0.01345932 0.0084230201 0
0.0099988282 -0.013766357 0.0099066319 0
0.012348547 -0.013956731 -0.006717117 0
0.013287634 -0.013528385 -0.0045811557 0
0.013916764 -0.013498607 -0.0016948972 0
0.013934986 -0.01355391 0.001526433 0
0.013395119 -0.013658562 0.0043316218 0
0.012397683 -0.013156408 0.0066437419 0
-0.012364264 -0.010761839 -0.0066869496 0
-0.013327383 -0.010496202 -0.0044984207 0
-0.01398286 -0.010323506 -0.0010835263 0
-0.013926439 -0.010334213 0.0016054759 0
-0.013260203 -0.010534001 0.0046524554 0
-0.012341149 -0.010494578 0.0067509962 0
-0.0099180602 -0.010672149 -0.0099572372 0
-0.01133007 -0.010514705 -0.0082466872 0
-0.011380662 -0.010675311 0.0081800707 0
-0.0099109402 -0.010464593 0.0099655818 0
-0.00663761 -0.010163945 -0.012396023 0
-0.008322523 -0.010666335 -0.01127253 0
-0.0082740933 -0.010421034 0.011309347 0
-0.0067635365 -0.010396397 0.012324648 0
-0.0044945632 -0.010542936 -0.013307313 0
-0.0045513869 -0.010392064 0.01330973 0
-0.001680701 -0.010347905 -0.013918267 0
-0.0015546907 -0.010663824 0.013931961 0
0.0014020914 -0.010407294 -0.013948389 0
0.0014001197 -0.010714008 0.013948674 0
0.0044766837 -0.010638408 -0.013315576 0
0.0045693954 -0.010340747 0.013266784 0
0.0067580771 -0.010683623 -0.012342816 0
0.0082583129 -0.010288881 -0.011321244 0
0.0081414394 -0.010388212 0.011409979 0
0.0064568366 -0.010178171 0.012480728 0
0.010100952 -0.010433011 -0.0097567765 0
0.011317055 -0.010694356 -0.0082638413 0
0.011395816 -0.010500371 0.0081601012 0
0.0099397507 -0.010608857 0.0099518811 0
0.012326786 -0.010668453 -0.0067668688 0
0.013364374 -0.010603525 -0.0043945876 0
0.013955776 -0.010572369 -0.0013340563 0
0.013942848 -0.010395803 0.0014536727 0
0.013325896 -0.010436303 0.0044355593 0
0.012331869 -0.010562144 0.0067803655 0
-0.012293595 -0.0078469384 -0.0068614194 0
-0.013322626 -0.0075126132 -0.0044944375 0
-0.01393457 -0.0073066442 -0.0015301979 0
-0.013950345 -0.0074043707 0.0013843451 0
-0.013382402 -0.0076777064 0.0043384973 0
-0.012318969 -0.0076980367 0.0068037217 0
-0.010168373 -0.0078054704 -0.0097059151 0
-0.011389074 -0.0073496932 -0.0081689218 0
-0.011264693 -0.0076316814 0.0083329314 0
-0.0098863002 -0.0075985314 0.0099881031 0
-0.0066344654 -0.0073065008 -0.012397462 0
-0.0081428224 -0.0072501157 -0.011408869 0
-0.0080861226 -0.007737583 0.011451935 0
-0.0067136874 -0.007358022 0.012364735 0
-0.0044438858 -0.0075404174 -0.013336234 0
-0.0045561767 -0.0075938664 0.01330792 0
-0.0015846236 -0.0074878302 -0.013928665 0
-0.0015205856 -0.0074852589 0.01393564 0
0.0012764225 -0.0073968903 -0.013961981 0
0.0017474265 -0.007388562 0.013911116 0
0.0047242423 -0.0073973299 -0.01322892 0
0.0045145992 -0.0073111122 0.013304743 0
0.0066026994 -0.0075049642 -0.012413753 0
0.0081330296 -0.0076923841 -0.011416296 0
0.008241511 -0.007488932 0.011334051 0
0.0068342453 -0.0077072522 0.012310262 0
0.009936098 -0.0076291491 -0.009925493 0
0.011528905 -0.0075408411 -0.0079845963 0
0.011352344 -0.0079104276 0.0082173925 0
0.0100047 -0.0076290555 0.0098713338 0
0.012307535 -0.0074410704 -0.0068244487 0
0.013334814 -0.0074867252 -0.0044519361 0
0.013925823 -0.0073810113 -0.0016110941 0
0.013939531 -0.0075365552 0.0014843744 0
0.013395841 -0.0076210517 0.004301982 0
0.012373549 -0.0075924941 0.0066885124 0
-0.012404426 -0.0043415651 -0.0066232812 0
-0.013319745 -0.0041447743 -0.0044707055 0
-0.013929397 -0.0046636728 -0.0015780632 0
-0.01394079 -0.0045565241 0.0014727339 0
-0.01327848 -0.0041991812 0.0046196799 0
-0.012395938 -0.0045697489 0.0066434811 0
-0.0097790817 -0.0045527192 -0.010112765 0
-0.011277405 -0.0043308409 -0.008316135 0
-0.011350508 -0.0046312232 0.0082197981 0
-0.0098110801 -0.0044409954 0.010066397 0
-0.0067077084 -0.0044580125 -0.012368964 0
-0.0081522102 -0.0043268306 -0.011401755 0
-0.0081222588 -0.0044643143 0.011424511 0
-0.0064995033 -0.00441731 0.012461487 0
-0.0042665615 -0.0044942056 -0.013409108 0
-0.0044715721 -0.0045146658 0.01333736 0
-0.0014043397 -0.004465472 -0.013948162 0
-0.0015555708 -0.0044313883 0.013931845 0
0.0017335485 -0.0045060571 -0.013912574 0
0.0016802241 -0.0047046477 0.013918372 0
0.0042315186 -0.0043729134 -0.013436844 0
0.004523972 -0.0045232233 0.013308129 0
0.0066376398 -0.0045682206 -0.012398381 0
0.0083898306 -0.0045986827 -0.011221491 0
0.0080424687 -0.0042236941 0.011485036 0
0.0067934506 -0.0043959012 0.012330097 0
0.0099490844 -0.0044775 -0.0099375192 0
0.011333155 -0.0043853358 -0.0082426444 0
0.011278755 -0.004752405 0.008314386 0
0.010123197 -0.0045823758 0.009762153 0
0.012359976 -0.0041623996 -0.006705564 0
0.013282372 -0.0045030946 -0.0045985244 0
0.013923193 -0.0047081513 -0.0016354132 0
0.013953071 -0.0042905207 0.0013591113 0
0.013368727 -0.004436784 0.0043970011 0
0.012316814 -0.0045918459 0.0068058926 0
-0.012374694 -0.0015606747 -0.0066909469 0
-0.013290537 -0.0016835744 -0.0045820167 0
-0.013906366 -0.0015483266 -0.0017911042 0
-0.013907116 -0.0013256003 0.0017842039 0
-0.013291821 -0.0016188846 0.0045745904 0
-0.012337406 -0.0017682971 0.0067371791 0
-0.0098726582 -0.0014985629 -0.010027434 0
-0.011358037 -0.0014605729 -0.0082098544 0
-0.011333295 -0.0015579526 0.0082424767 0
-0.0098912064 -0.0011880246 0.0099858688 0
-0.0066153593 -0.0014555334 -0.01240829 0
-0.0082034105 -0.0013857468 -0.011362923 0
-0.0082187839 -0.0017683496 0.011351273 0
-0.0066279843 -0.0015526727 0.012398447 0
