# .PCD v0.7 - Point Cloud Data file format
VERSION 0.7
FIELDS x y z rgb
SIZE 4 4 4 4
TYPE F F F F
COUNT 1 1 1 1
WIDTH 1220
HEIGHT 1
VIEWPOINT 0 0 0 1 0 0 0
POINTS 1220
DATA ascii
0.01344601 -0.24000004 -0.0076175788 0
0.013355192 -0.24000002 -0.0041693687 0
0.014221576 -0.24000001 -0.0014936179 0
0.013069418 -0.24000001 0.0014504715 0
0.013464165 -0.23999999 0.00441847 0
0.013412122 -0.23999998 0.0080257831 0
0.014071275 -0.23999999 0.0095909759 0
0.015399274 -0.24000004 -0.0095738694 0
0.016412729 -0.24000004 -0.0071549602 0
0.016139463 -0.24000002 -0.0049918741 0
0.016810555 -0.24000001 -0.0011679289 0
0.01590245 -0.24000001 0.0017695172 0
0.015721105 -0.23999999 0.0048458413 0
0.015803235 -0.23999999 0.0075801616 0
0.016178602 -0.23999998 0.0094760042 0
0.019134695 -0.24000004 -0.0096053956 0
0.019720862 -0.24000004 -0.0075761755 0
0.019928953 -0.24000004 -0.0044458751 0
0.019740406 -0.24000001 -0.001805115 0
0.020221028 -0.24000001 0.0013313482 0
0.019824963 -0.23999999 0.0047619389 0
0.019845294 -0.23999998 0.0070394501 0
0.020496989 -0.23999998 0.009921643 0
0.022615753 -0.24000004 -0.0093561281 0
0.022569893 -0.24000004 -0.0077165556 0
0.022537006 -0.24000002 -0.0040495573 0
0.022020373 -0.24000002 -0.0012402042 0
0.022244534 -0.24000001 0.001498544 0
0.022476185 -0.23999999 0.0045835264 0
0.022034599 -0.23999998 0.0078698574 0
0.022345018 -0.23999998 0.0093309097 0
0.025793931 -0.24000004 -0.0095544234 0
0.025611516 -0.24000004 -0.0075825001 0
0.025689553 -0.24000002 -0.0045370627 0
0.02549017 -0.24000001 -0.0015585122 0
0.025433633 -0.24000002 0.0011168292 0
0.025183391 -0.24000001 0.0044475067 0
0.025230205 -0.23999998 0.0069799572 0
0.025690487 -0.23999998 0.0095931906 0
0.028486457 -0.24000004 -0.0096005574 0
0.028748995 -0.24000004 -0.0073947418 0
0.028424148 -0.24000002 -0.0048685041 0
0.02861828 -0.24000002 -0.0015488031 0
0.028445179 -0.24000001 0.0012863178 0
0.028676299 -0.24000001 0.0041550952 0
0.028715365 -0.23999998 0.0075852061 0
0.028350092 -0.23999998 0.0096311849 0
0.030433765 -0.24000004 -0.0096980035 0
0.031322792 -0.24000005 -0.0070436704 0
0.030751351 -0.24000002 -0.0050726202 0
0.031329118 -0.24000001 -0.0010895639 0
0.031864591 -0.24000001 0.00091892079 0
0.03146515 -0.24000001 0.0042348187 0
0.031422082 -0.23999998 0.0070707826 0
0.033427708 -0.24000004 -0.0093332296 0
0.034520704 -0.24000004 -0.0076402761 0
0.034617975 -0.24000002 -0.0044265841 0
0.034559794 -0.24000001 -0.0017981294 0
0.034101259 -0.24000002 0.0013767894 0
0.034602281 -0.23999999 0.004386628 0
0.034299616 -0.23999998 0.0075479243 0
0.034583125 -0.23999998 0.0094637554 0
0.037476908 -0.24000004 -0.009700058 0
0.037409741 -0.24000005 -0.0074629588 0
0.037713461 -0.24000002 -0.0044739353 0
0.037457526 -0.24000002 -0.0016025167 0
0.037284307 -0.24000002 0.0014201857 0
0.036871646 -0.23999999 0.0046477313 0
0.038153704 -0.23999998 0.0072221546 0
0.037156768 -0.23999998 0.0098472051 0
0.040941168 -0.24000004 -0.0092067309 0
0.040881947 -0.24000004 -0.0078758746 0
0.040291332 -0.24000002 -0.0042453068 0
0.040575624 -0.24000002 -0.0017596149 0
0.040371843 -0.24000001 0.0016647885 0
0.040343717 -0.23999999 0.0047132582 0
0.041012075 -0.23999998 0.0072211982 0
0.044407219 -0.2400001 -0.025596779 0
0.043966193 -0.2400001 -0.023025127 0
0.044772398 -0.24000008 -0.019466395 0
0.044218957 -0.24000007 -0.016880089 0
0.04465143 -0.24000005 -0.013281974 0
0.043466724 -0.24000004 -0.0095763914 0
0.04408332 -0.24000004 -0.0069862138 0
0.04408076 -0.24000002 -0.004220156 0
0.043374456 -0.24000001 -0.0018629654 0
0.043840911 -0.24000001 0.0014055205 0
0.043936972 -0.23999999 0.0043587941 0
0.044032216 -0.23999998 0.0082451981 0
0.04472087 -0.23999996 0.011278345 0
0.044458594 -0.23999996 0.013659183 0
0.044009488 -0.23999995 0.016721314 0
0.044534117 -0.23999994 0.019149801 0
0.044378947 -0.23999992 0.02292466 0
0.044096906 -0.23999992 0.026103815 0
0.04416614 -0.23999991 0.028586458 0
0.04722641 -0.24000011 -0.028093714 0
0.046168257 -0.2400001 -0.025443597 0
0.046626516 -0.24000008 -0.022310797 0
0.046865247 -0.24000008 -0.0193335 0
0.046626478 -0.24000007 -0.016362133 0
0.046650801 -0.24000005 -0.013520437 0
0.046723384 -0.24000004 -0.01012563 0
0.046550479 -0.24000005 -0.0075293276 0
0.047024027 -0.24000004 -0.0048868763 0
0.045938969 -0.24000001 -0.0012611207 0
0.046552289 -0.24000001 0.0018296789 0
0.046582889 -0.23999999 0.0043962011 0
0.046939462 -0.23999999 0.0079639638 0
0.046255279 -0.23999999 0.010270996 0
0.046305217 -0.23999996 0.013806418 0
0.045954566 -0.23999996 0.015810912 0
0.046518318 -0.23999994 0.018997494 0
0.046938065 -0.23999994 0.022616699 0
0.046625577 -0.23999992 0.024732322 0
0.046746664 -0.23999991 0.028496869 0
0.049656186 -0.24000013 -0.02872991 0
0.049510874 -0.24000011 -0.025717588 0
0.049258359 -0.2400001 -0.022866495 0
0.049462229 -0.24000008 -0.019521363 0
0.049628671 -0.24000008 -0.016804107 0
0.049517665 -0.24000005 -0.013212898 0
0.049456879 -0.24000004 -0.010102436 0
0.049457945 -0.24000005 -0.0077119055 0
0.049374271 -0.24000002 -0.004108795 0
0.049740981 -0.24000002 -0.0013207131 0
0.049779031 -0.24000001 0.0010618902 0
0.049248822 -0.23999999 0.0044937632 0
0.049193066 -0.23999998 0.0077366401 0
0.049882393 -0.23999996 0.010519038 0
0.049248565 -0.23999998 0.012944838 0
0.048897468 -0.23999995 0.016455824 0
0.049369723 -0.23999994 0.019469669 0
0.049530271 -0.23999994 0.022561697 0
0.04943857 -0.23999994 0.025273703 0
0.049619865 -0.23999991 0.028622136 0
0.052176442 -0.24000011 -0.027834876 0
0.052533854 -0.2400001 -0.025048919 0
0.051951069 -0.24000008 -0.022206951 0
0.053421836 -0.24000008 -0.01985929 0
0.052579734 -0.24000007 -0.016766975 0
0.052205496 -0.24000007 -0.013537797 0
0.052510954 -0.24000004 -0.010206981 0
0.052545369 -0.24000004 -0.0077779288 0
0.052031361 -0.24000002 -0.0044859801 0
0.052431416 -0.24000001 -0.0018669998 0
0.052907202 -0.24000001 0.0014861871 0
0.052456453 -0.23999999 0.004484463 0
0.05231075 -0.23999998 0.0070408322 0
0.052554455 -0.23999998 0.010599444 0
0.052094441 -0.23999996 0.013877533 0
0.052305669 -0.23999995 0.016752539 0
0.052977234 -0.23999994 0.019284559 0
0.052583743 -0.23999995 0.022216205 0
0.052329376 -0.23999992 0.025079995 0
0.052506547 -0.23999991 0.027629767 0
0.055303182 -0.24000013 -0.027887866 0
0.055049721 -0.2400001 -0.02580414 0
0.055649001 -0.24000008 -0.022622732 0
0.054998834 -0.24000008 -0.018697087 0
0.05478359 -0.24000007 -0.016414383 0
0.055553079 -0.24000007 -0.013355874 0
0.055766188 -0.24000005 -0.0098327175 0
0.0555613 -0.24000005 -0.0073245396 0
0.055299148 -0.24000002 -0.0045279078 0
0.055673338 -0.24000002 -0.0017899335 0
0.055776045 -0.24000001 0.002011243 0
0.055216063 -0.23999999 0.0048979931 0
0.056305286 -0.23999998 0.0071018618 0
0.055399451 -0.23999996 0.010334279 0
0.055187941 -0.23999996 0.013453321 0
0.055849805 -0.23999994 0.016526423 0
0.054996055 -0.23999995 0.019464321 0
0.055210814 -0.23999992 0.022933029 0
0.055578046 -0.23999992 0.025479894 0
0.055265285 -0.23999991 0.02862619 0
0.058633238 -0.24000011 -0.02881713 0
0.058737852 -0.2400001 -0.024719385 0
0.058668982 -0.2400001 -0.023434479 0
0.05796795 -0.24000008 -0.019756902 0
0.058406364 -0.24000007 -0.016442552 0
0.058523662 -0.24000007 -0.013539883 0
0.058238443 -0.24000005 -0.010968186 0
0.058923077 -0.24000004 -0.007902178 0
0.058447909 -0.24000002 -0.0044643031 0
0.058360364 -0.24000001 -0.0018762895 0
0.058084697 -0.23999999 0.002073955 0
0.057577766 -0.24000001 0.0044970498 0
0.058209818 -0.23999998 0.0074786092 0
0.058188174 -0.23999996 0.01102159 0
0.057989061 -0.23999996 0.013515637 0
0.058179431 -0.23999995 0.015973678 0
0.058813527 -0.23999994 0.019322095 0
0.058617733 -0.23999994 0.022623047 0
0.058606416 -0.23999992 0.024862446 0
0.05882556 -0.23999991 0.028731078 0
-0.0096671842 -0.23839277 -0.0097725661 0
-0.0098782759 -0.23884493 -0.0077044605 0
-0.0099195894 -0.23873769 -0.0044598598 0
-0.0098538846 -0.2389022 -0.001457162 0
-0.009957632 -0.23872387 0.0017990427 0
-0.0099821342 -0.23847869 0.0044155791 0
-0.0099727884 -0.23866038 0.0076755248 0
-0.0096019804 -0.23877016 0.0098356316 0
-0.0076448079 -0.2388341 -0.0098987212 0
-0.0074061146 -0.23999996 -0.0078647416 0
-0.0075874235 -0.23999992 -0.0047686859 0
-0.0074152597 -0.23999998 -0.0016941564 0
-0.0076134931 -0.23999994 0.0017470228 0
-0.0074619534 -0.23999988 0.0044664894 0
-0.0073894635 -0.23999989 0.0071548922 0
-0.0071917386 -0.23904669 0.0099157663 0
-0.0046324092 -0.23866867 -0.0099153351 0
-0.0044282065 -0.23999994 -0.007530659 0
-0.0045930422 -0.23999992 -0.0045857993 0
-0.0043452312 -0.23999994 -0.0016474117 0
-0.004421344 -0.23999992 0.0016104116 0
-0.004390588 -0.23999989 0.0044834134 0
-0.004458562 -0.23999991 0.007612505 0
-0.0047144159 -0.23930265 0.0097694127 0
-0.0014784223 -0.2389465 -0.0098985489 0
-0.0013737476 -0.23999998 -0.0077478276 0
-0.0012042981 -0.23999999 -0.0045161978 0
-0.0014141892 -0.23999998 -0.0016395828 0
-0.0017300115 -0.23999998 0.0013755413 0
-0.0014626895 -0.23999991 0.0044942722 0
-0.0012308765 -0.23999994 0.0073892223 0
-0.001449783 -0.23891759 0.0098489001 0
0.0016284197 -0.23895667 -0.0099110659 0
0.0015667561 -0.23999994 -0.0074997582 0
0.0017556113 -0.23999992 -0.004775187 0
0.0014510188 -0.23999994 -0.0016291642 0
0.0014155305 -0.23999994 0.0014645284 0
0.0016417329 -0.23999999 0.0044272081 0
0.0015710124 -0.23999994 0.0074899485 0
0.0015277426 -0.23903915 0.0098566851 0
0.0047715842 -0.23901331 -0.0099104438 0
0.0044981348 -0.23999996 -0.0074015507 0
0.0047090128 -0.24000001 -0.0047294572 0
0.0045067407 -0.23999991 -0.0014418077 0
0.0039562834 -0.23999998 0.0016421359 0
0.0047523291 -0.23999989 0.0046232683 0
0.0046815481 -0.23999998 0.0074421447 0
0.0043708794 -0.23849501 0.009926145 0
0.0076561095 -0.23879817 -0.0098534822 0
0.0075959899 -0.23999995 -0.0072713005 0
0.0076601976 -0.23999992 -0.0044996724 0
0.0073627695 -0.23999992 -0.0015309146 0
0.0079026651 -0.23999996 0.0015635284 0
0.0080133127 -0.23999992 0.0043729302 0
0.0075638089 -0.23999989 0.0070793941 0
0.0074132411 -0.23887026 0.0098947436 0
0.010361972 -0.23881596 -0.0098878564 0
0.010186181 -0.23999996 -0.0077912477 0
0.010542076 -0.23999996 -0.0043205963 0
0.010247008 -0.23999999 -0.0015487436 0
0.010004845 -0.23999999 0.0015398054 0
0.010929273 -0.23999996 0.0045951167 0
0.010534752 -0.23999996 0.0079440325 0
0.010782639 -0.23873352 0.0098608462 0
0.013447294 -0.2387349 -0.0097891483 0
0.013594357 -0.23999995 -0.0075850734 0
0.013399011 -0.23999998 -0.0042129918 0
0.013363319 -0.23999992 -0.0015247856 0
0.013438009 -0.23999992 0.0014822356 0
0.013557784 -0.23999996 0.0045944555 0
0.013559438 -0.23999992 0.0074077393 0
0.013629069 -0.23876531 0.009873176 0
0.016292144 -0.23883311 -0.0098571507 0
0.016589012 -0.23999994 -0.007474639 0
0.016247362 -0.23999999 -0.0047943965 0
0.016535344 -0.23999996 -0.0014618745 0
0.016566714 -0.23999991 0.0012389257 0
0.01648956 -0.23999991 0.0045464742 0
0.016369339 -0.23999986 0.0077242642 0
0.016435042 -0.23883359 0.0098710889 0
0.019676579 -0.23872545 -0.0099184867 0
0.019650975 -0.23999994 -0.0071619488 0
0.019349933 -0.23999994 -0.0044720941 0
0.019318782 -0.23999994 -0.0015035685 0
0.019505506 -0.23999994 0.0016557138 0
0.01936985 -0.23999998 0.0045120558 0
0.019194275 -0.23999995 0.0073499987 0
0.019316608 -0.23888648 0.0099263648 0
0.022344142 -0.23849106 -0.0099570276 0
0.022504507 -0.23999999 -0.0072951047 0
0.022877559 -0.23999996 -0.0046021496 0
0.022608444 -0.23999992 -0.0014191302 0
0.022318833 -0.23999992 0.0012818924 0
0.022275249 -0.23999996 0.0047845193 0
0.022381183 -0.23999998 0.0073235407 0
0.022634992 -0.2389137 0.0098483972 0
0.025676789 -0.23889536 -0.009989134 0
0.025502758 -0.23999995 -0.0074059824 0
0.025757618 -0.23999994 -0.0040941276 0
0.025322987 -0.23999999 -0.0015287338 0
0.02544748 -0.24000001 0.0014321962 0
0.025495546 -0.23999991 0.0045793438 0
0.025271364 -0.23999989 0.0075052045 0
0.025523871 -0.23864511 0.0099262185 0
0.028372727 -0.238552 -0.0099580288 0
0.028616682 -0.24000002 -0.0073726326 0
0.028580228 -0.23999996 -0.0043980749 0
0.028596725 -0.23999996 -0.0014072933 0
0.028532419 -0.23999998 0.0014159429 0
0.028689565 -0.23999996 0.0046445704 0
0.028768152 -0.23999996 0.0076402081 0
0.028520554 -0.23861274 0.0098941447 0
0.0316571 -0.23873802 -0.0098890141 0
0.031300738 -0.23999996 -0.0076186685 0
0.031510033 -0.23999996 -0.0048077037 0
0.031495672 -0.23999995 -0.0011435819 0
0.031303179 -0.23999999 0.0013282958 0
0.031677205 -0.23999991 0.0045180023 0
0.031659558 -0.23999989 0.0073784986 0
0.031251024 -0.23900579 0.0098846843 0
0.034450755 -0.23877867 -0.0098933931 0
0.034292195 -0.23999994 -0.0074403537 0
0.034897767 -0.23999994 -0.0044196965 0
0.034367371 -0.23999996 -0.0016559622 0
0.034503996 -0.24000001 0.0016225204 0
0.034509197 -0.23999988 0.0044054035 0
0.034564361 -0.23999995 0.0076672081 0
0.034195181 -0.23907076 0.0098874941 0
0.037382063 -0.23864257 -0.0098885177 0
0.037737377 -0.23999999 -0.0072147381 0
0.037454013 -0.24000001 -0.004697877 0
0.037646186 -0.23999998 -0.0016694959 0
0.037517134 -0.23999996 0.0012401793 0
0.037858095 -0.23999994 0.0047045168 0
0.037386626 -0.23999986 0.007320384 0
0.03750268 -0.2386198 0.0099411029 0
0.040902507 -0.2389963 -0.0099045299 0
0.040450219 -0.23999991 -0.0075381985 0
0.040594716 -0.23999994 -0.0046077212 0
0.040525865 -0.23999992 -0.0014963271 0
0.040441561 -0.23999992 0.001365613 0
0.040641826 -0.23999989 0.0043612267 0
0.040371049 -0.23999988 0.0076260152 0
0.040605646 -0.23918566 0.0098550282 0
0.044005208 -0.23702314 -0.029998982 0
0.043757819 -0.23888268 -0.028694052 0
0.043649573 -0.23912248 -0.025588766 0
0.043599792 -0.23884028 -0.0223972 0
0.04370987 -0.23891519 -0.019536877 0
0.043654766 -0.23897181 -0.016730571 0
0.043605611 -0.23893543 -0.013473377 0
0.043327052 -0.23894611 -0.010450372 0
0.04377244 -0.23999995 -0.0073971809 0
0.043486387 -0.23999996 -0.0046663019 0
0.043433268 -0.23999989 -0.0015584226 0
0.043316495 -0.23999998 0.0013291785 0
0.043484654 -0.23999994 0.0045895549 0
0.04344565 -0.23999985 0.0073677865 0
0.043327309 -0.23918808 0.010399759 0
0.043471422 -0.23886441 0.013447793 0
0.043607388 -0.23895271 0.016459949 0
0.043681476 -0.23915347 0.019486018 0
0.043628022 -0.23898922 0.022355795 0
0.043599054 -0.23919308 0.025526585 0
0.043711666 -0.23921445 0.028514817 0
0.044437315 -0.2388127 0.030001024 0
0.046568528 -0.2380375 -0.029998969 0
0.046548426 -0.23924942 -0.029302157 0
0.046451952 -0.24000007 -0.025343716 0
0.046118475 -0.24000005 -0.0226414 0
0.046080213 -0.24000002 -0.0193897 0
0.046140984 -0.24000001 -0.016496716 0
0.04692461 -0.23999999 -0.013483699 0
0.046527032 -0.23999996 -0.01074184 0
0.046576392 -0.24000002 -0.0074386322 0
0.046307057 -0.23999994 -0.004754182 0
0.046647362 -0.23999992 -0.0013866745 0
0.046616521 -0.23999994 0.0015728336 0
0.04673053 -0.23999991 0.0045186612 0
0.046528939 -0.23999989 0.0077427784 0
0.046400201 -0.23999992 0.010220399 0
0.046704769 -0.23999994 0.013763748 0
0.046428144 -0.23999986 0.01646262 0
0.046733066 -0.23999986 0.019609828 0
0.046340931 -0.23999985 0.022497846 0
0.046705402 -0.23999986 0.025142884 0
0.046623539 -0.23972327 0.028984765 0
0.046215411 -0.23860987 0.03000102 0
0.049236048 -0.23842679 -0.02999896 0
0.049497016 -0.23937203 -0.029029682 0
0.049210824 -0.24000002 -0.025209958 0
0.049409855 -0.24000005 -0.022484694 0
0.049561206 -0.24000005 -0.019205522 0
0.04950656 -0.24000001 -0.016249733 0
0.04942691 -0.23999996 -0.013449807 0
0.049846567 -0.23999998 -0.010190375 0
0.049375795 -0.23999998 -0.0072837095 0
0.049721234 -0.23999995 -0.0043907729 0
0.049801514 -0.23999992 -0.0016323647 0
0.049568187 -0.23999995 0.0016655097 0
0.049421772 -0.23999989 0.0044170474 0
0.049128812 -0.23999989 0.0073222341 0
0.049549449 -0.23999985 0.010395454 0
0.049633373 -0.23999994 0.013421456 0
0.049305495 -0.23999986 0.016663505 0
0.049318139 -0.23999992 0.019368103 0
0.049633853 -0.23999992 0.022235854 0
0.049568594 -0.23999983 0.025299037 0
0.049509302 -0.2396211 0.028726041 0
0.049240995 -0.23837724 0.030001031 0
0.052483536 -0.23890771 -0.029998947 0
0.052703556 -0.23924534 -0.029326849 0
0.052472521 -0.24000001 -0.025333872 0
0.052672427 -0.24000001 -0.022529365 0
0.052360527 -0.24000007 -0.019914605 0
0.05260266 -0.24000005 -0.01648014 0
0.052529931 -0.23999999 -0.013292805 0
0.052551433 -0.23999996 -0.01055198 0
0.052191459 -0.23999992 -0.0073751179 0
0.052421529 -0.23999995 -0.0047483575 0
0.052552011 -0.23999998 -0.0015609594 0
0.052324232 -0.23999992 0.0018200167 0
0.052547053 -0.23999994 0.0046532769 0
0.052995324 -0.23999991 0.0074603027 0
0.052563675 -0.23999988 0.010451943 0
0.052548751 -0.23999989 0.013246552 0
0.05236949 -0.23999989 0.016359998 0
0.052399486 -0.23999988 0.019429337 0
0.05237988 -0.23999986 0.022458799 0
0.052100804 -0.23999992 0.025511039 0
0.052767497 -0.23952858 0.0289458 0
0.052570816 -0.23826535 0.030001046 0
0.055446584 -0.2383706 -0.029998938 0
0.05563277 -0.23916623 -0.029336866 0
0.055682864 -0.24000007 -0.025605593 0
0.055120464 -0.24000008 -0.022219663 0
0.055356268 -0.23999999 -0.019356249 0
0.055675216 -0.23999998 -0.016500108 0
0.055618834 -0.23999999 -0.013567745 0
0.055669595 -0.23999999 -0.010359615 0
0.05558265 -0.24000001 -0.0074679274 0
0.055634029 -0.23999996 -0.0044218474 0
0.055819914 -0.23999992 -0.0016059914 0
0.055423498 -0.23999994 0.0016279323 0
0.055647485 -0.23999992 0.0044616819 0
0.055619735 -0.23999994 0.0079374928 0
0.055655308 -0.23999991 0.010489121 0
0.055646833 -0.23999989 0.013477398 0
0.055697858 -0.23999989 0.016435051 0
0.055523429 -0.23999986 0.019595005 0
0.055381674 -0.23999991 0.022464937 0
0.055321284 -0.23999985 0.025580969 0
0.055496823 -0.23961295 0.028869871 0
0.055216547 -0.23875658 0.030001055 0
0.058208603 -0.23808326 -0.029998928 0
0.058641169 -0.23904498 -0.029112326 0
0.058485638 -0.23985215 -0.025292501 0
0.058486324 -0.23966072 -0.022645066 0
0.059040826 -0.23951368 -0.019388504 0
0.058463506 -0.23986994 -0.016705358 0
0.05910546 -0.23974238 -0.013612155 0
0.058714114 -0.23986 -0.010431514 0
0.058808152 -0.23956311 -0.0072869114 0
0.058767788 -0.239858 -0.0045753447 0
0.059087053 -0.23942481 -0.0016092554 0
0.058830798 -0.23968188 0.0014632993 0
0.059124954 -0.23916677 0.0047088289 0
0.05882296 -0.2395568 0.0073943986 0
0.059156917 -0.23954065 0.01050462 0
0.059041258 -0.23919927 0.013562776 0
0.058814809 -0.23955289 0.016642068 0
0.058845509 -0.2393977 0.019534262 0
0.058678355 -0.2396407 0.022627108 0
0.058722984 -0.2398245 0.025472032 0
0.058635592 -0.23957685 0.028742783 0
0.058258194 -0.23856288 0.030001068 0
0.060000081 -0.23861362 -0.028681077 0
0.060000069 -0.23854347 -0.025336083 0
0.060000066 -0.23883408 -0.022438644 0
0.060000069 -0.23843621 -0.019340204 0
0.060000055 -0.23855409 -0.016693242 0
0.060000036 -0.23844065 -0.013504821 0
0.060000028 -0.23901121 -0.010465964 0
0.060000036 -0.23807278 -0.0077919392 0
0.059999999 -0.23851435 -0.004609318 0
0.060000002 -0.23811068 -0.0011057229 0
0.059999995 -0.23857272 0.0014064512 0
0.059999965 -0.23850602 0.0043891505 0
0.059999965 -0.23861744 0.0074150916 0
0.059999958 -0.23878422 0.0106791 0
0.059999935 -0.23847565 0.013529365 0
0.059999928 -0.23821902 0.016414726 0
0.059999909 -0.23839281 0.019253191 0
0.059999891 -0.2384845 0.022419835 0
0.059999876 -0.23881273 0.025466008 0
0.059999868 -0.23863517 0.028632093 0
-0.0096670305 -0.23589513 -0.009780935 0
-0.0099999746 -0.23580058 -0.0073317694 0
-0.0099999821 -0.23537867 -0.0047433963 0
-0.0099999923 -0.23558426 -0.0012638539 0
-0.010000004 -0.23545358 0.0013953482 0
-0.010000013 -0.23559454 0.0044365139 0
-0.010000029 -0.23540343 0.0077122501 0
-0.0096244048 -0.2354165 0.0098190075 0
-0.0073600155 -0.23541768 -0.0099991728 0
-0.0075099962 -0.23561743 0.010000827 0
-0.0047479453 -0.23574224 -0.0099991625 0
-0.0046063056 -0.23567474 0.010000837 0
-0.0014625203 -0.2354454 -0.0099991523 0
-0.0015283499 -0.23536323 0.010000844 0
0.0014912512 -0.23540719 -0.009999143 0
0.0012966549 -0.23580205 0.010000858 0
0.0046020597 -0.23548019 -0.0099991327 0
0.0042565223 -0.23548432 0.010000865 0
0.0076799802 -0.23554796 -0.0099991187 0
0.0074808197 -0.2354525 0.010000878 0
0.010150092 -0.23553248 -0.0099991122 0
0.010552436 -0.23525622 0.010000889 0
0.013531084 -0.23552518 -0.0099990973 0
0.013458972 -0.23558742 0.010000899 0
0.016412707 -0.23528691 -0.0099990889 0
0.016968129 -0.2354489 0.010000913 0
0.019067438 -0.23522407 -0.0099990787 0
0.019642614 -0.23543818 0.010000923 0
0.022539238 -0.23550542 -0.0099990657 0
0.02261148 -0.23587017 0.010000936 0
0.025212085 -0.23556246 -0.0099990554 0
0.025396202 -0.2356839 0.010000945 0
0.028552126 -0.23530178 -0.0099990433 0
0.028338267 -0.23539504 0.010000955 0
0.031297673 -0.2351909 -0.0099990359 0
0.031421028 -0.2353029 0.010000965 0
0.034374896 -0.23557799 -0.009999021 0
0.034566838 -0.23546025 0.010000974 0
0.037325915 -0.2353874 -0.0099990135 0
0.037528601 -0.23567268 0.010000988 0
0.040857289 -0.23581973 -0.0099989967 0
0.040835679 -0.23537196 0.010000999 0
0.044243913 -0.2354036 -0.02999899 0
0.043685302 -0.23550463 -0.028862357 0
0.043400101 -0.23558038 -0.02538798 0
0.043400086 -0.23585926 -0.022349173 0
0.043400075 -0.23539367 -0.019771783 0
0.043400068 -0.23557419 -0.016538616 0
0.04340006 -0.2353536 -0.013388515 0
0.043056473 -0.23538607 -0.010673203 0
0.043124918 -0.23559251 0.010715949 0
0.04339996 -0.23551279 0.013510384 0
0.043399952 -0.23558982 0.016602648 0
0.04339993 -0.23571099 0.019576214 0
0.043399919 -0.23556544 0.022602588 0
0.043399923 -0.23550509 0.025432104 0
0.043442171 -0.23536411 0.028556226 0
0.04411893 -0.23579231 0.030001013 0
0.046520472 -0.23560525 -0.02999898 0
0.046529986 -0.2354276 -0.029998973 0
0.046049766 -0.23496658 0.030001014 0
0.046632383 -0.23548968 0.030001013 0
0.049319558 -0.23523593 -0.029998971 0
0.049752966 -0.23557703 -0.029998966 0
0.049616396 -0.23584017 0.030001029 0
0.049435463 -0.23538695 0.030001022 0
0.052574836 -0.23558368 -0.029998958 0
0.052442309 -0.23555981 -0.029998954 0
0.052832693 -0.23602499 0.030001046 0
0.052372981 -0.23523673 0.030001039 0
0.055343825 -0.23535547 -0.029998949 0
0.0553733 -0.23524967 -0.029998939 0
0.055874292 -0.23559056 0.030001054 0
0.05552347 -0.23589663 0.030001044 0
0.058415908 -0.23526475 -0.029998938 0
0.058940444 -0.23576941 -0.02958128 0
0.060000088 -0.23545758 -0.024975488 0
0.060000077 -0.23546985 -0.02218866 0
0.060000073 -0.23533536 -0.019923583 0
0.060000058 -0.23590878 -0.016447762 0
0.060000047 -0.23557596 -0.013367879 0
0.06000004 -0.23558624 -0.0099767223 0
0.060000025 -0.23497003 -0.0072666695 0
0.06000001 -0.23604763 -0.004483304 0
0.060000002 -0.23536842 -0.0010057784 0
0.059999991 -0.23571336 0.0017408124 0
0.059999976 -0.23581009 0.0047913268 0
0.059999965 -0.23572077 0.0081743551 0
0.059999961 -0.23531109 0.010586365 0
0.05999995 -0.23589694 0.013135807 0
0.059999943 -0.23542055 0.015991975 0
0.059999924 -0.23545209 0.020000933 0
0.05999992 -0.23550329 0.022336371 0
0.059999906 -0.23544928 0.02535188 0
0.05895913 -0.23599349 0.029465191 0
0.058266524 -0.23557329 0.030001055 0
0.060000096 -0.2352913 -0.028473578 0
0.060000081 -0.23560685 -0.025760017 0
0.060000077 -0.23523007 -0.022278553 0
0.060000058 -0.23552276 -0.019492948 0
0.060000043 -0.23550165 -0.016441004 0
0.060000036 -0.2356991 -0.013335221 0
0.060000025 -0.23558335 -0.01037192 0
0.060000014 -0.23590644 -0.0073308903 0
0.060000002 -0.23523976 -0.0042747422 0
0.060000006 -0.23537514 -0.0014693798 0
0.059999976 -0.23578456 0.001611018 0
0.059999965 -0.23552327 0.0044293622 0
0.059999947 -0.23538257 0.0074765692 0
0.059999958 -0.2354795 0.010438956 0
0.059999947 -0.23567392 0.013455531 0
0.05999992 -0.23548557 0.016541667 0
0.059999935 -0.23539442 0.019849632 0
0.059999894 -0.23558258 0.022489678 0
0.059999887 -0.23554562 0.025533605 0
0.059999883 -0.23564847 0.028400231 0
-0.0098287584 -0.23231015 -0.0095457565 0
-0.0099999737 -0.23247012 -0.0073932349 0
-0.009999983 -0.2328146 -0.0044948924 0
-0.0099999933 -0.23280264 -0.001235875 0
-0.010000002 -0.23230267 0.0013467947 0
-0.010000017 -0.23222166 0.0044345264 0
-0.010000026 -0.23272836 0.007437848 0
-0.0096741635 -0.23245157 0.0098781781 0
-0.0076832795 -0.2324547 -0.0099991839 0
-0.0071438961 -0.23238744 0.010000816 0
-0.0048332843 -0.23246236 -0.0099991765 0
-0.0045773601 -0.23285538 0.010000828 0
-0.001642116 -0.23222354 -0.0099991653 0
-0.0013388782 -0.2326526 0.010000834 0
0.0014399297 -0.23250642 -0.0099991513 0
0.0016121342 -0.23233123 0.010000848 0
0.0047104834 -0.23264138 -0.0099991402 0
0.0045434176 -0.23254222 0.010000858 0
0.0074983886 -0.23233412 -0.0099991318 0
0.0075036366 -0.23246241 0.010000871 0
0.010120436 -0.232345 -0.0099991215 0
0.010446851 -0.23266311 0.010000882 0
0.013543885 -0.23208654 -0.0099991113 0
0.013507197 -0.23242319 0.010000889 0
0.016469041 -0.2321751 -0.0099991011 0
0.016633824 -0.23264141 0.010000899 0
0.019517278 -0.23262797 -0.0099990852 0
0.019358229 -0.23236491 0.010000908 0
0.022577167 -0.23241232 -0.0099990778 0
0.022406202 -0.23224254 0.01000092 0
0.025694054 -0.23236525 -0.0099990629 0
0.025532587 -0.23238456 0.01000093 0
0.028493917 -0.23283032 -0.0099990536 0
0.028622342 -0.2326487 0.010000943 0
0.031531885 -0.2325165 -0.0099990414 0
0.031489603 -0.23220989 0.010000954 0
0.034834146 -0.23245905 -0.0099990321 0
0.03476622 -0.23272999 0.010000968 0
0.037505049 -0.23240565 -0.00999902 0
0.037579954 -0.23236255 0.010000976 0
0.040422205 -0.23255832 -0.0099990107 0
0.040668551 -0.23233448 0.010000987 0
0.044328697 -0.23259111 -0.029998999 0
0.043575842 -0.23237891 -0.028864857 0
0.043400098 -0.23267186 -0.025476607 0
0.043400086 -0.23222882 -0.022680826 0
0.043400086 -0.23231035 -0.01940994 0
0.043400053 -0.23272879 -0.016727766 0
0.043400045 -0.23254828 -0.013597643 0
0.043127064 -0.23232892 -0.010632544 0
0.043181788 -0.23251116 0.01087484 0
0.043399964 -0.23261605 0.013287037 0
0.043399949 -0.23251776 0.016224939 0
0.043399945 -0.23242858 0.019615088 0
0.043399934 -0.23259665 0.022474105 0
0.043399919 -0.23239106 0.025491342 0
0.043455429 -0.23221295 0.028639656 0
0.044265069 -0.23238403 0.030001001 0
0.046298414 -0.2326048 -0.029998992 0
0.046614692 -0.2323062 -0.029998984 0
0.045843177 -0.23289444 0.030001009 0
0.046436504 -0.23270826 0.030001005 0
0.049418662 -0.23247056 -0.02999898 0
0.049288191 -0.23251796 -0.029998977 0
0.049611341 -0.2328565 0.030001022 0
0.049690224 -0.23240671 0.030001013 0
0.052930214 -0.23225518 -0.029998969 0
0.052438661 -0.2326705 -0.029998958 0
0.052471679 -0.23296273 0.030001033 0
0.052369919 -0.2325705 0.030001022 0
0.055515252 -0.23288466 -0.029998958 0
0.05588387 -0.23264179 -0.029998951 0
0.055685621 -0.23212166 0.030001039 0
0.055469345 -0.23226422 0.030001028 0
0.058198858 -0.23289077 -0.029998947 0
0.058546066 -0.23234504 -0.029871274 0
0.060000088 -0.23342434 -0.025594721 0
0.060000084 -0.2325183 -0.022705117 0
0.060000069 -0.23292387 -0.01929386 0
0.060000058 -0.23290347 -0.016654991 0
0.060000047 -0.23290727 -0.013143694 0
0.06000004 -0.2324708 -0.010829816 0
0.060000028 -0.23281628 -0.0070217424 0
0.060000017 -0.23201349 -0.0044765919 0
0.060000006 -0.23211205 -0.0019480712 0
0.059999995 -0.23277172 0.0012075233 0
0.05999998 -0.23206455 0.0042847735 0
0.059999973 -0.23276277 0.0075454069 0
0.059999965 -0.23268992 0.010269245 0
0.05999995 -0.23210953 0.013096754 0
0.059999939 -0.23244628 0.016224993 0
0.059999924 -0.23281898 0.019713936 0
0.059999917 -0.23263852 0.021962367 0
0.059999898 -0.23259461 0.026777061 0
0.059159622 -0.23242483 0.029256292 0
0.058384717 -0.2323516 0.030001054 0
0.060000077 -0.23245265 -0.028178183 0
0.060000062 -0.23231818 -0.025549483 0
0.060000069 -0.23280574 -0.022408521 0
0.060000073 -0.23240013 -0.019752115 0
0.060000043 -0.23232856 -0.016325779 0
0.060000043 -0.23267339 -0.013508691 0
0.060000017 -0.23240538 -0.010745224 0
0.060000006 -0.23249817 -0.0071487054 0
0.060000002 -0.23250166 -0.0042155082 0
0.059999995 -0.23250774 -0.0014458071 0
0.05999998 -0.23256867 0.0014153325 0
0.059999965 -0.2326811 0.0044343588 0
0.059999976 -0.23222545 0.0075241849 0
0.059999943 -0.23216397 0.010569515 0
0.059999954 -0.2327843 0.013547476 0
0.05999992 -0.23268872 0.016410043 0
0.059999909 -0.23231067 0.019353043 0
0.059999902 -0.23265776 0.022802921 0
0.059999894 -0.23214386 0.025773739 0
0.059999879 -0.23267861 0.028412299 0
-0.0097773978 -0.22956614 -0.0096763149 0
-0.0099999728 -0.22953095 -0.0074602771 0
-0.0099999839 -0.22967505 -0.004426307 0
-0.0099999933 -0.22938564 -0.0012807224 0
-0.010000004 -0.22951132 0.0010865702 0
-0.010000014 -0.2296112 0.0044003124 0
-0.010000029 -0.22947732 0.0073675751 0
-0.009714473 -0.22937976 0.0098125795 0
-0.0076072714 -0.22928937 -0.009999197 0
-0.0075320029 -0.22944526 0.010000803 0
-0.0044257897 -0.2295713 -0.0099991821 0
-0.0046425257 -0.22926675 0.010000811 0
-0.001399407 -0.22940898 -0.0099991746 0
-0.001464035 -0.22937633 0.010000826 0
0.0017293573 -0.22959968 -0.0099991616 0
0.0013684295 -0.22974056 0.010000833 0
0.0044117523 -0.22945958 -0.0099991523 0
0.0047127702 -0.22946358 0.010000846 0
0.007426363 -0.22995569 -0.0099991392 0
0.0078505948 -0.22939992 0.010000861 0
0.010398702 -0.22971262 -0.0096711619 0
0.010412351 -0.22961752 -0.0075415508 0
0.010438034 -0.22957997 -0.0045501394 0
0.010319702 -0.22950032 -0.0017545188 0
0.010476013 -0.22950831 0.0014173175 0
0.010520471 -0.22965616 0.0044559804 0
0.010574049 -0.22960503 0.0079090595 0
0.010352456 -0.2296671 0.0097826887 0
0.013121553 -0.23035406 -0.0096599646 0
0.01336957 -0.23019996 -0.0075615882 0
0.013277307 -0.23019995 -0.0043801987 0
0.013615664 -0.23019992 -0.0017291146 0
0.013516488 -0.23019995 0.001743237 0
0.013685772 -0.23019995 0.0045100413 0
0.013705486 -0.23019992 0.0074770376 0
0.013523133 -0.23044096 0.0098067075 0
0.016356945 -0.23045519 -0.0097710285 0
0.016300503 -0.23019998 -0.0073729432 0
0.016586995 -0.23019993 -0.0043894262 0
0.017016731 -0.23019998 -0.0017815266 0
0.016684731 -0.23019996 0.0015300467 0
0.016261503 -0.23019995 0.0043126019 0
0.016728068 -0.23019989 0.0073481584 0
0.016268281 -0.23042423 0.0097527634 0
0.019716365 -0.23042616 -0.0097679496 0
0.019280449 -0.23019995 -0.0074684606 0
0.019630577 -0.23019993 -0.0045181639 0
0.0194677 -0.23019992 -0.0014403665 0
0.01957421 -0.23019998 0.001604525 0
0.019309267 -0.2301999 0.0045922529 0
0.019685959 -0.23019993 0.0075491956 0
0.019478537 -0.23025624 0.0096402019 0
0.022478333 -0.23035465 -0.0097017847 0
0.022179337 -0.23019999 -0.007438106 0
0.022472372 -0.23019995 -0.0045475224 0
0.02240121 -0.23019996 -0.0017122084 0
0.022518536 -0.23019998 0.0015344822 0
0.022590267 -0.23019992 0.0044392082 0
0.022548722 -0.23019987 0.0072166934 0
0.022858871 -0.23041889 0.0097169019 0
0.025288152 -0.23037498 -0.0097775133 0
0.025605364 -0.23019999 -0.0071581304 0
0.025272448 -0.23019995 -0.0041592252 0
0.025382699 -0.23019995 -0.0013640176 0
0.025519565 -0.23019993 0.0014904916 0
0.025539581 -0.23019989 0.0044008559 0
0.025830453 -0.2301999 0.0075028823 0
0.025482103 -0.23049259 0.009801141 0
0.028972305 -0.23030816 -0.0097114043 0
0.028525338 -0.23019995 -0.0073464196 0
0.028526757 -0.23019993 -0.0046072667 0
0.028365519 -0.23019993 -0.001619337 0
0.028633896 -0.23019992 0.0015073078 0
0.02861901 -0.23019992 0.0045698052 0
0.028494606 -0.23019989 0.0076049324 0
0.028535739 -0.23032218 0.0096915215 0
0.031279631 -0.23045479 -0.0097112283 0
0.031722892 -0.23019996 -0.0075487439 0
0.031590261 -0.23019995 -0.0045481836 0
0.031577799 -0.23019998 -0.0016633018 0
0.031277731 -0.23019993 0.0016495503 0
0.031405691 -0.23019995 0.0042494871 0
0.031265412 -0.23019992 0.0075073191 0
0.031695433 -0.23031238 0.0095812278 0
0.034486629 -0.23041449 -0.0097346697 0
0.034382112 -0.23019995 -0.0073723532 0
0.034334932 -0.23019998 -0.0041959481 0
0.034637358 -0.23019992 -0.0012649595 0
0.034538727 -0.23019996 0.0016697955 0
0.034636781 -0.2301999 0.004449605 0
0.034455393 -0.2301999 0.0073867147 0
0.034435261 -0.23040318 0.0097352108 0
0.037766941 -0.23036249 -0.0098077813 0
0.037474971 -0.23019993 -0.0076241316 0
0.037188984 -0.23019995 -0.0044696447 0
0.037584089 -0.23019993 -0.0016136809 0
0.037405603 -0.23019993 0.001638909 0
0.037555169 -0.23019995 0.0045532538 0
0.037673306 -0.23019989 0.0075525623 0
0.037537653 -0.23042847 0.0097932369 0
0.040476099 -0.23039706 -0.0096936207 0
0.040250495 -0.23019998 -0.0074310103 0
0.04050114 -0.23020002 -0.0045683105 0
0.040308904 -0.23019992 -0.0016314735 0
0.040582128 -0.23019998 0.0013390143 0
0.040344507 -0.2301999 0.0044295494 0
0.040337134 -0.2301999 0.0074965693 0
0.040413298 -0.23041418 0.0097653326 0
0.044045981 -0.23032206 -0.028406786 0
0.043975782 -0.23033144 -0.025391545 0
0.043831747 -0.23035523 -0.022590814 0
0.043926921 -0.23038886 -0.01973599 0
0.044103771 -0.23026022 -0.016716067 0
0.043846428 -0.23038021 -0.013514467 0
0.04359325 -0.23032291 -0.010448852 0
0.043524455 -0.23019995 -0.0073929024 0
0.043365337 -0.23019995 -0.0045475089 0
0.043472905 -0.23019993 -0.0013052045 0
0.043230604 -0.23019995 0.0013287666 0
0.043818239 -0.23019995 0.0044141593 0
0.04359496 -0.23019987 0.0074974135 0
0.043647911 -0.2303533 0.010317422 0
0.043917824 -0.2303167 0.01337789 0
0.044144522 -0.23027982 0.016252004 0
0.044213533 -0.23027201 0.019536778 0
0.043713562 -0.23036437 0.022952303 0
0.043939013 -0.2302997 0.025531089 0
0.04409802 -0.23027696 0.028604768 0
0.043851573 -0.23045059 0.030000992 0
0.047999233 -0.23032512 -0.029998994 0
0.046286009 -0.23027839 -0.028678911 0
0.046420015 -0.23020002 -0.025378251 0
0.04665025 -0.23019999 -0.022326173 0
0.046678059 -0.23019999 -0.019700812 0
0.046650048 -0.23020002 -0.016533006 0
0.046471186 -0.23020001 -0.013617366 0
0.046411637 -0.23019996 -0.010491985 0
0.046422172 -0.23019999 -0.0075732321 0
0.046245068 -0.23019998 -0.0042859791 0
0.04653348 -0.23019995 -0.0012165413 0
0.046486732 -0.23019999 0.0014609833 0
0.046614137 -0.2301999 0.0044132033 0
0.046644777 -0.2301999 0.0076956004 0
0.046783011 -0.2301999 0.010352231 0
0.046548378 -0.23019987 0.013562601 0
0.046276998 -0.23019984 0.016466292 0
0.046678539 -0.23019989 0.01946998 0
0.046749156 -0.23019986 0.02234046 0
0.046408106 -0.23019987 0.025461966 0
0.046499558 -0.23021272 0.028740045 0
0.046134833 -0.23056073 0.030001003 0
0.048293244 -0.23021439 -0.029998994 0
0.049416497 -0.2302566 -0.028579665 0
0.049682308 -0.23020004 -0.025501527 0
0.049528725 -0.23020001 -0.022471901 0
0.049325801 -0.23020001 -0.019525701 0
0.049275044 -0.23019998 -0.016339999 0
0.049357496 -0.23019998 -0.013590897 0
0.049500901 -0.23019998 -0.010878399 0
0.049452204 -0.23019995 -0.0075851628 0
0.049836602 -0.23020001 -0.0043985597 0
0.04906439 -0.23019996 -0.0015159071 0
0.049688604 -0.23019993 0.0013604512 0
0.049518254 -0.23019992 0.0047284262 0
0.049457438 -0.2301999 0.0075851232 0
0.049646981 -0.2301999 0.010655706 0
0.049533039 -0.23019989 0.013577136 0
0.049536642 -0.23019987 0.016462006 0
0.049355377 -0.23019986 0.019677931 0
0.049561754 -0.23019989 0.022490449 0
0.049554113 -0.23019987 0.025542874 0
0.04945695 -0.23023087 0.028384637 0
0.050071914 -0.23065516 0.030001016 0
0.05270962 -0.23030673 -0.029020378 0
0.052394647 -0.23020002 -0.025521811 0
0.052614029 -0.23020001 -0.022635294 0
0.052725069 -0.23020001 -0.019720988 0
0.052569516 -0.23020001 -0.016367825 0
0.052408941 -0.23019996 -0.013607129 0
0.052579723 -0.23019999 -0.010458368 0
0.052588012 -0.23019996 -0.0070972848 0
0.052782904 -0.23019999 -0.0045857895 0
0.052836515 -0.23019995 -0.0017176019 0
0.052533656 -0.23019992 0.0017173853 0
0.052643433 -0.23019992 0.0044117151 0
0.052327435 -0.2301999 0.0075153881 0
0.052691098 -0.23019987 0.010432546 0
0.052491263 -0.23019989 0.013578117 0
0.052554935 -0.23019986 0.016377162 0
0.052459102 -0.23019986 0.01935447 0
0.052460909 -0.23019987 0.022780836 0
0.052593272 -0.23019984 0.025514821 0
0.052385446 -0.23020133 0.028536247 0
0.052342594 -0.23061721 0.030001026 0
0.054338817 -0.23056041 -0.029998969 0
0.055498008 -0.23022775 -0.028656984 0
0.05552581 -0.23020002 -0.025583908 0
0.055372335 -0.23020002 -0.022310544 0
0.055221379 -0.23020001 -0.01967953 0
0.05548694 -0.23019998 -0.016538959 0
0.055468984 -0.23019998 -0.013478481 0
0.055341683 -0.23019996 -0.010036877 0
0.055801019 -0.23019995 -0.0076454068 0
0.055258457 -0.23019999 -0.004447253 0
0.055488341 -0.23019998 -0.0015884406 0
0.055316113 -0.23019993 0.0018384666 0
0.055658072 -0.2301999 0.0046426165 0
0.055521585 -0.2301999 0.0074030054 0
0.055385295 -0.23019989 0.010478439 0
0.055649858 -0.2301999 0.013447628 0
0.055316892 -0.23019986 0.016842309 0
0.05576206 -0.23019987 0.019694198 0
0.055539832 -0.23019986 0.022486106 0
0.055355303 -0.23019986 0.02528598 0
0.055482194 -0.23020218 0.028798325 0
0.055736683 -0.23057415 0.030001039 0
0.057401013 -0.23088716 -0.029998956 0
0.058636539 -0.23029517 -0.028601101 0
0.058564555 -0.23020002 -0.025405729 0
0.058238432 -0.23019999 -0.02262922 0
0.05837271 -0.23020004 -0.019624406 0
0.058552813 -0.23019996 -0.0164891 0
0.058547094 -0.23022871 -0.013256087 0
0.058706097 -0.23022532 -0.010725007 0
0.058230955 -0.23020105 -0.0073468341 0
0.058565669 -0.23019995 -0.0045431452 0
0.058666673 -0.2302238 -0.0016031344 0
0.058474369 -0.23021917 0.0016920073 0
0.058670688 -0.23021446 0.004572208 0
0.058775447 -0.23024392 0.007398501 0
0.058510348 -0.23024824 0.010516464 0
0.058684394 -0.23020259 0.013654415 0
0.058349721 -0.2301999 0.01636786 0
0.058543142 -0.23023427 0.019577615 0
0.058689117 -0.23025784 0.022414993 0
0.058461931 -0.23019983 0.025595378 0
0.058279317 -0.23023385 0.028491659 0
0.058444325 -0.23061056 0.030001048 0
0.060000103 -0.23044747 -0.02867887 0
0.060000092 -0.23061016 -0.025198584 0
0.060000088 -0.23071547 -0.022618946 0
0.060000069 -0.23050411 -0.019624988 0
0.060000062 -0.23052706 -0.016566774 0
0.060000055 -0.23062763 -0.014496941 0
0.060000032 -0.23047277 -0.0093780449 0
0.060000032 -0.23053619 -0.0072427611 0
0.060000017 -0.23063633 -0.0045844186 0
0.060000006 -0.23051721 -0.0018876055 0
0.059999999 -0.23045458 0.0013289655 0
0.059999987 -0.23054884 0.0045563532 0
0.059999973 -0.2306792 0.0071468726 0
0.059999965 -0.23063277 0.010331132 0
0.059999954 -0.23053098 0.013566781 0
0.059999943 -0.23052886 0.016322717 0
0.059999932 -0.23058823 0.019742414 0
0.05999992 -0.23081897 0.022862623 0
0.059999909 -0.23057897 0.025934352 0
0.059999898 -0.2305855 0.029209815 0
-0.0097024133 -0.22656997 -0.00974028 0
-0.009999969 -0.22644457 -0.0078382269 0
-0.0099999821 -0.22650413 -0.004727406 0
-0.0099999923 -0.22657306 -0.0014555022 0
-0.010000002 -0.22647937 0.0012379808 0
-0.010000013 -0.22648032 0.00448386 0
-0.010000027 -0.22648175 0.0075588473 0
-0.0097012017 -0.22672537 0.0097699314 0
-0.0073477505 -0.22637397 -0.0099992054 0
-0.0077751861 -0.22648653 0.010000789 0
-0.0044313269 -0.22670907 -0.0099991933 0
-0.0046217004 -0.22656481 0.010000804 0
-0.0018743506 -0.22642846 -0.0099991858 0
-0.0014929405 -0.22657678 0.010000813 0
0.0015275521 -0.22644891 -0.0099991728 0
0.001487769 -0.22678679 0.010000828 0
0.0046363049 -0.22657748 -0.0099991616 0
0.0044750115 -0.22636721 0.010000836 0
0.0074386382 -0.2266968 -0.0099991513 0
0.007611664 -0.22646768 0.010000847 0
0.009747861 -0.22650106 -0.0097531872 0
0.010000029 -0.22672942 -0.0073698098 0
0.010000016 -0.22673452 -0.0043980288 0
0.010000004 -0.2264287 -0.0014340059 0
0.0099999942 -0.22654335 0.0013753996 0
0.0099999839 -0.22642235 0.0047355676 0
0.0099999746 -0.22653861 0.0073300605 0
0.0098575233 -0.22640015 0.0097111762 0
-0.0098604606 -0.22354038 -0.0096675744 0
-0.0099999728 -0.22345287 -0.0077524381 0
-0.0099999849 -0.22338264 -0.004470787 0
-0.0099999933 -0.22339381 -0.0011684792 0
-0.010000004 -0.22364333 0.0017255342 0
-0.010000014 -0.22341838 0.0043646204 0
-0.010000029 -0.22355241 0.0074444786 0
-0.0097543206 -0.22363262 0.0098254075 0
-0.0075966399 -0.22365715 -0.0099992184 0
-0.0073629664 -0.22339348 0.010000782 0
-0.0043528439 -0.22344905 -0.0099992044 0
-0.0044030491 -0.22343329 0.010000794 0
-0.0018138572 -0.22353916 -0.0099991951 0
-0.0016273212 -0.22352713 0.010000805 0
0.0016704293 -0.22332337 -0.0099991849 0
0.0014596571 -0.2237073 0.010000815 0
0.0044472683 -0.22339566 -0.0099991737 0
0.0043373769 -0.22377358 0.010000825 0
0.0074089896 -0.22341193 -0.0099991634 0
0.0077201305 -0.22357738 0.010000839 0
0.0096930014 -0.22338311 -0.0097820852 0
0.010000024 -0.22347854 -0.00757627 0
0.010000017 -0.22346598 -0.0046995003 0
0.010000004 -0.22349918 -0.0014650075 0
0.0099999923 -0.22349651 0.0013287282 0
0.0099999812 -0.22361124 0.0043055099 0
0.0099999737 -0.22384059 0.0077518951 0
0.0097411815 -0.22352572 0.0096379397 0
-0.0096027339 -0.22061874 -0.0098353531 0
-0.0099999728 -0.22062284 -0.0076636183 0
-0.009999983 -0.22035599 -0.0043107457 0
-0.0099999923 -0.2204676 -0.0015796187 0
-0.010000006 -0.22069059 0.001585916 0
-0.010000017 -0.22062925 0.0044205361 0
-0.010000026 -0.22035259 0.007434716 0
-0.0097954618 -0.22042009 0.0097255027 0
-0.0074777268 -0.22046036 -0.0099992277 0
-0.0072886208 -0.22044358 0.010000771 0
-0.0043721218 -0.22055633 -0.0099992175 0
-0.0046868552 -0.22058655 0.01000078 0
-0.0014263063 -0.22051026 -0.0099992044 0
-0.00147757 -0.2205433 0.01000079 0
0.0014218655 -0.22030909 -0.0099991951 0
0.0013553293 -0.22037701 0.010000801 0
0.0042724377 -0.22068907 -0.0099991821 0
0.0049318583 -0.22060181 0.010000817 0
0.0074623916 -0.22049153 -0.0099991756 0
0.0076365876 -0.22059935 0.010000828 0
0.0097019514 -0.2202117 -0.0098795407 0
0.010000028 -0.22070855 -0.0074677919 0
0.010000016 -0.22064316 -0.0043299133 0
0.010000006 -0.22055206 -0.0012146792 0
0.0099999923 -0.2206455 0.0013452141 0
0.009999983 -0.22043784 0.0044269036 0
0.0099999737 -0.22037894 0.0077233328 0
0.0095667904 -0.22103491 0.0098486971 0
-0.0096923206 -0.21766302 -0.0097603397 0
-0.0099999728 -0.21759167 -0.0073851417 0
-0.009999983 -0.21747836 -0.0046080868 0
-0.0099999961 -0.21735632 -0.0014059654 0
-0.010000004 -0.21766734 0.0016054088 0
-0.010000014 -0.21773396 0.0045042043 0
-0.010000029 -0.21746516 0.0073702359 0
-0.0098108789 -0.21722621 0.0097357873 0
-0.0077125793 -0.217594 -0.0099992389 0
-0.0076685818 -0.21782929 0.010000763 0
-0.0046550184 -0.21742325 -0.0099992286 0
-0.0042800675 -0.21756944 0.010000771 0
-0.0014276926 -0.21757865 -0.0099992156 0
-0.0014934924 -0.21763118 0.010000782 0
0.0013614867 -0.21752024 -0.0099992063 0
0.0016238686 -0.21773 0.010000795 0
0.0047338302 -0.2178468 -0.0099991933 0
0.004578907 -0.21722718 0.010000802 0
0.0075600739 -0.21782054 -0.0099991811 0
0.0074521271 -0.21738507 0.010000816 0
0.0097522056 -0.21758106 -0.0097657535 0
0.01000003 -0.21736914 -0.0075985268 0
0.010000017 -0.21742855 -0.004710224 0
0.010000004 -0.21730687 -0.001468999 0
0.0099999933 -0.21733621 0.0015203821 0
0.009999983 -0.21777986 0.0043390328 0
0.0099999718 -0.2177496 0.007387049 0
0.0097716749 -0.21753454 0.009818879 0
-0.0096801165 -0.21421036 -0.0097832717 0
-0.0099999709 -0.21492064 -0.0074800071 0
-0.009999983 -0.21450204 -0.0046002646 0
-0.0099999951 -0.214495 -0.0014700514 0
-0.010000004 -0.21446677 0.0016652241 0
-0.010000016 -0.21455587 0.0046495115 0
-0.010000027 -0.21469906 0.007319388 0
-0.0098086894 -0.21462081 0.0098376106 0
-0.0075355209 -0.21457691 -0.0099992491 0
-0.0077106818 -0.21448596 0.010000749 0
-0.0044713682 -0.21443725 -0.0099992407 0
-0.0045311591 -0.21447417 0.010000758 0
-0.0014091345 -0.21455765 -0.0099992268 0
-0.0014800648 -0.21449189 0.01000077 0
0.0017008022 -0.21454544 -0.0099992175 0
0.0012898372 -0.21431692 0.010000778 0
0.0048497668 -0.21480872 -0.0099992035 0
0.0047163051 -0.21408555 0.010000792 0
0.0077955984 -0.21450765 -0.009999197 0
0.007474781 -0.21440685 0.010000802 0
0.0098003745 -0.21434529 -0.0096728811 0
0.010000023 -0.21470167 -0.0073255333 0
0.010000014 -0.21434249 -0.0042594918 0
0.010000004 -0.21435127 -0.0016104884 0
0.0099999961 -0.21439606 0.0014369267 0
0.0099999821 -0.21467875 0.0046182279 0
0.0099999746 -0.21431059 0.0072157895 0
0.0097940462 -0.21468684 0.009763997 0
-0.0098454049 -0.21127537 -0.0097007724 0
-0.0099999709 -0.21171552 -0.0074901232 0
-0.0099999821 -0.21176869 -0.004636602 0
-0.0099999914 -0.21174519 -0.0017285629 0
-0.010000004 -0.21137568 0.0015584993 0
-0.010000017 -0.21135469 0.0045293979 0
-0.010000025 -0.21156791 0.0075306538 0
-0.0097870855 -0.21161869 0.0097771334 0
-0.0073863557 -0.21155553 -0.0099992603 0
-0.0075156209 -0.21124354 0.010000736 0
-0.0042556147 -0.21160692 -0.0099992491 0
-0.0046171905 -0.21151455 0.010000749 0
-0.0015973487 -0.21160233 -0.0099992389 0
-0.0016799147 -0.21157645 0.010000758 0
0.0015523143 -0.21202944 -0.009999224 0
0.001113028 -0.21158214 0.010000771 0
0.0046284129 -0.21146175 -0.0099992165 0
0.0046052211 -0.21123821 0.010000779 0
0.0074294987 -0.21159945 -0.0099992054 0
0.0074588619 -0.21140607 0.010000794 0
0.009710486 -0.21182802 -0.0097904922 0
0.010000028 -0.2113544 -0.0076627252 0
0.010000016 -0.21157466 -0.0046015391 0
0.010000004 -0.21145825 -0.001525708 0
0.0099999905 -0.21168041 0.0016923175 0
0.0099999821 -0.21149634 0.0046075857 0
0.0099999709 -0.21159068 0.0074461997 0
0.009812084 -0.2114889 0.009812953 0
-0.0097252196 -0.20841898 -0.009815732 0
-0.00999997 -0.2086799 -0.0076524783 0
-0.0099999802 -0.2084635 -0.0045448192 0
-0.0099999923 -0.20822531 -0.0016445515 0
-0.010000005 -0.20852214 0.0013431564 0
-0.010000017 -0.20833427 0.0047496646 0
-0.010000029 -0.2083063 0.0076819886 0
-0.00969637 -0.20866299 0.0097455075 0
-0.0075708353 -0.20847256 -0.0099992724 0
-0.0073267394 -0.2085063 0.010000727 0
-0.004307867 -0.20837304 -0.0099992603 0
-0.0042594546 -0.20832802 0.010000737 0
-0.0014649999 -0.20841366 -0.009999251 0
-0.0015050457 -0.20837726 0.010000748 0
0.0016110534 -0.20856979 -0.0099992361 0
0.001488258 -0.2084339 0.010000759 0
0.0045012287 -0.20851822 -0.0099992314 0
0.0045608087 -0.20850785 0.010000769 0
0.0074369675 -0.20851871 -0.0099992175 0
0.0077653336 -0.20838426 0.010000782 0
0.0096947076 -0.20853899 -0.0097214617 0
0.010000029 -0.20867024 -0.0076506324 0
0.010000017 -0.20885929 -0.0045415331 0
0.010000007 -0.20846286 -0.0014875346 0
0.0099999923 -0.20831689 0.0015911385 0
0.009999983 -0.20856981 0.0047589564 0
0.0099999709 -0.20849016 0.0076652095 0
0.0097989673 -0.20853932 0.0097592995 0
-0.0098527791 -0.20537458 -0.0096155591 0
-0.0099999718 -0.20558962 -0.0074710222 0
-0.0099999839 -0.20532851 -0.0043062572 0
-0.0099999942 -0.20524879 -0.0014535442 0
-0.010000002 -0.20545378 0.0012551028 0
-0.010000015 -0.20551024 0.0042317733 0
-0.010000025 -0.20554082 0.007491101 0
-0.0097665796 -0.20525187 0.0097832587 0
-0.007820175 -0.20558646 -0.0099992817 0
-0.0075423694 -0.20576242 0.010000717 0
-0.0044705234 -0.20549026 -0.0099992696 0
-0.0043097781 -0.20563745 0.010000727 0
-0.0014129893 -0.20541012 -0.0099992594 0
-0.0017264878 -0.20530431 0.010000736 0
0.0014040497 -0.20570832 -0.009999251 0
0.0015137022 -0.20559022 0.010000751 0
0.0045207003 -0.20557216 -0.0099992361 0
0.0047469274 -0.20567942 0.010000762 0
0.0072546192 -0.2056812 -0.0099992296 0
0.0075657535 -0.205515 0.010000771 0
0.0097622145 -0.20531437 -0.0097581008 0
0.010000026 -0.20564474 -0.0074220477 0
0.010000017 -0.20572619 -0.0044080941 0
0.010000006 -0.20562845 -0.0017678791 0
0.0099999942 -0.20543306 0.0014310157 0
0.009999983 -0.20536734 0.0046667969 0
0.0099999737 -0.20566328 0.0075185783 0
0.0097298026 -0.20575483 0.0098101962 0
-0.0099170459 -0.20227571 -0.0095939329 0
-0.0099999718 -0.20257924 -0.0073680566 0
-0.0099999802 -0.20263837 -0.0044973716 0
-0.0099999914 -0.20259508 -0.001799355 0
-0.010000004 -0.20256323 0.0014503552 0
-0.010000014 -0.20252134 0.0043383287 0
-0.010000027 -0.20241334 0.0075069279 0
-0.0096616065 -0.20235944 0.0097881285 0
-0.0074193031 -0.20253706 -0.0099992929 0
-0.0076026358 -0.20254241 0.010000704 0
-0.0046051219 -0.20263484 -0.0099992817 0
-0.0048777233 -0.20245005 0.010000714 0
-0.0015399506 -0.20245565 -0.0099992706 0
-0.0017110425 -0.20216116 0.010000725 0
