# .PCD v0.7 - Point Cloud Data file format
VERSION 0.7
FIELDS x y z rgb
SIZE 4 4 4 4
TYPE F F F F
COUNT 1 1 1 1
WIDTH 1151
HEIGHT 1
VIEWPOINT 0 0 0 1 0 0 0
POINTS 1151
DATA ascii
-0.0097479466 -0.21716523 0.0019400581 0
-0.0093193641 -0.2175781 0.0035143117 0
-0.006850386 -0.21741393 -0.0072151199 0
-0.0085122474 -0.21742524 -0.0051853014 0
-0.0084764585 -0.21740507 0.0052241771 0
-0.0069366395 -0.2175391 0.0071309092 0
-0.0037326005 -0.21766232 -0.0092272954 0
-0.00500526 -0.21726279 -0.0086231688 0
-0.0051144329 -0.21731204 0.008555037 0
-0.003588846 -0.21728382 0.0092887683 0
-0.0015618093 -0.21750888 -0.0098068016 0
-0.0015547971 -0.21771479 0.0098083224 0
3.4275697e-08 -0.21724959 -0.0094676642 0
2.6464027e-08 -0.21748586 -0.0073097371 0
1.6562533e-08 -0.21751328 -0.0045745103 0
5.419575e-09 -0.21747261 -0.001496337 0
-5.6127383e-09 -0.21732946 0.0015512712 0
-1.5470199e-08 -0.21772917 0.0042743357 0
-2.7401105e-08 -0.21719342 0.0075701727 0
-3.451208e-08 -0.21749158 0.0095345369 0
-0.0092946338 -0.21449304 -0.0035721029 0
-0.0098160962 -0.21455404 -0.0014926015 0
-0.0097657666 -0.21454577 0.0018688451 0
-0.0092734369 -0.21435586 0.0036245268 0
-0.0071381847 -0.2146178 -0.0069329562 0
-0.0085155126 -0.21468969 -0.0051876232 0
-0.0084478101 -0.21467416 0.0053051217 0
-0.0069987024 -0.21453348 0.0070852549 0
-0.003543078 -0.21468398 -0.0093062734 0
-0.0051476285 -0.21437091 -0.008525759 0
-0.005093432 -0.21440621 0.0085681863 0
-0.0036372957 -0.21477197 0.0092685726 0
-0.0015496991 -0.21449855 -0.0098062698 0
-0.0013738902 -0.21449192 0.0098392135 0
3.4701763e-08 -0.21416421 -0.009585374 0
2.7483257e-08 -0.21454217 -0.0075913039 0
1.6379973e-08 -0.21438298 -0.0045240903 0
6.069711e-09 -0.2143178 -0.0016759445 0
-5.2402922e-09 -0.2145455 0.0014483751 0
-1.648322e-08 -0.21445164 0.0045541646 0
-2.7241377e-08 -0.21473563 0.0075260401 0
-3.3991498e-08 -0.21454126 0.0093907192 0
-0.0092543848 -0.21109624 -0.0036687176 0
-0.0098324614 -0.21138088 -0.0014052436 0
-0.0098137856 -0.21139376 0.0015545894 0
-0.0092373751 -0.21122713 0.0037110629 0
-0.0071257632 -0.21160729 -0.0069344277 0
-0.0084743202 -0.21175885 -0.0052460036 0
-0.0084630949 -0.21144865 0.0052727554 0
-0.0070258779 -0.21149547 0.0070450706 0
-0.0036400734 -0.21157558 -0.0092658699 0
-0.0051319036 -0.21175979 -0.0085597923 0
-0.0052162348 -0.21145621 0.0085003078 0
-0.0038417245 -0.21168788 0.0091833826 0
-0.0016011327 -0.2115826 -0.0097979382 0
-0.0014663598 -0.21139552 0.0098250899 0
3.4464222e-08 -0.21111092 -0.0095197642 0
2.7435329e-08 -0.21145347 -0.0075780749 0
1.6081238e-08 -0.21133775 -0.0044415779 0
5.5280722e-09 -0.21168417 -0.0015263297 0
-5.4619487e-09 -0.21158628 0.0015095955 0
-1.6440776e-08 -0.21151724 0.0045424285 0
-2.7587612e-08 -0.21138239 0.0076216734 0
-3.4735809e-08 -0.2115566 0.0095963189 0
-0.0092671132 -0.20853616 -0.0036381769 0
-0.0098209744 -0.20845689 -0.0014921166 0
-0.0098072188 -0.20886879 0.0015310034 0
-0.0091961334 -0.20823631 0.0038100358 0
-0.0071402267 -0.20848188 -0.0069073178 0
-0.0084974412 -0.20831457 -0.0052074282 0
-0.0085514411 -0.2084031 0.0051315939 0
-0.0071610296 -0.20852509 0.0069150575 0
-0.0036568604 -0.20863162 -0.0092588859 0
-0.0052225105 -0.20845841 -0.0084825289 0
-0.0051502744 -0.20841181 0.0085372627 0
-0.0036015951 -0.20848674 0.0092834244 0
-0.0016249592 -0.20843831 -0.009799364 0
-0.0014396131 -0.20841426 0.009827924 0
3.4049705e-08 -0.20852333 -0.0094052665 0
2.733483e-08 -0.20860726 -0.0075503234 0
1.6025313e-08 -0.20851375 -0.0044261389 0
4.3480015e-09 -0.20836739 -0.0012003544 0
-5.5391549e-09 -0.20849158 0.0015309122 0
-1.6089531e-08 -0.2088367 0.0044453898 0
-2.7679185e-08 -0.20871063 0.0076469597 0
-3.4227099e-08 -0.20844334 0.0094557796 0
-0.0092303669 -0.20538266 -0.0037263769 0
-0.0098451795 -0.20540163 -0.001312671 0
-0.0098129185 -0.20568667 0.0015639621 0
-0.0092319278 -0.2057815 0.0037241147 0
-0.0069997376 -0.2053463 -0.0070741992 0
-0.0084682051 -0.20519616 -0.0052487128 0
-0.0085159112 -0.20562957 0.0051818378 0
-0.0069438089 -0.20534003 0.0071456232 0
-0.0037424006 -0.20542663 -0.0092232563 0
-0.0051601948 -0.20537557 -0.0085258745 0
-0.0051246043 -0.20550334 0.0085527254 0
-0.0037051376 -0.20568225 0.0092402706 0
-0.0015664265 -0.20566718 -0.0098121753 0
-0.0015837853 -0.20531119 0.0098056588 0
3.4406103e-08 -0.20553644 -0.0095037296 0
2.7057631e-08 -0.20548907 -0.0074737603 0
1.6084085e-08 -0.20561342 -0.0044423854 0
4.8783302e-09 -0.20548058 -0.0013468649 0
-5.3252638e-09 -0.20548154 0.0014718153 0
-1.554691e-08 -0.20541495 0.0042954818 0
-2.644385e-08 -0.20541082 0.0073056943 0
-3.4598912e-08 -0.20533706 0.0095584802 0
-0.009295593 -0.20262131 -0.0035698442 0
-0.0098374886 -0.2026908 -0.0013379864 0
-0.0098444819 -0.20260358 0.0013186963 0
-0.0092622759 -0.2026141 0.0036512709 0
-0.0071881982 -0.20234783 -0.0068847011 0
-0.0085578412 -0.20266767 -0.0051202392 0
-0.0085753687 -0.20270871 0.0050815302 0
-0.0070486288 -0.2024592 0.0070357197 0
-0.0037776604 -0.20257233 -0.0092085758 0
-0.0050819488 -0.20264293 -0.0085849212 0
-0.0052212914 -0.20253067 0.0084986454 0
-0.0036433036 -0.20233436 0.0092660226 0
-0.0014043672 -0.20246769 -0.0098311407 0
-0.0015120141 -0.20273067 0.0098193008 0
3.4768355e-08 -0.20247856 -0.0096038114 0
2.6979714e-08 -0.20245178 -0.0074522472 0
1.6943973e-08 -0.20253214 -0.0046799355 0
5.5696461e-09 -0.20238777 -0.0015378479 0
-5.5299996e-09 -0.202575 0.0015283617 0
-1.6564181e-08 -0.2023845 0.0045764856 0
-2.7013041e-08 -0.2025685 0.0074629197 0
-3.3954624e-08 -0.2022025 0.0093804877 0
-0.0093256151 -0.19922239 -0.0034978061 0
-0.0098031564 -0.19941443 -0.0016203282 0
-0.0098005505 -0.19959137 0.0016867579 0
-0.0093038958 -0.1998277 0.0035513714 0
-0.0070958855 -0.19984381 -0.0069732326 0
-0.0085003134 -0.19942425 -0.005208401 0
-0.00846224 -0.19936159 0.00526059 0
-0.0072664609 -0.19953632 0.0067882761 0
-0.0035865507 -0.19957691 -0.0092882141 0
-0.0050310022 -0.19946757 -0.0086204829 0
-0.0051133097 -0.19958474 0.0085589103 0
-0.0036482115 -0.19947577 0.0092639672 0
-0.0017286697 -0.19948557 -0.0097917235 0
-0.0015722233 -0.19935602 0.009805914 0
3.4012483e-08 -0.19951406 -0.0093950173 0
2.774788e-08 -0.19941328 -0.0076644593 0
1.7284243e-08 -0.19934976 -0.0047739442 0
5.6878493e-09 -0.19963042 -0.0015705107 0
-5.9608811e-09 -0.19954684 0.0016473791 0
-1.5510963e-08 -0.19953494 0.0042855302 0
-2.7143782e-08 -0.19945951 0.0074990252 0
-3.4308812e-08 -0.19947529 0.0094783194 0
-0.0092556514 -0.19698454 -0.0036657271 0
-0.0098270755 -0.19625059 -0.0014386995 0
-0.0098240618 -0.19657262 0.0014828463 0
-0.0092821848 -0.19649722 0.0036034682 0
-0.0069521568 -0.19634396 -0.0071066003 0
-0.0085564898 -0.19633186 -0.005111014 0
-0.0085959593 -0.19637038 0.0050558778 0
-0.0071026324 -0.19637427 0.0069642281 0
-0.0035897815 -0.19639543 -0.0092868796 0
-0.005187714 -0.19665153 -0.0085223522 0
-0.0050602974 -0.19645859 0.0085806679 0
-0.0035440298 -0.19641942 0.0093073668 0
-0.0016288742 -0.19632372 -0.0098021477 0
-0.0014165433 -0.19635333 0.0098270141 0
3.4833135e-08 -0.1963412 -0.0096217291 0
2.7291627e-08 -0.19665995 -0.0075384318 0
1.6696632e-08 -0.19664431 -0.0046116295 0
5.0801594e-09 -0.19632815 -0.001402652 0
-5.6167839e-09 -0.19638178 0.001552313 0
-1.6428082e-08 -0.19650532 0.0045388681 0
-2.6935565e-08 -0.19665162 0.007441496 0
-3.4535972e-08 -0.19643936 0.0095410617 0
-0.0092302831 -0.19360185 -0.0037266216 0
-0.0098095415 -0.19352844 -0.0015462472 0
-0.0097998325 -0.19345565 0.0016642786 0
-0.0092592323 -0.1934887 0.0036585426 0
-0.0070677996 -0.19331281 -0.0069959634 0
-0.008488643 -0.19370835 -0.0052219098 0
-0.0086213546 -0.19328888 0.0050179516 0
-0.0071308692 -0.19358203 0.0069594113 0
-0.0036986973 -0.19336051 -0.0092415074 0
-0.0051886667 -0.19362083 -0.008511954 0
-0.0051583056 -0.19353221 0.0085101807 0
-0.0036699867 -0.19347775 0.0092548747 0
-0.001466123 -0.19353081 -0.0098267905 0
-0.0014863089 -0.19335692 0.0098236166 0
3.389756e-08 -0.19331147 -0.0093632927 0
2.7643267e-08 -0.19359894 -0.0076355818 0
1.631026e-08 -0.19345941 -0.0045049083 0
6.0923027e-09 -0.19362243 -0.0016822602 0
-5.3765072e-09 -0.19337663 0.001485927 0
-1.6701005e-08 -0.19352481 0.0046142503 0
-2.7213552e-08 -0.19357789 0.007518277 0
-3.3788801e-08 -0.19361876 0.0093346499 0
-0.0092638731 -0.19063792 -0.0036460164 0
-0.0098165832 -0.19051026 -0.0015018608 0
-0.0097801434 -0.19031428 0.00178839 0
-0.0092857499 -0.19072555 0.0035948886 0
-0.0070855143 -0.19067514 -0.0069749509 0
-0.0084713167 -0.1904711 -0.0052382355 0
-0.0084087541 -0.19051424 0.0053594946 0
-0.0070175254 -0.19051628 0.0070799268 0
-0.0035622567 -0.19052666 -0.0092983693 0
-0.005122385 -0.190084 -0.008548025 0
-0.0053363312 -0.19027659 0.0084220553 0
-0.0037781824 -0.19079711 0.009209781 0
-0.0014625413 -0.19054593 -0.0098219598 0
-0.001468614 -0.19031928 0.0098118717 0
3.4365343e-08 -0.19048773 -0.0094925249 0
2.6597757e-08 -0.19081207 -0.0073467763 0
1.6654822e-08 -0.19057561 -0.0046001016 0
6.1354322e-09 -0.1904349 -0.001694186 0
-4.7544511e-09 -0.19061975 0.0013140779 0
-1.642443e-08 -0.19038813 0.0045378366 0
-2.6641603e-08 -0.19049136 0.0073602684 0
-3.453286e-08 -0.19038035 0.0095401788 0
-0.0093031572 -0.18770902 -0.0035517458 0
-0.0098010693 -0.1876099 -0.0016646647 0
-0.0098341545 -0.18750751 0.0013892348 0
-0.0093064541 -0.18753451 0.0035451862 0
-0.006993298 -0.18785593 -0.0070806611 0
-0.0085239727 -0.18752038 -0.0051508173 0
-0.0086061144 -0.18743435 0.0050300979 0
-0.0070790905 -0.18755448 0.0070010135 0
-0.0037418688 -0.18799105 -0.0092235412 0
-0.0052476749 -0.18781981 -0.0084697492 0
-0.0052234954 -0.1875246 0.0085040331 0
-0.0034774088 -0.18734384 0.0093350923 0
-0.001532435 -0.18744814 -0.009817481 0
-0.0014660712 -0.1877771 0.0098271742 0
3.4517864e-08 -0.18729363 -0.0095346691 0
2.694509e-08 -0.18748501 -0.007442737 0
1.6013656e-08 -0.18750033 -0.0044229953 0
5.1771822e-09 -0.18759054 -0.0014294857 0
-6.1022463e-09 -0.18742417 0.0016863864 0
-1.613134e-08 -0.18752238 0.0044568623 0
-2.6840812e-08 -0.18757457 0.0074152881 0
-3.4475523e-08 -0.18767859 0.0095243296 0
-0.0092618121 -0.18456714 -0.0036509831 0
-0.0097804144 -0.18444727 -0.0017501094 0
-0.009853146 -0.18455677 0.0012066336 0
-0.0092323208 -0.18463038 0.0037230987 0
-0.0071354695 -0.18477608 -0.0069256644 0
-0.0085092736 -0.18466985 -0.0051928996 0
-0.0086558219 -0.18434942 0.0049526608 0
-0.0070248647 -0.18469167 0.0070556896 0
-0.0036600044 -0.18451738 -0.009257663 0
-0.0050800415 -0.18470334 -0.0085865809 0
-0.0052665398 -0.18451476 0.0084703146 0
-0.0035529474 -0.18446566 0.009303607 0
-0.0014481988 -0.18433934 -0.0098178862 0
-0.001556768 -0.18442591 0.0098061925 0
3.4337614e-08 -0.18439005 -0.0094848871 0
2.7504518e-08 -0.18439218 -0.0075972867 0
1.588155e-08 -0.18437396 -0.0043865135 0
5.3455831e-09 -0.18462175 -0.0014760161 0
-5.259897e-09 -0.1845666 0.0014536823 0
-1.6753988e-08 -0.1845914 0.0046288543 0
-2.6691497e-08 -0.18470308 0.0073740305 0
-3.4259347e-08 -0.18404353 0.0094646001 0
-0.009286874 -0.18143249 -0.0035908464 0
-0.0098311631 -0.18163514 -0.0014311441 0
-0.0098178182 -0.18162765 0.0015043872 0
-0.0092799412 -0.18129586 0.0036087958 0
-0.006955198 -0.18171215 -0.0071080015 0
-0.0085543301 -0.18148677 -0.0051147593 0
-0.0084678419 -0.18138126 0.0052578631 0
-0.0069064312 -0.18153776 0.0071656108 0
-0.0036083257 -0.1816892 -0.0092792064 0
-0.0052380678 -0.18191269 -0.0084652491 0
-0.0051649529 -0.18154021 0.0085190991 0
-0.0037180365 -0.18167827 0.0092348102 0
-0.0014057502 -0.18155731 -0.009832127 0
-0.0014642435 -0.18168652 0.0098210005 0
3.4763598e-08 -0.1816106 -0.0096025728 0
2.7053229e-08 -0.18143299 -0.0074726315 0
1.615517e-08 -0.18142065 -0.0044621094 0
5.735163e-09 -0.18175465 -0.0015836455 0
-5.4697407e-09 -0.18152849 0.0015116393 0
-1.614802e-08 -0.18162782 0.0044614486 0
-2.7439288e-08 -0.18157791 0.0075805918 0
-3.5124014e-08 -0.18164344 0.0097034499 0
-0.0092304787 -0.17825873 -0.0037262104 0
-0.0098188501 -0.17831558 -0.001467997 0
-0.0098312274 -0.17862564 0.0014191171 0
-0.0093267942 -0.17829444 0.0034963379 0
-0.0070055523 -0.17816897 -0.0070620184 0
-0.0085264156 -0.17857838 -0.0051519321 0
-0.0084466012 -0.17891015 0.0052908934 0
-0.0071542133 -0.17842883 0.0069011268 0
-0.0035856823 -0.17839558 -0.0092886528 0
-0.0052557215 -0.17838278 -0.0084644258 0
-0.0052221026 -0.17852469 0.0084904199 0
-0.0036337739 -0.17838393 0.0092699062 0
-0.0014769553 -0.17840101 -0.0098233521 0
-0.0014945348 -0.17838936 0.0098192059 0
3.4227099e-08 -0.17827666 -0.0094543798 0
2.6803228e-08 -0.17824395 -0.0074035814 0
1.660271e-08 -0.17832124 -0.0045857513 0
5.4083915e-09 -0.17833841 -0.0014933893 0
-5.2887157e-09 -0.17840655 0.001461621 0
-1.5846274e-08 -0.17840932 0.0043780813 0
-2.6564896e-08 -0.17850786 0.0073390356 0
-3.3900132e-08 -0.17860286 0.0093653491 0
-0.0093343789 -0.17500542 -0.0034768619 0
-0.0098258704 -0.17536448 -0.0014497107 0
-0.0098226555 -0.1755632 0.0014547406 0
-0.0093304897 -0.17563884 0.0034874592 0
-0.0070089684 -0.17517765 -0.0070564304 0
-0.0084229363 -0.17564575 -0.0053187641 0
-0.0083652195 -0.17517671 0.0054267822 0
-0.0069779796 -0.17525727 0.0070701619 0
-0.0037973463 -0.17578144 -0.0092004705 0
-0.0053149126 -0.17573904 -0.0084208557 0
-0.0052330629 -0.17558721 0.0084818881 0
-0.0036187153 -0.1754673 0.0092761731 0
-0.0015432326 -0.17562842 -0.009812789 0
-0.0014310225 -0.17559394 0.0098308241 0
3.429335e-08 -0.17575386 -0.0094726905 0
2.865487e-08 -0.17549902 -0.0079150964 0
1.6428716e-08 -0.17550646 -0.0045376965 0
5.5273288e-09 -0.1754065 -0.0015262556 0
-5.703177e-09 -0.17534891 0.0015761023 0
-1.6192368e-08 -0.17561944 0.0044736778 0
-2.7210781e-08 -0.17543098 0.0075174458 0
-3.4531986e-08 -0.17536512 0.0095398836 0
-0.0092707342 -0.17245637 -0.0036296176 0
-0.0098066665 -0.17225289 -0.0016342708 0
-0.0098208291 -0.17247105 0.0014905703 0
-0.0092460476 -0.17270297 0.0036901108 0
-0.0070563518 -0.17235921 -0.0070207627 0
-0.0084590204 -0.17248283 -0.0052788467 0
-0.0085632885 -0.17280661 0.0051149498 0
-0.0071818396 -0.17253503 0.0068706153 0
-0.0036314684 -0.17247757 -0.009269597 0
-0.0051749675 -0.17236042 -0.0085228635 0
-0.005217358 -0.17265217 0.0084869331 0
-0.0035085049 -0.1725785 0.0093220817 0
-0.0014308461 -0.17253715 -0.009829103 0
-0.0013362356 -0.17246781 0.0098420465 0
3.4093997e-08 -0.17266688 -0.0094176317 0
2.6795391e-08 -0.17256795 -0.007401437 0
1.54616e-08 -0.17236453 -0.004270548 0
4.1849497e-09 -0.17244704 -0.0011554424 0
-5.9716103e-09 -0.17260838 0.0016502454 0
-1.6366327e-08 -0.17261319 0.004521722 0
-2.5873717e-08 -0.17246123 0.0071480796 0
-3.4674628e-08 -0.17255314 0.0095792776 0
-0.0092479335 -0.16959579 -0.0036843461 0
-0.0098297754 -0.16934052 -0.001394773 0
-0.0098076221 -0.16949414 0.0015790792 0
-0.0092646759 -0.16948317 0.0036453907 0
-0.0069198771 -0.16930854 -0.007147924 0
-0.0084088985 -0.1695103 -0.0053366981 0
-0.0084629459 -0.16943735 0.0052737808 0
-0.0070249089 -0.16975695 0.0070698648 0
-0.0036694601 -0.16936208 -0.0092537785 0
-0.0050735543 -0.16961423 -0.0085861888 0
-0.0053135906 -0.16944222 0.0084224697 0
-0.0034943381 -0.16991472 0.009327976 0
-0.0012787489 -0.16936274 -0.0098479306 0
-0.001271027 -0.16942324 0.0098442556 0
3.3884724e-08 -0.16964363 -0.0093598329 0
2.6782518e-08 -0.16950838 -0.007397892 0
1.5466716e-08 -0.16970243 -0.0042719711 0
5.4877698e-09 -0.1694596 -0.0015153493 0
-5.1994129e-09 -0.16927348 0.0014369186 0
-1.6073527e-08 -0.1695213 0.0044408264 0
-2.7407031e-08 -0.1694368 0.0075716372 0
-3.441486e-08 -0.16949055 0.0095075071 0
-0.009209929 -0.16697071 -0.0037755673 0
-0.0098450705 -0.16664486 -0.001324522 0
-0.0098093683 -0.16638647 0.0015373894 0
-0.0092297355 -0.16632417 0.0037292349 0
-0.0070030116 -0.16651376 -0.0070926207 0
-0.0085766092 -0.16647692 -0.0050806194 0
-0.0084681073 -0.16636178 0.0052566295 0
-0.0069727269 -0.16633296 0.0070720795 0
-0.0036999513 -0.16663177 -0.0092410836 0
-0.0051548923 -0.16648827 -0.0085281814 0
-0.0050123325 -0.16663776 0.0086149741 0
-0.003652798 -0.16683641 0.0092619387 0
-0.0016451889 -0.16648039 -0.009799717 0
-0.0015636549 -0.16643356 0.0098047834 0
3.4093741e-08 -0.16647524 -0.0094175832 0
2.7015005e-08 -0.16631635 -0.0074621267 0
1.7084259e-08 -0.16644362 -0.0047188192 0
5.5521316e-09 -0.16641444 -0.0015331397 0
-5.5784368e-09 -0.1664568 0.0015416114 0
-1.7166007e-08 -0.16644989 0.0047426065 0
-2.6033858e-08 -0.16627721 0.007192295 0
-3.4191569e-08 -0.16654629 0.0094458135 0
-0.0091491602 -0.16363859 -0.003921424 0
-0.0098179262 -0.16356137 -0.0014930469 0
-0.0098117292 -0.16343118 0.0015378138 0
-0.0092670005 -0.16354389 0.0036397891 0
-0.0070449109 -0.16354446 -0.0070296559 0
-0.0085753184 -0.16342179 -0.0050844173 0
-0.0084917694 -0.16333558 0.005210252 0
-0.0069759553 -0.16368619 0.0070848255 0
-0.0036728282 -0.16324054 -0.0092523964 0
-0.0052383724 -0.16337775 -0.0084696654 0
-0.0051570409 -0.16347077 0.0085271792 0
-0.0037566035 -0.16374588 0.0092186742 0
-0.001610958 -0.16341726 -0.0098006297 0
-0.001647052 -0.16362055 0.0097962245 0
3.4536182e-08 -0.16362597 -0.0095398156 0
2.70835e-08 -0.16365519 -0.0074810577 0
1.641666e-08 -0.1634025 -0.0045344098 0
5.2960059e-09 -0.16358492 -0.0014623968 0
-5.4481153e-09 -0.1636139 0.0015056006 0
-1.6692153e-08 -0.16359709 0.004611697 0
-2.7553105e-08 -0.16335157 0.0076119672 0
-3.4634013e-08 -0.16362049 0.0095680254 0
-0.0092695318 -0.16075616 -0.0036325492 0
-0.009815908 -0.16056368 -0.0015119069 0
-0.009813901 -0.1603705 0.001571628 0
-0.0092398571 -0.16048348 0.0037049223 0
-0.0071105603 -0.16029157 -0.0069578211 0
-0.0085017215 -0.16063589 -0.0052091843 0
-0.0085249869 -0.16021693 0.005181862 0
-0.0071126474 -0.16031322 0.0069306321 0
-0.0033762483 -0.16065542 -0.0093759811 0
-0.0051141586 -0.16037761 -0.0085546914 0
-0.0051737218 -0.16054036 0.0085316906 0
-0.0036211857 -0.1605342 0.0092750881 0
-0.0014907089 -0.16041003 -0.0098203514 0
-0.0013858349 -0.16059624 0.0098344618 0
3.4832496e-08 -0.16060463 -0.0096216816 0
2.7451218e-08 -0.16052593 -0.0075826491 0
1.7071262e-08 -0.16057912 -0.0047152499 0
5.4271903e-09 -0.16040653 -0.0014986473 0
-6.4764545e-09 -0.16060491 0.0017896621 0
-1.6161685e-08 -0.16041276 0.0044651469 0
-2.7263441e-08 -0.16031793 0.0075319381 0
-3.3910528e-08 -0.16083121 0.009368157 0
-0.0093360515 -0.15734325 -0.0034729112 0
-0.0098573221 -0.15767063 -0.001217956 0
-0.0097908108 -0.15748918 0.0017208308 0
-0.0092483694 -0.15742429 0.0036844816 0
-0.0071171434 -0.15752813 -0.0069530029 0
-0.0085186036 -0.15732603 -0.0051881028 0
-0.0086165564 -0.15765028 0.0050126645 0
-0.0070238174 -0.15778145 0.0070384061 0
-0.0035860096 -0.1574342 -0.0092885932 0
-0.0052056247 -0.15723884 -0.0085050045 0
-0.0052789473 -0.15736739 0.0084595978 0
-0.0036464767 -0.15725948 0.0092645371 0
-0.0014127041 -0.15761302 -0.0098272972 0
-0.0015375043 -0.15763342 0.00981302 0
3.4268481e-08 -0.15736829 -0.0094658872 0
2.7143997e-08 -0.15763216 -0.0074977917 0
1.6485984e-08 -0.15751459 -0.0045535816 0
5.5680438e-09 -0.15747467 -0.0015375677 0
-5.5711524e-09 -0.15769815 0.0015395675 0
-1.5548094e-08 -0.15770343 0.0042956364 0
-2.7139318e-08 -0.15751627 0.0074976403 0
-3.4109451e-08 -0.15722857 0.0094230948 0
-0.0092200069 -0.15413159 -0.0037514302 0
-0.009796205 -0.154496 -0.0016487072 0
-0.0098465187 -0.15447049 0.0012770046 0
-0.0092476495 -0.15431222 0.0036862006 0
-0.0071001612 -0.15461406 -0.0069913589 0
-0.0086478805 -0.15433224 -0.0049757166 0
-0.0085913502 -0.15434776 0.0050419043 0
-0.0070841899 -0.15462549 0.0069744536 0
-0.003550957 -0.15438299 -0.0093032084 0
-0.0050911736 -0.15462999 -0.0085757673 0
-0.0052368762 -0.15421334 0.0084874425 0
-0.0035132407 -0.15448098 0.0093200421 0
-0.0017666634 -0.15454933 -0.0097845225 0
-0.0014915908 -0.15437923 0.009826256 0
3.3906268e-08 -0.15439068 -0.009365839 0
2.6329527e-08 -0.1546455 -0.0072728102 0
1.6652965e-08 -0.1545027 -0.0045997198 0
5.7428844e-09 -0.15465216 -0.0015858767 0
-5.2292526e-09 -0.15436201 0.0014451076 0
-1.7016907e-08 -0.15429801 0.0047013741 0
-2.6517634e-08 -0.15456861 0.0073258933 0
-3.4421639e-08 -0.1544591 0.009509325 0
-0.0092423866 -0.15146115 -0.0036977259 0
-0.0098154722 -0.15148966 -0.0015611007 0
-0.0098179877 -0.151466 0.0015094213 0
-0.0092907324 -0.15125225 0.0035827879 0
-0.0069587193 -0.15149081 -0.0071284999 0
-0.0086216796 -0.15154696 -0.0050290339 0
-0.0084542558 -0.1513743 0.0052764546 0
-0.0070888977 -0.15157582 0.0069861142 0
-0.0035705909 -0.15166795 -0.0092950379 0
-0.0049845767 -0.15129288 -0.0086366255 0
-0.0049982741 -0.15120806 0.0086221322 0
-0.0035153804 -0.15183644 0.0093191424 0
-0.001600056 -0.15143758 -0.0098052826 0
-0.0013433947 -0.15146583 0.0098389806 0
3.4237392e-08 -0.15161483 -0.00945732 0
2.7534735e-08 -0.15172149 -0.007605752 0
1.6533074e-08 -0.15155254 -0.0045666113 0
5.1298477e-09 -0.15184739 -0.0014165391 0
-5.4558704e-09 -0.15168764 0.0015076997 0
-1.5942708e-08 -0.15132086 0.0044046226 0
-2.7692309e-08 -0.15161382 0.0076503791 0
-3.4705138e-08 -0.151738 0.0095876306 0
-0.0092709195 -0.1483769 -0.0036292588 0
-0.0097972183 -0.14856233 -0.0016338843 0
-0.0098182634 -0.1483992 0.0015116899 0
-0.0092504481 -0.14863969 0.0036794615 0
-0.0070664017 -0.14874355 -0.0069924621 0
-0.0084453197 -0.14849716 -0.0053081666 0
-0.0084047355 -0.14841661 0.0053413622 0
-0.0070259487 -0.14838409 0.0070355297 0
-0.0037345605 -0.1485285 -0.0092267301 0
-0.005139987 -0.14848641 -0.0085355872 0
-0.0052052909 -0.14854497 0.0084995246 0
-0.0037304678 -0.14867474 0.009229512 0
-0.0016485761 -0.14839917 -0.009801494 0
-0.0013973291 -0.14863108 0.0098296236 0
3.4024701e-08 -0.14833771 -0.0093985768 0
2.7676615e-08 -0.14829254 -0.0076449574 0
1.6818134e-08 -0.14842492 -0.004645369 0
5.5460152e-09 -0.14840369 -0.0015315153 0
-6.2820393e-09 -0.14855306 0.0017359124 0
-1.5928816e-08 -0.14832756 0.0044007744 0
-2.7638892e-08 -0.14818412 0.0076356102 0
-3.434922e-08 -0.148156 0.0094892969 0
-0.0092615988 -0.14522164 -0.0036516425 0
-0.0098179393 -0.14558688 -0.0014981282 0
-0.0098190401 -0.14528804 0.00151943 0
-0.0092580998 -0.14561012 0.0036610884 0
-0.0070343618 -0.14552732 -0.0070558563 0
-0.0085009234 -0.14556037 -0.0052113752 0
-0.0086089745 -0.14563555 0.0050279656 0
-0.0069681788 -0.14541575 0.0070928857 0
-0.0036175635 -0.14568891 -0.0092754886 0
-0.0050360374 -0.14572555 -0.00860749 0
-0.0051168636 -0.14555299 0.0085469 0
-0.0036165714 -0.14537594 0.0092769563 0
-0.0013771472 -0.14564537 -0.0098359175 0
-0.0016492009 -0.14567502 0.0097971447 0
3.3713416e-08 -0.14579359 -0.0093125952 0
2.7491646e-08 -0.14541852 -0.007593872 0
1.6620913e-08 -0.1453494 -0.0045908988 0
4.937565e-09 -0.14551432 -0.0013634452 0
-4.8051016e-09 -0.14571463 0.0013279072 0
-1.5476902e-08 -0.14537238 0.004275925 0
-2.6869351e-08 -0.14584827 0.0074230209 0
-3.4467625e-08 -0.14572407 0.0095219966 0
-0.0092482893 -0.1424484 -0.0036835943 0
-0.0098249782 -0.142552 -0.0014721954 0
-0.0098078744 -0.14248452 0.0016015526 0
-0.0092897546 -0.1424536 0.0035851034 0
-0.0070831738 -0.14234942 -0.0069927485 0
-0.0084244069 -0.1424761 -0.0053188181 0
-0.0085372841 -0.14272553 0.0051482557 0
-0.0069485269 -0.14265376 0.0071375365 0
-0.003691402 -0.14254907 -0.0092447316 0
-0.0051504923 -0.142336 -0.0085281609 0
-0.0050350628 -0.14260556 0.0086050332 0
-0.0036175277 -0.14266784 0.0092765465 0
-0.0015073743 -0.14240868 -0.0098146377 0
-0.0014615145 -0.14263965 0.0098250797 0
3.4510649e-08 -0.14217407 -0.0095328391 0
2.6922425e-08 -0.14236392 -0.0074366387 0
1.6513399e-08 -0.14240497 -0.0045612091 0
5.7087886e-09 -0.14252596 -0.0015765018 0
-5.6327236e-09 -0.14222926 0.0015565201 0
-1.6437239e-08 -0.14259997 0.0045412024 0
-2.6857808e-08 -0.14237517 0.0074198199 0
-3.4593224e-08 -0.14232461 0.00955668 0
-0.0092640175 -0.13936587 -0.0036458587 0
-0.0098304963 -0.13963775 -0.0014329646 0
-0.0098098302 -0.13961913 0.0016203884 0
-0.009251669 -0.1391951 0.0036764981 0
-0.0070433835 -0.13952152 -0.0070132306 0
-0.0085894 -0.1395061 -0.0050550113 0
-0.0085465992 -0.13943443 0.0051225978 0
-0.00705165 -0.13938291 0.0070245825 0
-0.0036574504 -0.13926905 -0.0092588905 0
-0.0051684291 -0.13962725 -0.0085146446 0
-0.0051136408 -0.13954066 0.0085581858 0
-0.0036850963 -0.13951595 0.0092483824 0
-0.0014793617 -0.13963468 -0.0098205525 0
-0.0013577518 -0.13921455 0.009839911 0
3.4403651e-08 -0.13932152 -0.0095032919 0
2.7654313e-08 -0.13966724 -0.0076388279 0
1.6064563e-08 -0.13958521 -0.0044372315 0
5.1926525e-09 -0.13983978 -0.0014339321 0
-6.0479257e-09 -0.13945261 0.001671207 0
-1.5801211e-08 -0.13946813 0.0043654921 0
-2.76266e-08 -0.13939862 0.0076321829 0
-3.4329577e-08 -0.13930756 0.0094838385 0
-0.0092240721 -0.13648388 -0.0037417333 0
-0.0098701091 -0.1363644 -0.0011125086 0
-0.0098142764 -0.13646378 0.0015608422 0
-0.009314538 -0.13626763 0.0035256017 0
-0.0069904937 -0.13653439 -0.0071014864 0
-0.0085218707 -0.13634506 -0.0051634861 0
-0.0085239764 -0.13680977 0.005169272 0
-0.007014676 -0.13625164 0.0070552444 0
-0.003672787 -0.13651976 -0.00925251 0
-0.005069287 -0.1364433 -0.0085933739 0
-0.0051563689 -0.13626812 0.0085103707 0
-0.0037945707 -0.13648339 0.0092027569 0
-0.0013552346 -0.13660803 -0.0098351771 0
-0.0015604784 -0.13648871 0.0098167406 0
3.4369638e-08 -0.13638924 -0.009493907 0
2.6668072e-08 -0.1366749 -0.0073663965 0
1.6123364e-08 -0.13640882 -0.0044534863 0
5.3948761e-09 -0.13655773 -0.001489807 0
-5.7447815e-09 -0.13626476 0.0015874538 0
-1.6728384e-08 -0.13648394 0.0046216073 0
-2.6945857e-08 -0.13660584 0.0074441219 0
-3.47518e-08 -0.13655733 0.0096004652 0
-0.0092698419 -0.13335264 -0.0036319026 0
-0.0098251505 -0.13369782 -0.0014374622 0
-0.009820425 -0.13333365 0.0014821549 0
-0.0092780096 -0.13340718 0.0036132582 0
-0.0070707924 -0.13349392 -0.0070069204 0
-0.0085235583 -0.13356847 -0.0051611904 0
-0.0086422926 -0.13372222 0.0049746498 0
-0.0069594081 -0.13342863 0.0070950314 0
-0.0036735907 -0.1334437 -0.0092521859 0
-0.0051259771 -0.13329376 -0.0085538365 0
-0.0051216902 -0.13354115 0.0085458215 0
-0.0036838094 -0.13320147 0.0092488965 0
-0.0016198064 -0.13351496 -0.0097979493 0
-0.0013848223 -0.13362059 0.0098329401 0
3.4226105e-08 -0.13348262 -0.0094542671 0
2.6260478e-08 -0.13352151 -0.0072538122 0
1.5508819e-08 -0.13315779 -0.0042837341 0
5.7251652e-09 -0.13358891 -0.001581058 0
-5.0185065e-09 -0.13356972 0.001386815 0
-1.6458056e-08 -0.1336478 0.0045469208 0
-2.7038366e-08 -0.13353813 0.0074696657 0
-3.487402e-08 -0.1336581 0.0096342182 0
-0.0091976607 -0.13070969 -0.0038051433 0
-0.0098596411 -0.13074428 -0.0011677559 0
-0.0098327529 -0.13035306 0.0014171735 0
-0.0092607532 -0.13054509 0.0036546618 0
-0.0070914044 -0.13060844 -0.0069834553 0
-0.0084484695 -0.13062817 -0.0052975034 0
-0.0084999707 -0.13027756 0.0052162353 0
-0.0070576542 -0.13058148 0.0070262174 0
-0.0037152523 -0.13022086 -0.0092348391 0
-0.0054189949 -0.13053824 -0.0083631165 0
-0.0051889378 -0.1301896 0.0085135428 0
-0.0035400819 -0.13075389 0.0093087731 0
-0.001637085 -0.13091086 -0.0098027587 0
-0.0013942047 -0.13031356 0.0098331422 0
3.3689151e-08 -0.13086475 -0.0093059465 0
2.7563678e-08 -0.13031243 -0.0076138247 0
1.7175539e-08 -0.13061213 -0.0047441642 0
5.5724212e-09 -0.13029628 -0.0015388754 0
-5.909317e-09 -0.13045944 0.0016328847 0
-1.6604828e-08 -0.13068318 0.0045874547 0
-2.6569747e-08 -0.13061315 0.0073402016 0
-3.4555665e-08 -0.1304317 0.0095462622 0
-0.0092618801 -0.12753518 -0.0036510264 0
-0.0097842347 -0.12747249 -0.0017621903 0
-0.0098060668 -0.12764639 0.0016063999 0
-0.009302821 -0.12728953 0.0035536906 0
-0.0071954397 -0.12778255 -0.0068513695 0
-0.0085470071 -0.12765513 -0.0051315483 0
-0.0085577313 -0.12750518 0.0051194248 0
-0.0070979754 -0.12752831 0.0069687697 0
-0.003816474 -0.12800477 -0.0091926726 0
-0.0052348599 -0.1273946 -0.0084922928 0
-0.0050333054 -0.12756193 0.0086025726 0
-0.0036500022 -0.12770112 0.0092629623 0
-0.0014210849 -0.12763217 -0.0098236641 0
-0.0015396732 -0.1275401 0.0098176012 0
3.4412391e-08 -0.12762904 -0.0095057497 0
2.728798e-08 -0.12762825 -0.0075376746 0
1.6721453e-08 -0.12733534 -0.0046187374 0
4.2763171e-09 -0.12734883 -0.0011808453 0
-5.768833e-09 -0.12746938 0.001594066 0
-1.7320186e-08 -0.12733436 0.0047850558 0
-2.7201155e-08 -0.12750618 0.0075146132 0
-3.4590517e-08 -0.12769802 0.009555879 0
-0.0092815571 -0.12463529 -0.003603816 0
-0.0098169064 -0.12424824 -0.001481259 0
-0.0097952578 -0.12462857 0.0016645624 0
-0.0093382653 -0.12436075 0.0034686101 0
-0.0069223219 -0.12433758 -0.0071458803 0
-0.0085467994 -0.12452079 -0.0051273527 0
-0.0085501643 -0.12458663 0.005165569 0
-0.0068746866 -0.12453939 0.0072004092 0
-0.0036532541 -0.12467767 -0.0092606926 0
-0.005163738 -0.12457842 -0.0085359905 0
-0.0052264873 -0.1243792 0.0085037071 0
-0.0036360554 -0.1244093 0.0092687625 0
-0.0014046504 -0.12449931 -0.0098296106 0
-0.001493487 -0.12429126 0.009815339 0
3.4215233e-08 -0.12412803 -0.009451299 0
2.7367681e-08 -0.1246513 -0.0075597023 0
1.6146403e-08 -0.12442525 -0.0044598943 0
5.289619e-09 -0.12440253 -0.0014607743 0
-5.6113802e-09 -0.12425473 0.0015505591 0
-1.6164185e-08 -0.1244809 0.0044657071 0
-2.6327712e-08 -0.12456169 0.0072733192 0
-3.4708542e-08 -0.12486843 0.0095884725 0
-0.0092122294 -0.12137807 -0.0037702138 0
-0.009821007 -0.12150798 -0.0014915582 0
-0.0098224096 -0.12140217 0.0014785243 0
-0.0092585962 -0.12171049 0.0036598078 0
-0.0070939469 -0.12128367 -0.006993934 0
-0.0084627299 -0.12164375 -0.0052617337 0
-0.0084262695 -0.1214406 0.0053335726 0
-0.007161933 -0.12174691 0.0069050356 0
-0.0036200155 -0.12148233 -0.0092745544 0
-0.0052212118 -0.12163216 -0.008503478 0
-0.0051783365 -0.12143835 0.0085115489 0
-0.0036637755 -0.12146605 0.009257202 0
-0.001507044 -0.12152278 -0.0098161465 0
-0.0012516484 -0.1215803 0.0098534115 0
3.445685e-08 -0.12134141 -0.0095180534 0
2.7572071e-08 -0.12149624 -0.0076161753 0
1.6172372e-08 -0.12113346 -0.0044670794 0
4.5666679e-09 -0.12147383 -0.0012610742 0
-6.185489e-09 -0.12180512 0.0017091442 0
-1.7137607e-08 -0.12155399 0.0047345986 0
-2.7301152e-08 -0.12127377 0.0075422144 0
-3.444045e-08 -0.12122963 0.0095144007 0
-0.0091922283 -0.11879143 -0.0038182228 0
-0.0098208133 -0.11848652 -0.0014603506 0
-0.0098446934 -0.11834349 0.0012539079 0
-0.0092762345 -0.11839385 0.0036174639 0
-0.0069756699 -0.11851054 -0.0070876684 0
-0.0085412301 -0.11834363 -0.0051607257 0
-0.0085307332 -0.11855799 0.0051565641 0
-0.0069773537 -0.11844548 0.007125672 0
-0.003629019 -0.11804926 -0.0092708152 0
-0.0052839504 -0.11864793 -0.0084617082 0
-0.0051639918 -0.11847936 0.0085250447 0
-0.0034340832 -0.11812931 0.0093528945 0
-0.0014782724 -0.11842874 -0.0098246578 0
-0.0016032854 -0.11847628 0.0098058106 0
3.4573699e-08 -0.11851208 -0.0095503423 0
2.7300478e-08 -0.1184492 -0.0075411601 0
1.6828503e-08 -0.11863053 -0.0046483409 0
5.397371e-09 -0.11841196 -0.0014905619 0
-6.3806649e-09 -0.11849761 0.0017630483 0
-1.6930978e-08 -0.11838395 0.0046775066 0
-2.7597153e-08 -0.11829983 0.0076239719 0
-3.4080998e-08 -0.11870542 0.0094150957 0
-0.0093153715 -0.11583816 -0.0035226932 0
-0.0098436866 -0.11544885 -0.0013076382 0
-0.0098205721 -0.11543497 0.0014644976 0
-0.0092398878 -0.11570621 0.0037046855 0
-0.0071349875 -0.11558633 -0.006921439 0
-0.0084109558 -0.11560562 -0.005313924 0
-0.0084234262 -0.11538478 0.0053253467 0
-0.0069315988 -0.11565073 0.0071287639 0
-0.0036338817 -0.1155449 -0.0092687979 0
-0.0053040772 -0.11541282 -0.0084461933 0
-0.0052724034 -0.11541352 0.0084459269 0
-0.0037096036 -0.11552641 0.0092380838 0
-0.0016170559 -0.11542333 -0.0098017929 0
-0.001481461 -0.11555399 0.0098206503 0
3.4787508e-08 -0.11547302 -0.0096094171 0
2.7474469e-08 -0.11547651 -0.007589235 0
1.7333349e-08 -0.11545037 -0.0047878134 0
5.7782814e-09 -0.11544349 -0.0015957968 0
-5.5396012e-09 -0.11553217 0.0015306991 0
-1.5766473e-08 -0.11523262 0.0043558083 0
-2.6819185e-08 -0.11539371 0.0074090525 0
-3.402025e-08 -0.11525606 0.0093983021 0
-0.0092039825 -0.11217353 -0.0037900356 0
-0.0098304749 -0.11226153 -0.0013741648 0
-0.0098421248 -0.11254273 0.0013426181 0
-0.0093035726 -0.11224826 0.003551828 0
-0.0069693555 -0.11249148 -0.0071102614 0
-0.0085149836 -0.11212824 -0.005192 0
-0.0085411891 -0.11252387 0.0051457519 0
-0.0068587181 -0.11259413 0.0072127567 0
-0.0035955086 -0.11242705 -0.0092847981 0
-0.0051290453 -0.11252975 -0.0085447077 0
-0.0050047231 -0.11252903 0.008632482 0
-0.0035884066 -0.11263986 0.0092885727 0
-0.0015582299 -0.11238573 -0.0098148743 0
-0.0015068788 -0.11261524 0.0098186852 0
3.378381e-08 -0.11264025 -0.0093321614 0
2.5777174e-08 -0.11249058 -0.0071203788 0
1.6565679e-08 -0.11265119 -0.0045757587 0
5.6091469e-09 -0.11233739 -0.0015490857 0
-5.9522023e-09 -0.11248397 0.0016446664 0
-1.6956688e-08 -0.11230774 0.0046845875 0
-2.6729456e-08 -0.11245309 0.0073842546 0
-3.4410363e-08 -0.11247426 0.0095060579 0
-0.0092895515 -0.1096219 -0.003584682 0
-0.0097691463 -0.10956056 -0.0018771752 0
-0.0098198531 -0.10936033 0.0015303568 0
-0.009227477 -0.10939989 0.0037344522 0
-0.0069670719 -0.1094713 -0.0071057146 0
-0.0084857708 -0.10947587 -0.0052366857 0
-0.008521501 -0.10961626 0.0051690368 0
-0.0070241098 -0.10959129 0.0070484462 0
-0.0036293203 -0.10960162 -0.0092707202 0
-0.005323356 -0.10943094 -0.0084340889 0
-0.0052204938 -0.10953913 0.0084977634 0
-0.0037430034 -0.10947154 0.0092241447 0
-0.0015089768 -0.10950807 -0.0098178582 0
-0.0017326499 -0.10972762 0.0097909654 0
3.4453503e-08 -0.10956896 -0.0095171714 0
2.6084756e-08 -0.10950603 -0.0072053568 0
1.6303435e-08 -0.10946287 -0.0045033274 0
5.2821982e-09 -0.10964835 -0.0014587778 0
-5.4014295e-09 -0.10939018 0.0014925078 0
-1.6004865e-08 -0.10949385 0.0044216416 0
-2.6652852e-08 -0.1094735 0.0073630828 0
-3.4728387e-08 -0.10957365 0.0095939003 0
-0.0092653362 -0.10635544 -0.0036428119 0
-0.0098301955 -0.10632357 -0.0014406976 0
-0.0098027345 -0.10660977 0.0016017562 0
-0.0092902407 -0.1065668 0.0035838077 0
-0.0069604558 -0.10651061 -0.0071112616 0
-0.0084208166 -0.10654321 -0.0053221565 0
-0.0085265357 -0.10657153 0.0051649683 0
-0.0070809685 -0.1064541 0.0069857049 0
-0.0035016155 -0.10626804 -0.0093239425 0
-0.0051019774 -0.10658925 -0.00858045 0
-0.0050933226 -0.10624594 0.0085843094 0
-0.0036492315 -0.10658775 0.0092632053 0
-0.0014774653 -0.10660571 -0.0098260017 0
-0.0013335545 -0.10678149 0.0098345252 0
3.4381635e-08 -0.10626747 -0.0094973305 0
2.6974131e-08 -0.10655753 -0.0074510523 0
1.6075356e-08 -0.10635182 -0.0044403332 0
5.2304436e-09 -0.10625803 -0.0014444932 0
-5.8044014e-09 -0.10659588 0.0016038161 0
-1.6048409e-08 -0.10661679 0.0044336603 0
-2.7578988e-08 -0.10665145 0.0076189116 0
-3.382786e-08 -0.10604475 0.0093451217 0
-0.0092513086 -0.10385502 -0.0036764853 0
-0.0098009994 -0.10354806 -0.0016345386 0
-0.0098478459 -0.10331734 0.0012726823 0
-0.009301953 -0.1032361 0.0035556862 0
-0.0070703467 -0.10311514 -0.007018229 0
-0.0085430639 -0.10356046 -0.0051191412 0
-0.008518002 -0.10345203 0.0051653408 0
-0.0070770583 -0.10339138 0.0070051407 0
-0.0036049404 -0.10343712 -0.0092808995 0
-0.005130419 -0.103665 -0.0085491752 0
-0.0052075754 -0.10351368 0.0084903715 0
-0.0035582343 -0.10342737 0.009301113 0
-0.0013690493 -0.10363844 -0.0098364353 0
-0.0013234762 -0.10342281 0.009840521 0
3.465296e-08 -0.10323504 -0.0095722936 0
2.7799873e-08 -0.10338146 -0.0076791695 0
1.5453681e-08 -0.10366216 -0.004268609 0
5.5143112e-09 -0.10346486 -0.0015229201 0
-5.8224496e-09 -0.10348627 0.0016087905 0
-1.6748471e-08 -0.10342131 0.0046270364 0
-2.7001898e-08 -0.10350136 0.0074594831 0
-3.4246693e-08 -0.10309973 0.0094608115 0
-0.0092730308 -0.10023762 -0.0036243703 0
-0.009816709 -0.10054392 -0.0014948273 0
-0.0097887563 -0.10047412 0.0017191337 0
-0.0092448229 -0.10041033 0.0036927855 0
-0.0070683379 -0.10042622 -0.0069819521 0
-0.0084948996 -0.10065656 -0.005236649 0
-0.0085821636 -0.10040163 0.0050774706 0
-0.0070451247 -0.10054595 0.0070298412 0
-0.003695816 -0.10034808 -0.0092430459 0
-0.0051468979 -0.10052902 -0.0085301213 0
-0.0052793459 -0.10045785 0.0084600821 0
-0.003441564 -0.10072895 0.009349715 0
-0.001563394 -0.10056785 -0.0098114666 0
-0.0013317387 -0.10049372 0.0098407101 0
3.4340779e-08 -0.1006435 -0.0094860643 0
2.6321864e-08 -0.10058692 -0.0072708889 0
1.6325798e-08 -0.10031216 -0.0045095379 0
4.8081841e-09 -0.1004174 -0.0013278677 0
-5.504289e-09 -0.1002956 0.0015208891 0
-1.6581561e-08 -0.10051241 0.0045809178 0
-2.7148726e-08 -0.10068002 0.0075000329 0
-3.4047424e-08 -0.10078462 0.0094057564 0
-0.0092498679 -0.097455218 -0.0036799668 0
-0.0098513905 -0.097668663 -0.0012684047 0
-0.0098351482 -0.09749271 0.0013905327 0
-0.0092453044 -0.097193025 0.0036916202 0
-0.0069787074 -0.097698614 -0.0070993188 0
-0.0085031567 -0.097387306 -0.0052259336 0
-0.0086473264 -0.097572416 0.0049676611 0
-0.0070739873 -0.097512297 0.0069887657 0
-0.0036517056 -0.097488329 -0.0092614368 0
-0.0048462148 -0.097352043 -0.0087297745 0
-0.0051810937 -0.097284913 0.008520171 0
-0.0036658868 -0.09763281 0.0092562335 0
-0.0014736676 -0.09763062 -0.0098144971 0
-0.0015437272 -0.097551115 0.0098128105 0
3.4166234e-08 -0.097567081 -0.0094378591 0
2.6455847e-08 -0.097558029 -0.0073079122 0
1.6271173e-08 -0.097529553 -0.0044944584 0
5.4597447e-09 -0.097380333 -0.0015078684 0
-5.2268159e-09 -0.097428031 0.0014442285 0
-1.7229343e-08 -0.097369574 0.0047598528 0
-2.7077158e-08 -0.09750326 0.0074802511 0
-3.4560852e-08 -0.0978387 0.0095475763 0
-0.0092942528 -0.094090044 -0.0035734526 0
-0.0098015992 -0.094461009 -0.0016402558 0
-0.0098511484 -0.094285637 0.0012645511 0
-0.0093112113 -0.094402365 0.0035334318 0
-0.0070011453 -0.094664201 -0.0070947879 0
-0.008380251 -0.09443178 -0.005396862 0
-0.0085726297 -0.094815984 0.0051099206 0
-0.0070569236 -0.094339527 0.007014656 0
-0.0036359751 -0.094439812 -0.0092680017 0
-0.0051957057 -0.094693571 -0.00849979 0
-0.0050894092 -0.094332956 0.0085687712 0
-0.0035746575 -0.094390057 0.009294237 0
-0.0017646122 -0.094404161 -0.0097811101 0
-0.0015444127 -0.094660886 0.0098206624 0
3.476471e-08 -0.094553947 -0.0096031949 0
2.7114178e-08 -0.09438961 -0.0074897828 0
1.5555472e-08 -0.094691887 -0.0042967605 0
5.4613367e-09 -0.094484769 -0.0015083186 0
-6.0669652e-09 -0.094494209 0.0016763038 0
-1.6079582e-08 -0.094552241 0.004442228 0
-2.7424361e-08 -0.09474346 0.0075761541 0
-3.4396756e-08 -0.094366349 0.0095022339 0
-0.0092127807 -0.091426402 -0.0037689924 0
-0.0098307915 -0.09162268 -0.0014506888 0
-0.0097678611 -0.091276489 0.0018800723 0
-0.0092421733 -0.091415964 0.0036991131 0
-0.007209823 -0.091404133 -0.0068588965 0
-0.0085163666 -0.091455393 -0.0051842462 0
-0.0084962202 -0.091433689 0.0052052848 0
-0.0070632915 -0.091645278 0.0070176367 0
-0.0036766694 -0.091294475 -0.0092510562 0
-0.0052860389 -0.091399632 -0.0084413523 0
-0.0050343676 -0.091278158 0.0086101862 0
-0.0037160404 -0.09152744 0.0092353178 0
-0.0013731414 -0.0914682 -0.0098346816 0
-0.0012796881 -0.09168978 0.0098448256 0
3.4295024e-08 -0.091273367 -0.0094734589 0
2.7634835e-08 -0.091356866 -0.0076336223 0
1.5641826e-08 -0.09156964 -0.0043206266 0
4.7466497e-09 -0.091614217 -0.0013109011 0
-4.8689501e-09 -0.091507271 0.0013453487 0
-1.6983595e-08 -0.091420494 0.0046919445 0
-2.7410747e-08 -0.091593936 0.0075723818 0
-3.4049236e-08 -0.091309145 0.009406223 0
-0.0091994852 -0.088570133 -0.0038009163 0
-0.0098199956 -0.088327624 -0.0015206978 0
-0.0098258052 -0.088461243 0.0014337698 0
-0.0092829224 -0.088820182 0.003601307 0
-0.0070761726 -0.088504449 -0.0069720382 0
-0.0085102813 -0.088390753 -0.0051724915 0
-0.0084764268 -0.088553801 0.0052509806 0
-0.0069934078 -0.088359796 0.0070702136 0
-0.0037081239 -0.088581257 -0.0092379609 0
-0.0052923262 -0.088676475 -0.0084399357 0
-0.0053305449 -0.088349268 0.0084269745 0
-0.0036471896 -0.088475302 0.0092639932 0
-0.001656019 -0.088426098 -0.0097969677 0
-0.0017741714 -0.088550404 0.0097858431 0
3.4282603e-08 -0.088750832 -0.0094700372 0
2.7391406e-08 -0.088250972 -0.0075663882 0
1.6114234e-08 -0.0883485 -0.004451138 0
4.9906088e-09 -0.088641308 -0.0013783041 0
-5.2222218e-09 -0.08845564 0.0014429269 0
-1.6125739e-08 -0.088489622 0.0044549564 0
-2.6691444e-08 -0.08854378 0.0073736673 0
-3.445059e-08 -0.08880157 0.0095170848 0
-0.0092489626 -0.085835457 -0.0036821796 0
-0.0097984048 -0.085463703 -0.0016411074 0
-0.0098238243 -0.085717328 0.0015116057 0
-0.0092525668 -0.085417248 0.0036741483 0
-0.0070010535 -0.085854232 -0.0070733088 0
-0.0085458541 -0.085760206 -0.0051249657 0
-0.0085790576 -0.085281715 0.0050723837 0
-0.0071662534 -0.085406385 0.0068934644 0
-0.0036071965 -0.085478969 -0.009280026 0
-0.005081547 -0.085574523 -0.0085742036 0
-0.0052660159 -0.085185379 0.0084731337 0
-0.0035727322 -0.085298665 0.0092950054 0
-0.0013711123 -0.085442185 -0.0098351464 0
-0.0015965697 -0.085424192 0.0098113483 0
3.46908e-08 -0.085521691 -0.009582811 0
2.7906859e-08 -0.085105278 -0.0077087898 0
1.6324135e-08 -0.085288651 -0.0045091333 0
5.1185283e-09 -0.085388832 -0.0014136529 0
-5.4825522e-09 -0.085488603 0.0015148307 0
-1.6229837e-08 -0.085438035 0.0044837017 0
-2.6978203e-08 -0.08569847 0.0074528726 0
-3.4352855e-08 -0.08547987 0.0094900737 0
-0.0092409281 -0.082397722 -0.0037014768 0
-0.0098172026 -0.082520202 -0.0014648725 0
-0.0098250117 -0.082585223 0.0015086487 0
-0.0092814295 -0.082350485 0.003604864 0
-0.0071135336 -0.082492895 -0.0069425143 0
-0.008483232 -0.082362711 -0.0052471235 0
-0.0085315723 -0.082504772 0.0051593566 0
-0.007018296 -0.082498565 0.0070613506 0
-0.0035947179 -0.082638673 -0.0092852348 0
-0.005023465 -0.082589515 -0.0086196344 0
-0.0051907878 -0.082628965 0.0085186055 0
-0.0036472925 -0.082426347 0.0092639299 0
-0.0015185794 -0.082587019 -0.0098141786 0
-0.0015659182 -0.082616054 0.0098081902 0
3.4158187e-08 -0.082088023 -0.0094356919 0
2.7641814e-08 -0.082521096 -0.0076355822 0
1.6375417e-08 -0.082509391 -0.0045233094 0
5.2737374e-09 -0.082730979 -0.001456538 0
-4.6791024e-09 -0.082619488 0.0012928724 0
-1.7741117e-08 -0.082608521 0.0049011735 0
-2.7208216e-08 -0.082428128 0.0075164009 0
-3.4168096e-08 -0.082492761 0.0094390251 0
-0.009227152 -0.079753563 -0.00373455 0
-0.0098290006 -0.07928133 -0.0014169581 0
-0.0098210955 -0.07948114 0.0015230923 0
-0.0092718545 -0.079385124 0.0036278374 0
-0.0071084425 -0.079254977 -0.0069713332 0
-0.0084177926 -0.079463124 -0.0053339368 0
-0.0085157882 -0.079700693 0.0051792213 0
-0.0069672512 -0.079444766 0.0070928107 0
-0.0035226336 -0.079298139 -0.0093152812 0
-0.0052466313 -0.079489574 -0.0084713884 0
-0.0051885722 -0.079440035 0.0085181408 0
-0.0036694137 -0.079301231 0.0092546986 0
-0.0017569903 -0.079500094 -0.0097873863 0
-0.0013729066 -0.079337746 0.0098300036 0
3.4363417e-08 -0.079074338 -0.0094923964 0
2.7302878e-08 -0.079489611 -0.0075419643 0
1.6414949e-08 -0.07968688 -0.0045342403 0
5.5659664e-09 -0.079617821 -0.0015372757 0
-4.4488107e-09 -0.079539105 0.0012292445 0
-1.6485487e-08 -0.079531848 0.004554302 0
-2.7254549e-08 -0.079458892 0.0075291893 0
-3.4343422e-08 -0.079384878 0.0094874464 0
-0.009223707 -0.076321818 -0.0037428308 0
-0.009807949 -0.076658614 -0.0015764895 0
-0.00982867 -0.076254949 0.0014554653 0
-0.0093137985 -0.076570161 0.0035271617 0
-0.0068941782 -0.076741725 -0.0071751876 0
-0.0085552605 -0.076240644 -0.0051231836 0
-0.0085781384 -0.07633321 0.0050810971 0
-0.0070338952 -0.076773487 0.007047392 0
-0.0036575005 -0.076489925 -0.0092590963 0
-0.0050651152 -0.076418735 -0.0085839452 0
-0.0051125567 -0.076657638 0.0085644415 0
-0.0034814868 -0.076824635 0.0093329931 0
-0.0013808755 -0.076340638 -0.0098323077 0
-0.0016487954 -0.076483913 0.0098059382 0
3.3835331e-08 -0.076461866 -0.0093465252 0
2.7751019e-08 -0.076230586 -0.007665772 0
1.6444121e-08 -0.076279111 -0.0045423112 0
4.8030473e-09 -0.076378204 -0.0013265358 0
-5.1687654e-09 -0.07639236 0.0014281161 0
-1.6982344e-08 -0.076491475 0.0046915454 0
-2.7391964e-08 -0.076325968 0.0075671379 0
-3.4489204e-08 -0.076638654 0.0095277084 0
-0.0092629846 -0.073433824 -0.0036485728 0
-0.0098117357 -0.073615871 -0.0015757285 0
-0.0098197777 -0.073514134 0.0015315758 0
-0.0091955233 -0.07327918 0.0038110106 0
-0.0069977841 -0.07361187 -0.0070961509 0
-0.0086024161 -0.073604405 -0.0050323219 0
-0.0085451864 -0.073389396 0.0051374538 0
-0.0070082522 -0.073460288 0.0070577352 0
-0.0036382505 -0.073527351 -0.0092671281 0
-0.0051071737 -0.073281281 -0.008559227 0
-0.0050979895 -0.073495738 0.0085623376 0
-0.0036003117 -0.073559619 0.0092834709 0
-0.0015145037 -0.073423035 -0.0098150112 0
-0.0014494245 -0.073525622 0.0098248962 0
3.4035025e-08 -0.07372164 -0.0094016986 0
2.7585532e-08 -0.073544659 -0.0076200673 0
1.5117921e-08 -0.073426478 -0.0041759666 0
4.965544e-09 -0.073567316 -0.0013714347 0
-4.5160897e-09 -0.073429048 0.0012478078 0
-1.6637237e-08 -0.073583521 0.0045962008 0
-2.6986431e-08 -0.073594347 0.0074551017 0
-3.4757527e-08 -0.073282018 0.0096018184 0
-0.0096387248 -0.069739074 -0.0096487887 0
-0.0098093804 -0.069735363 -0.0072915242 0
-0.0095608188 -0.070380598 -0.0040301667 0
-0.0098935347 -0.07052397 -0.001377582 0
-0.0098772645 -0.070371635 0.0016101896 0
-0.0096628964 -0.07003022 0.0043030349 0
-0.009652609 -0.069788828 0.0073899324 0
-0.0096381037 -0.069708012 0.0096194409 0
-0.0074596275 -0.069885433 -0.0097149368 0
-0.0073591601 -0.070414573 -0.0075351866 0
-0.0086015835 -0.070771217 -0.0051593026 0
-0.0086186705 -0.070883065 0.0051117088 0
-0.0074801212 -0.070561133 0.0072186189 0
-0.0078138281 -0.069770582 0.009822892 0
-0.0041511902 -0.070196144 -0.0094657727 0
-0.0050045368 -0.071097702 -0.0086448248 0
-0.005121409 -0.070917904 0.0085574184 0
-0.0042720148 -0.070328005 0.009523239 0
-0.0015513945 -0.070545599 -0.0098743448 0
-0.0014314165 -0.070500873 0.0098869754 0
3.4992183e-08 -0.070534348 -0.0096661197 0
2.7466411e-08 -0.070528194 -0.0075871721 0
1.6679611e-08 -0.070646971 -0.0046073841 0
5.4430904e-09 -0.070505865 -0.001503365 0
-5.255508e-09 -0.07042446 0.0014520567 0
-1.5924055e-08 -0.070528433 0.0043991772 0
-2.8202974e-08 -0.070654824 0.0077911536 0
-3.4527766e-08 -0.070369475 0.0095383376 0
-0.0097615048 -0.067214735 -0.0097960131 0
-0.00999997 -0.067544483 -0.0074752243 0
-0.0099999812 -0.067430198 -0.0043878919 0
-0.0099999905 -0.067445494 -0.0015850003 0
-0.010000003 -0.067720659 0.0016869425 0
-0.010000015 -0.067343637 0.004593872 0
-0.010000025 -0.067410618 0.0077187927 0
-0.0097728772 -0.067231447 0.0097323703 0
-0.0073322016 -0.067645982 -0.0099997772 0
-0.0074850027 -0.067524016 0.010000214 0
-0.0046405019 -0.067476235 -0.0099997688 0
-0.0046027028 -0.067563117 0.010000225 0
-0.001518828 -0.067505412 -0.0099997576 0
-0.0014638836 -0.067560777 0.010000235 0
3.4426996e-08 -0.06744311 -0.0095100021 0
2.6790662e-08 -0.067496583 -0.0074005113 0
1.5948288e-08 -0.067637578 -0.0044053714 0
5.2921267e-09 -0.067536339 -0.0014616729 0
-6.0265037e-09 -0.067666158 0.0016650296 0
-1.6222396e-08 -0.067306012 0.0044815806 0
-2.7436748e-08 -0.067347497 0.007579477 0
-3.4387806e-08 -0.067604683 0.0094996644 0
-0.013427055 -0.063451096 -0.013654232 0
-0.013855192 -0.063460335 -0.010566367 0
-0.013761354 -0.063461319 -0.0074328817 0
-0.013650096 -0.063458875 -0.0046050441 0
-0.013655926 -0.063465104 -0.0015418238 0
-0.013652407 -0.063469008 0.0014487063 0
-0.013855177 -0.063432306 0.0043808888 0
-0.013630962 -0.063456036 0.0073974305 0
-0.013750703 -0.063456289 0.010289415 0
-0.01370619 -0.063427582 0.013810275 0
-0.01040002 -0.063481309 -0.013707776 0
-0.010285471 -0.064068444 -0.010207997 0
-0.010578121 -0.063974343 -0.0072631855 0
-0.010545229 -0.064089619 -0.0044194744 0
-0.010415804 -0.064192794 -0.0013068519 0
-0.010512407 -0.064212456 0.0015203861 0
-0.010397284 -0.064149737 0.0043743751 0
-0.010495123 -0.06428726 0.0076468675 0
-0.010466236 -0.06371595 0.010338018 0
-0.010360597 -0.063470148 0.013664145 0
-0.007515002 -0.063471578 -0.013441741 0
-0.0075285858 -0.064075939 -0.010452442 0
-0.0072828047 -0.064374626 0.010373905 0
-0.0073527419 -0.063460186 0.013926576 0
-0.0044897012 -0.063477971 -0.013711849 0
