# .PCD v0.7 - Point Cloud Data file format
VERSION 0.7
FIELDS x y z rgb
SIZE 4 4 4 4
TYPE F F F F
COUNT 1 1 1 1
WIDTH 1177
HEIGHT 1
VIEWPOINT 0 0 0 1 0 0 0
POINTS 1177
DATA ascii
0.02929027 -0.23249587 -0.028579392 0
0.027763207 -0.23233403 -0.025525279 0
0.027706983 -0.23254092 0.025415091 0
0.029314075 -0.23254041 0.028629309 0
0.031177428 -0.23263735 -0.029999046 0
0.031538609 -0.23229364 -0.029999033 0
0.031854734 -0.23161925 0.030000953 0
0.031275325 -0.23219755 0.030000953 0
0.034493059 -0.23242094 -0.029999036 0
0.034711536 -0.23239131 -0.029999027 0
0.034678906 -0.23252885 0.030000968 0
0.034475498 -0.23221135 0.03000096 0
0.037320007 -0.23260592 -0.029999023 0
0.037419274 -0.23246877 -0.029999012 0
0.037090193 -0.23269062 0.030000975 0
0.037874252 -0.23271379 0.030000972 0
0.039419029 -0.23250063 -0.029999016 0
0.039880626 -0.23266558 -0.028797014 0
0.040000089 -0.23278445 -0.025673786 0
0.04000007 -0.23266669 -0.0225867 0
0.040000055 -0.2323239 -0.019599698 0
0.040000048 -0.23270246 -0.01639921 0
0.04000004 -0.23249793 -0.013484196 0
0.040000029 -0.23266639 -0.010547004 0
0.040000029 -0.23243044 -0.0070850728 0
0.040000021 -0.2324506 -0.0046326015 0
0.039999999 -0.23256695 -0.0012997519 0
0.039999988 -0.23238117 0.0014762486 0
0.039999977 -0.23252089 0.0045895809 0
0.039999969 -0.23250659 0.0075329929 0
0.039999951 -0.23257124 0.010479617 0
0.039999943 -0.23224784 0.013388722 0
0.039999936 -0.23248774 0.016400931 0
0.039999925 -0.23264578 0.019254461 0
0.039999902 -0.2325142 0.022345642 0
0.039999913 -0.23266412 0.025566034 0
0.0399229 -0.23241812 0.028468879 0
0.039417595 -0.23223326 0.030000987 0
-0.0097571472 -0.22970912 -0.0097370176 0
-0.009999969 -0.22956397 -0.0077266567 0
-0.0099999793 -0.22930914 -0.0046683378 0
-0.0099999933 -0.22941123 -0.0018109005 0
-0.010000003 -0.22940449 0.0016662617 0
-0.010000016 -0.2295669 0.0045801266 0
-0.010000027 -0.22969589 0.0073483139 0
-0.0097193951 -0.22947028 0.0096753063 0
-0.0073821172 -0.22959055 -0.0099991942 0
-0.0071677836 -0.2293321 0.010000804 0
-0.0045176521 -0.2294258 -0.0099991849 0
-0.0045253709 -0.22967125 0.010000812 0
-0.0013536164 -0.22937489 -0.0099991718 0
-0.0013286727 -0.22976212 0.01000083 0
0.00098195765 -0.22980098 -0.009607885 0
0.00077683077 -0.22974357 -0.0075128158 0
0.00082130852 -0.22973953 -0.0043385322 0
0.0010308136 -0.22973064 -0.0013626493 0
0.00079186185 -0.22963104 0.0012857221 0
0.00058468751 -0.22959289 0.0043758461 0
0.0008226161 -0.22963786 0.0076854588 0
0.00085911591 -0.23001835 0.0097547323 0
0.004444662 -0.23038328 -0.0097069237 0
0.004775899 -0.23019995 -0.0074291034 0
0.0047452101 -0.23019993 -0.0044772248 0
0.0045752614 -0.2301999 -0.0014714936 0
0.0044752848 -0.23019995 0.0014764698 0
0.0046158805 -0.2301999 0.004500811 0
0.0043084808 -0.2301999 0.0074953889 0
0.0043390463 -0.23044334 0.0097382655 0
0.0077450657 -0.23042829 -0.0096884388 0
0.0073326901 -0.23019995 -0.0075610015 0
0.0074479738 -0.23019992 -0.0045867264 0
0.0075733839 -0.23019993 -0.0014974516 0
0.0078292256 -0.23019996 0.001691396 0
0.0074975826 -0.2301999 0.0045473548 0
0.0077632833 -0.23019989 0.0074316612 0
0.0075081103 -0.23031648 0.009733378 0
0.010181796 -0.2304028 -0.009699299 0
0.010464058 -0.23019996 -0.0076054404 0
0.010586414 -0.23019999 -0.0044538174 0
0.01050864 -0.2301999 -0.0015650007 0
0.010645639 -0.2301999 0.0014252263 0
0.010649385 -0.23019987 0.004431989 0
0.010670748 -0.23019993 0.0074894293 0
0.010537895 -0.23042934 0.0097964555 0
0.01340744 -0.23037706 -0.0097402846 0
0.013575656 -0.23019995 -0.0074220328 0
0.013426599 -0.23019993 -0.004714624 0
0.013634572 -0.23019995 -0.001659647 0
0.013548179 -0.2301999 0.0015539267 0
0.013614526 -0.2301999 0.0044668978 0
0.013501759 -0.23019993 0.0074010948 0
0.013644193 -0.23035866 0.0097832829 0
0.016908949 -0.23045105 -0.0097711943 0
0.016387125 -0.23019993 -0.0077539212 0
0.016328556 -0.23019993 -0.004583701 0
0.016536722 -0.23019993 -0.001626443 0
0.016332317 -0.23019993 0.0014747211 0
0.01675928 -0.2301999 0.0044131312 0
0.016219409 -0.23019987 0.0075428537 0
0.016304519 -0.23050579 0.0099116936 0
0.020107897 -0.23038971 -0.010080257 0
0.019553324 -0.23019995 -0.0074209459 0
0.019458033 -0.23019993 -0.0046293545 0
0.019573025 -0.23019989 -0.001641027 0
0.019427875 -0.2301999 0.0012696565 0
0.019386608 -0.2301999 0.0046152938 0
0.019564366 -0.23019989 0.0077027851 0
0.019757297 -0.2304206 0.010167054 0
0.02344596 -0.23037916 -0.016078485 0
0.022439849 -0.23040983 -0.013371006 0
0.022654973 -0.23019993 -0.010567058 0
0.022694733 -0.23019992 -0.0073625119 0
0.022403445 -0.23019998 -0.0044871573 0
0.022345619 -0.23019992 -0.0016003439 0
0.02216183 -0.23019993 0.0016665173 0
0.02246229 -0.23019989 0.0044077369 0
0.022393972 -0.23019992 0.0075331144 0
0.02257254 -0.23019986 0.010571517 0
0.02258227 -0.23033331 0.013506909 0
0.023211205 -0.23047429 0.016290136 0
0.026352987 -0.23025452 -0.022089092 0
0.025530549 -0.23029551 -0.019214995 0
0.025575237 -0.23019996 -0.016689057 0
0.025471484 -0.23019995 -0.013353206 0
0.025420835 -0.23019996 -0.010549976 0
0.025550464 -0.23019999 -0.007441564 0
0.025662338 -0.23019993 -0.0040758704 0
0.025786785 -0.23019992 -0.0016470869 0
0.02558998 -0.23019992 0.001239277 0
0.02546465 -0.23019989 0.0044568158 0
0.025381509 -0.23019987 0.0074781133 0
0.025688117 -0.23019986 0.010381762 0
0.025338413 -0.23019987 0.013396507 0
0.025393814 -0.23019987 0.016308205 0
0.025412574 -0.23031771 0.019218331 0
0.026280602 -0.23050816 0.022280363 0
0.029321644 -0.23043884 -0.028298892 0
0.02855386 -0.23028485 -0.025238521 0
0.028347507 -0.23019999 -0.022501122 0
0.02810324 -0.23019998 -0.019290162 0
0.028770765 -0.23019999 -0.016843269 0
0.028191259 -0.23019996 -0.013275268 0
0.028561682 -0.23019996 -0.010529893 0
0.028567512 -0.23019993 -0.0073796902 0
0.028527724 -0.23019998 -0.0042628576 0
0.028456047 -0.23019992 -0.0013524219 0
0.02898211 -0.23019992 0.0014342241 0
0.028493261 -0.23019989 0.0044705542 0
0.02847955 -0.23019989 0.0074294684 0
0.028504321 -0.23019986 0.010622722 0
0.028424215 -0.23019986 0.01356832 0
0.028514292 -0.23019986 0.016136911 0
0.028428568 -0.23019989 0.019291144 0
0.028561858 -0.23019987 0.022185536 0
0.028837435 -0.23028901 0.025524966 0
0.029272759 -0.23030338 0.028123589 0
0.032472935 -0.23027346 -0.029999049 0
0.031420197 -0.23024864 -0.028512068 0
0.031328127 -0.23020004 -0.025512289 0
0.031369317 -0.23020002 -0.022493705 0
0.031405877 -0.23020004 -0.019422226 0
0.031596452 -0.23019998 -0.016470501 0
0.031649936 -0.23020001 -0.013436113 0
0.031499591 -0.23019995 -0.010739214 0
0.031441346 -0.23019993 -0.0074928273 0
0.031206053 -0.23019992 -0.0044528861 0
0.031213811 -0.23019996 -0.001672692 0
0.03147053 -0.23019992 0.0014696857 0
0.031458214 -0.23019992 0.0046607666 0
0.031418487 -0.23019989 0.0072649303 0
0.031413872 -0.23019986 0.010364698 0
0.031606324 -0.23019989 0.013650612 0
0.031456742 -0.23019987 0.016598934 0
0.03152895 -0.23019984 0.019491561 0
0.031336319 -0.23019986 0.022207947 0
0.031362697 -0.23019981 0.025579549 0
0.031386081 -0.23021092 0.028494138 0
0.031445932 -0.2304371 0.030000949 0
0.034199491 -0.23086046 -0.029999042 0
0.034656525 -0.23029508 -0.028916009 0
0.034506477 -0.23019999 -0.025538808 0
0.034637712 -0.23019998 -0.022309134 0
0.034279246 -0.23019998 -0.019345831 0
0.034437422 -0.23019996 -0.016572541 0
0.034076665 -0.23019998 -0.01329196 0
0.034633737 -0.23019995 -0.010469609 0
0.0344509 -0.23019995 -0.0076455935 0
0.034359839 -0.23019992 -0.0044237403 0
0.034578316 -0.23019993 -0.0013724329 0
0.034336723 -0.23019992 0.0015498499 0
0.034463562 -0.2301999 0.0044420795 0
0.034447603 -0.23019989 0.0078290803 0
0.034813728 -0.23019989 0.010602313 0
0.034555566 -0.23019992 0.013114569 0
0.034240954 -0.23019984 0.016529975 0
0.034693383 -0.23019984 0.019496219 0
0.034688056 -0.23019986 0.022491878 0
0.034506883 -0.23019983 0.025313325 0
0.034392416 -0.23021536 0.028616268 0
0.034084458 -0.2306069 0.03000096 0
0.037457094 -0.23029062 -0.028883148 0
0.037721321 -0.23020002 -0.025607044 0
0.03750401 -0.23019998 -0.022586323 0
0.037531484 -0.23019999 -0.019600552 0
0.037644114 -0.23019998 -0.01638978 0
0.037181068 -0.23019995 -0.013300206 0
0.03758011 -0.23020001 -0.010499751 0
0.03746219 -0.23019993 -0.0074596321 0
0.037696384 -0.23019993 -0.0045070746 0
0.03784471 -0.23019992 -0.0014225389 0
0.037700776 -0.2301999 0.0015190917 0
0.037491139 -0.23019993 0.0045828698 0
0.037659906 -0.23019989 0.0076256036 0
0.037551146 -0.23019984 0.010377466 0
0.037640288 -0.23019986 0.013706579 0
0.037256166 -0.23019986 0.016296914 0
0.037579909 -0.23019984 0.019806042 0
0.037663974 -0.23019984 0.022699781 0
0.037643272 -0.23019983 0.025349764 0
0.037622031 -0.23027875 0.028791221 0
0.037368115 -0.23049845 0.030000972 0
0.039587777 -0.23097678 -0.029999021 0
0.039796077 -0.23041624 -0.028696781 0
0.039688945 -0.23030755 -0.025418969 0
0.039771922 -0.23042363 -0.022309937 0
0.039656665 -0.23032112 -0.019528456 0
0.039657649 -0.23033467 -0.016367517 0
0.039681859 -0.23029229 -0.01336755 0
0.039695665 -0.23038292 -0.010187998 0
0.039758708 -0.23039232 -0.0073933448 0
0.039758358 -0.23037575 -0.0044722683 0
0.039774552 -0.23038378 -0.001419583 0
0.039774414 -0.2303974 0.0015376433 0
0.039749674 -0.23038672 0.0041566025 0
0.039809249 -0.23032048 0.0072295927 0
0.039748423 -0.23033194 0.010693166 0
0.039672751 -0.23035501 0.013721857 0
0.039695747 -0.23041724 0.016441036 0
0.039642684 -0.23028167 0.019400522 0
0.039528299 -0.23025659 0.022430327 0
0.039766688 -0.23040359 0.025485924 0
0.039615382 -0.23029225 0.028781861 0
0.039720278 -0.23063309 0.030000977 0
-0.0097395992 -0.22649595 -0.0097122528 0
-0.0099999746 -0.2263549 -0.0075095026 0
-0.0099999802 -0.22666718 -0.0045788628 0
-0.0099999905 -0.22645241 -0.0014307128 0
-0.010000002 -0.22645698 0.0014447785 0
-0.010000017 -0.22633429 0.0044178977 0
-0.010000026 -0.22665842 0.0076140515 0
-0.0096022841 -0.22651011 0.0098158913 0
-0.0077548563 -0.22622596 -0.0099992082 0
-0.0076980991 -0.22636738 0.01000079 0
-0.0046650772 -0.22638839 -0.0099991942 0
-0.004438844 -0.22644795 0.010000802 0
-0.001553203 -0.2262944 -0.009999183 0
-0.001552949 -0.22647831 0.010000812 0
3.4643996e-08 -0.22688964 -0.0095693693 0
2.7016462e-08 -0.22646452 -0.0074623115 0
1.6218392e-08 -0.22668312 -0.0044794106 0
5.8562808e-09 -0.22641513 -0.001616942 0
-5.2903322e-09 -0.22666673 0.0014622422 0
-1.7045098e-08 -0.22653869 0.0047094235 0
-2.6824953e-08 -0.2266079 0.0074110487 0
-3.4779504e-08 -0.22636999 0.0096084438 0
-0.0097864978 -0.223368 -0.0098150987 0
-0.0099999728 -0.22359233 -0.0075158686 0
-0.0099999821 -0.22366609 -0.0045529539 0
-0.0099999933 -0.22342999 -0.0017281203 0
-0.010000004 -0.22351436 0.0015729211 0
-0.010000012 -0.22380778 0.0044760425 0
-0.010000024 -0.22373819 0.0074113817 0
-0.0097221425 -0.2234091 0.0097795799 0
-0.0076722149 -0.22355849 -0.0099992147 0
-0.0074288333 -0.22339658 0.010000779 0
-0.0043145753 -0.22347492 -0.0099992035 0
-0.0044228886 -0.22334544 0.01000079 0
-0.0013022858 -0.22348657 -0.0099991923 0
-0.0015364729 -0.22356515 0.010000801 0
3.4382197e-08 -0.22332622 -0.0094970614 0
2.7943061e-08 -0.22349112 -0.0077182897 0
1.6555411e-08 -0.22355829 -0.004572521 0
5.9558811e-09 -0.22334361 -0.001644467 0
-5.7223963e-09 -0.22361399 0.0015815862 0
-1.5179396e-08 -0.22354418 0.004194024 0
-2.7392479e-08 -0.22362269 0.0075678132 0
-3.3825327e-08 -0.22330515 0.0093448469 0
-0.0097856969 -0.22050741 -0.0096937474 0
-0.0099999709 -0.22060926 -0.0076155476 0
-0.0099999821 -0.22056937 -0.0046243686 0
-0.0099999923 -0.22041613 -0.0015447688 0
-0.010000004 -0.22060926 0.0013737843 0
-0.010000013 -0.22040643 0.0042400504 0
-0.010000026 -0.22042634 0.0077765929 0
-0.0096997824 -0.2203681 0.009831652 0
-0.0074420888 -0.22047889 -0.0099992258 0
-0.007322656 -0.22039856 0.010000769 0
-0.0044326885 -0.22043514 -0.0099992147 0
-0.004445713 -0.22008263 0.010000778 0
-0.0014799926 -0.2204289 -0.0099992044 0
-0.0015101419 -0.22066234 0.010000791 0
3.4607297e-08 -0.22030389 -0.0095592551 0
2.6453135e-08 -0.22065157 -0.0073067169 0
1.5826345e-08 -0.2206253 -0.0043711318 0
4.6987472e-09 -0.22062282 -0.0012972014 0
-4.991807e-09 -0.2204615 0.001379754 0
-1.6498719e-08 -0.22039741 0.0045584673 0
-2.7623525e-08 -0.22064911 0.0076316274 0
-3.4534025e-08 -0.2206862 0.0095406109 0
-0.0098182121 -0.21759282 -0.0096666571 0
-0.0099999709 -0.21749087 -0.0074516339 0
-0.0099999812 -0.21740602 -0.0043011978 0
-0.0099999905 -0.21741119 -0.0016970029 0
-0.010000003 -0.21756911 0.0015663475 0
-0.010000017 -0.21751229 0.0046011438 0
-0.010000024 -0.21729217 0.0074159312 0
-0.0097276326 -0.21735239 0.0098016448 0
-0.0073445872 -0.21733676 -0.0099992361 0
-0.0075772344 -0.21737127 0.010000759 0
-0.0044088387 -0.21761902 -0.0099992249 0
-0.0043400261 -0.21737602 0.010000769 0
-0.0017829546 -0.21746744 -0.0099992175 0
-0.0013844848 -0.2175121 0.010000779 0
3.4348346e-08 -0.2176293 -0.0094877314 0
2.7555009e-08 -0.21736942 -0.0076111145 0
1.5854026e-08 -0.21767747 -0.0043787891 0
5.1081464e-09 -0.21756501 -0.0014103064 0
-6.2134569e-09 -0.21735691 0.0017172161 0
-1.6429738e-08 -0.21754803 0.0045394013 0
-2.6953323e-08 -0.21750771 0.0074464772 0
-3.3857805e-08 -0.21727724 0.009353797 0
-0.0098211989 -0.21496588 -0.0096393544 0
-0.0099999718 -0.21464446 -0.0074885082 0
-0.0099999821 -0.21440953 -0.0042968658 0
-0.0099999923 -0.21439248 -0.0013870544 0
-0.010000006 -0.21455427 0.0014402794 0
-0.010000014 -0.21464279 0.0045040711 0
-0.010000028 -0.21456112 0.0078369044 0
-0.0097765177 -0.21485832 0.0098089445 0
-0.007485379 -0.21444024 -0.0099992491 0
-0.0074187345 -0.21448824 0.010000751 0
-0.0045963684 -0.21442892 -0.009999238 0
-0.0047124764 -0.21456739 0.010000757 0
-0.0014164827 -0.21438324 -0.0099992277 0
-0.0016510184 -0.21463241 0.010000769 0
3.4202134e-08 -0.21461338 -0.009447352 0
2.7355153e-08 -0.21467996 -0.0075559155 0
1.6030626e-08 -0.21449636 -0.0044275853 0
6.2613741e-09 -0.21449856 -0.0017288895 0
-5.2278581e-09 -0.21429542 0.0014449394 0
-1.5565675e-08 -0.21455607 0.0043006986 0
-2.692418e-08 -0.21427698 0.0074384147 0
-3.4781472e-08 -0.21481927 0.0096089449 0
-0.0098204939 -0.21153317 -0.0097612264 0
-0.009999969 -0.21138257 -0.0073668985 0
-0.0099999821 -0.21153918 -0.0044055833 0
-0.0099999933 -0.21117447 -0.0014131644 0
-0.010000004 -0.21142507 0.001933309 0
-0.010000014 -0.21156658 0.0042365748 0
-0.010000026 -0.21157174 0.0074512069 0
-0.0097560612 -0.21135671 0.0097517911 0
-0.0073883515 -0.21129782 -0.0099992631 0
-0.0073210802 -0.21158119 0.010000737 0
-0.0048055835 -0.21162577 -0.0099992482 0
-0.0042628055 -0.21143717 0.010000748 0
-0.0019138615 -0.21141855 -0.0099992389 0
-0.0013010069 -0.21153812 0.010000758 0
3.4371951e-08 -0.21169856 -0.009494273 0
2.8021638e-08 -0.2114085 -0.0077400398 0
1.6245268e-08 -0.21146111 -0.00448689 0
5.723837e-09 -0.21147747 -0.0015804092 0
-6.2203607e-09 -0.21162915 0.0017191025 0
-1.6389313e-08 -0.2115075 0.0045282124 0
-2.6477561e-08 -0.21154015 0.0073150289 0
-3.4795455e-08 -0.21130882 0.009612795 0
-0.0097068334 -0.20822436 -0.009722162 0
-0.0099999728 -0.20855972 -0.0077628642 0
-0.009999983 -0.20850161 -0.0042782333 0
-0.0099999923 -0.20830475 -0.0013567487 0
-0.010000005 -0.20894949 0.0011829878 0
-0.010000015 -0.20857039 0.0043644137 0
-0.010000028 -0.20843615 0.0073347171 0
-0.0097643323 -0.20841035 0.0097443927 0
-0.0074900012 -0.20847909 -0.0099992696 0
-0.0073562171 -0.2085755 0.010000727 0
-0.0045662746 -0.2085748 -0.0099992594 0
-0.0046088551 -0.20844395 0.010000734 0
-0.00099905836 -0.20827346 -0.0099992491 0
-0.0013931567 -0.20817523 0.010000749 0
3.399996e-08 -0.20816825 -0.0093915267 0
2.5927889e-08 -0.2087287 -0.0071616643 0
1.7269036e-08 -0.20866802 -0.0047697094 0
5.4515175e-09 -0.20842496 -0.0015051936 0
-5.3773559e-09 -0.20838615 0.0014862159 0
-1.681417e-08 -0.20846574 0.0046455655 0
-2.6807754e-08 -0.208506 0.0074062319 0
-3.4009112e-08 -0.20860809 0.009395563 0
-0.0096651362 -0.20568398 -0.0098325582 0
-0.0099999709 -0.20571958 -0.0074019646 0
-0.009999983 -0.20559435 -0.0045608687 0
-0.0099999905 -0.20551643 -0.0016589392 0
-0.010000004 -0.20553298 0.0017267399 0
-0.010000015 -0.20548908 0.0046454468 0
-0.010000027 -0.20550834 0.0077131526 0
-0.0096202614 -0.20545772 0.0098932125 0
-0.0072579761 -0.20526806 -0.0099992827 0
-0.0073685497 -0.20564491 0.010000714 0
-0.0041660285 -0.20563732 -0.0099992678 0
-0.0048097917 -0.20550986 0.010000723 0
-0.0013834751 -0.20543581 -0.0099992584 0
-0.0014579271 -0.20530145 0.010000736 0
3.4620907e-08 -0.20572913 -0.009563067 0
2.7274146e-08 -0.20557877 -0.0075335708 0
1.6123797e-08 -0.20567039 -0.004453355 0
6.3593153e-09 -0.20551515 -0.0017559777 0
-5.832947e-09 -0.20541254 0.0016120593 0
-1.6760332e-08 -0.20559362 0.0046306825 0
-2.7003683e-08 -0.20522353 0.0074603441 0
-3.4241442e-08 -0.20567529 0.0094597321 0
-0.0097110644 -0.20273706 -0.0098929079 0
-0.0099999746 -0.20251207 -0.0073093893 0
-0.0099999802 -0.20250358 -0.0045105498 0
-0.0099999923 -0.2026038 -0.0014732193 0
-0.010000005 -0.20252919 0.001475406 0
-0.010000013 -0.20267336 0.0043032886 0
-0.010000024 -0.2026709 0.0074171224 0
-0.0097560743 -0.20282763 0.0097374842 0
-0.0076121609 -0.20235403 -0.0099992929 0
-0.0075506656 -0.20237866 0.010000705 0
-0.0044727367 -0.20248152 -0.0099992817 0
-0.004679333 -0.20255126 0.010000712 0
-0.001611289 -0.20253521 -0.0099992696 0
-0.0012534176 -0.20258512 0.010000726 0
3.431628e-08 -0.20291363 -0.0094789267 0
2.7049802e-08 -0.20257334 -0.007471608 0
1.6111176e-08 -0.20236388 -0.0044498807 0
5.1193405e-09 -0.20257884 -0.001413453 0
-5.6193676e-09 -0.20275852 0.0015530498 0
-1.6314001e-08 -0.20250523 0.0045073754 0
-2.7766312e-08 -0.20261537 0.007671006 0
-3.4853343e-08 -0.20249639 0.009628755 0
-0.0097883306 -0.19936877 -0.0097374665 0
-0.009999969 -0.1994818 -0.0075947982 0
-0.0099999802 -0.19956113 -0.0046509495 0
-0.0099999923 -0.19943585 -0.001458285 0
-0.010000004 -0.19946231 0.0015728542 0
-0.010000013 -0.19966261 0.004485392 0
-0.010000024 -0.19953574 0.0075631607 0
-0.0096206544 -0.19948721 0.0098972041 0
-0.0077597122 -0.19966741 -0.009999305 0
-0.007575558 -0.19953878 0.010000693 0
-0.0043336544 -0.19967467 -0.0099992901 0
-0.0044347658 -0.19958822 0.010000705 0
-0.0014798436 -0.19940872 -0.0099992845 0
-0.0016028512 -0.19920342 0.010000713 0
3.5054637e-08 -0.19902532 -0.0096829068 0
2.7333908e-08 -0.19972624 -0.0075501008 0
1.6515253e-08 -0.19925283 -0.0045615155 0
4.8920814e-09 -0.19939217 -0.0013506856 0
-4.714102e-09 -0.1994364 0.0013029637 0
-1.5351317e-08 -0.19953166 0.0042414288 0
-2.7507259e-08 -0.19974582 0.0075994343 0
-3.4301312e-08 -0.19943167 0.0094762482 0
-0.0097542666 -0.19679369 -0.0097387899 0
-0.00999997 -0.19644825 -0.007658585 0
-0.0099999821 -0.1966908 -0.0044979947 0
-0.0099999914 -0.19653717 -0.0018604572 0
-0.010000004 -0.19662955 0.0014940755 0
-0.010000017 -0.19636613 0.0045501436 0
-0.010000028 -0.1965988 0.0074642594 0
-0.0097273067 -0.19654933 0.0097972155 0
-0.0075675067 -0.19680674 -0.0099993115 0
-0.0073747835 -0.19643159 0.010000682 0
-0.0047754887 -0.19647042 -0.009999305 0
-0.0044484106 -0.19652218 0.010000695 0
-0.00128587 -0.19650762 -0.0099992901 0
-0.0013543662 -0.19617045 0.010000705 0
3.4220946e-08 -0.19651993 -0.009452614 0
2.6942779e-08 -0.1966583 -0.0074420646 0
1.6413056e-08 -0.1965711 -0.0045332941 0
6.1148873e-09 -0.19672129 -0.0016884878 0
-5.279543e-09 -0.19653089 0.0014591527 0
-1.6537227e-08 -0.19645579 0.0045690183 0
-2.7177965e-08 -0.1964573 0.0075084567 0
-3.4463891e-08 -0.19634433 0.0095211482 0
-0.0098016197 -0.19325636 -0.0097618336 0
-0.0099999718 -0.19347261 -0.0074672112 0
-0.0099999812 -0.19355012 -0.0045751319 0
-0.0099999942 -0.19371605 -0.0012411674 0
-0.010000002 -0.19327357 0.0014672851 0
-0.010000013 -0.1934782 0.0043242043 0
-0.010000026 -0.19352463 0.0075944387 0
-0.0096159531 -0.19374043 0.0098050088 0
-0.0073320991 -0.19357662 -0.0099993236 0
-0.0075829215 -0.1936135 0.010000673 0
-0.004445164 -0.19352297 -0.0099993143 0
-0.0046829763 -0.19350757 0.01000068 0
-0.0012519138 -0.19326626 -0.0099993031 0
-0.0014227184 -0.19361563 0.010000694 0
3.4182658e-08 -0.19381019 -0.0094420481 0
2.6746452e-08 -0.19329795 -0.007387843 0
1.5918532e-08 -0.19366291 -0.0043966952 0
5.1421694e-09 -0.19342074 -0.0014197924 0
-6.43811e-09 -0.19354504 0.0017791889 0
-1.7297916e-08 -0.19340274 0.0047791428 0
-2.7935721e-08 -0.19344939 0.0077177715 0
-3.454084e-08 -0.19362614 0.0095423954 0
-0.0098103872 -0.19070658 -0.0097727319 0
-0.0099999728 -0.19047321 -0.0075307433 0
-0.0099999812 -0.19053021 -0.0046470207 0
-0.0099999923 -0.19038656 -0.0012760772 0
-0.010000003 -0.19034326 0.0015028695 0
-0.010000017 -0.1907402 0.0044113044 0
-0.010000028 -0.19079697 0.0076466752 0
-0.0097473031 -0.19020315 0.0097079175 0
-0.0072824326 -0.19054872 -0.0099993339 0
-0.007571205 -0.19049942 0.010000661 0
-0.0046532028 -0.1904535 -0.0099993255 0
-0.0044710422 -0.19039302 0.010000673 0
-0.0016314683 -0.19043468 -0.0099993143 0
-0.0016136522 -0.19059332 0.010000685 0
3.4364888e-08 -0.19062874 -0.0094923982 0
2.7478395e-08 -0.19049112 -0.007590048 0
1.6415477e-08 -0.19051512 -0.0045339847 0
4.9684319e-09 -0.19041224 -0.0013718094 0
-4.3191251e-09 -0.19032589 0.0011938206 0
-1.5777418e-08 -0.19043401 0.0043591037 0
-2.7021628e-08 -0.19067071 0.0074652485 0
-3.5173102e-08 -0.19026613 0.0097170416 0
-0.0097232712 -0.18757725 -0.009769273 0
-0.00999997 -0.18775032 -0.0073598023 0
-0.0099999812 -0.18775162 -0.0045871767 0
-0.0099999951 -0.18790697 -0.0014776108 0
-0.010000002 -0.18721539 0.0015480806 0
-0.010000014 -0.18760404 0.0046727005 0
-0.010000024 -0.18752845 0.0075674043 0
-0.0097068781 -0.18756498 0.0097669344 0
-0.0074073584 -0.18762527 -0.009999346 0
-0.0074124695 -0.1873914 0.010000648 0
-0.0043634078 -0.18752296 -0.0099993348 0
-0.0043963529 -0.1876891 0.010000663 0
-0.0016733535 -0.18770126 -0.0099993264 0
-0.0014957045 -0.18750763 0.010000672 0
3.4181586e-08 -0.18737784 -0.0094417743 0
2.7774025e-08 -0.18779838 -0.0076717236 0
1.5873191e-08 -0.18750909 -0.0043841922 0
5.7826672e-09 -0.18779385 -0.0015967464 0
-5.8943743e-09 -0.18736778 0.0016289628 0
-1.6550294e-08 -0.18749906 0.0045725955 0
-2.6322622e-08 -0.18760721 0.0072721415 0
-3.4141042e-08 -0.18703136 0.0094319303 0
-0.0096669057 -0.18469578 -0.0098266779 0
-0.0099999718 -0.18433334 -0.0074444753 0
-0.0099999821 -0.1845894 -0.0042049969 0
-0.0099999914 -0.18478139 -0.0016029737 0
-0.010000004 -0.18458462 0.0014861382 0
-0.010000013 -0.18469146 0.0045799175 0
-0.010000026 -0.18443117 0.0074480502 0
-0.0096741989 -0.18462399 0.0097696297 0
-0.0074763391 -0.18435767 -0.0099993562 0
-0.0073052119 -0.18445009 0.010000639 0
-0.0045065861 -0.18459474 -0.0099993451 0
-0.0044608321 -0.18465194 0.01000065 0
-0.0016073656 -0.18433012 -0.0099993348 0
-0.001431758 -0.18445249 0.010000659 0
3.4026471e-08 -0.18482199 -0.0093989344 0
2.7324228e-08 -0.18449135 -0.0075474819 0
1.637425e-08 -0.18472604 -0.004522617 0
4.8371218e-09 -0.18445668 -0.0013355574 0
-5.4075446e-09 -0.18449935 0.0014944688 0
-1.639124e-08 -0.18442068 0.0045286473 0
-2.8279384e-08 -0.18448454 0.0078126742 0
-3.4700562e-08 -0.1849277 0.009586486 0
-0.0097995102 -0.18142207 -0.0097241821 0
-0.0099999718 -0.1814568 -0.0075089731 0
-0.0099999793 -0.18159863 -0.0047301119 0
-0.0099999914 -0.18150845 -0.0014615924 0
-0.010000002 -0.18163592 0.001545272 0
-0.010000015 -0.181494 0.0044552367 0
-0.010000023 -0.18157469 0.0073256893 0
-0.0097135128 -0.18149313 0.0097918073 0
-0.0078426739 -0.1815419 -0.0099993674 0
-0.0073705665 -0.18157455 0.010000628 0
-0.0043227756 -0.18133423 -0.00999936 0
-0.0045012054 -0.18160683 0.010000641 0
-0.001273666 -0.18133594 -0.0099993451 0
-0.0014346254 -0.18145652 0.010000649 0
3.4302207e-08 -0.18116777 -0.0094751175 0
2.6771623e-08 -0.18123583 -0.00739484 0
1.6581147e-08 -0.18141006 -0.0045797834 0
5.7475171e-09 -0.18147373 -0.0015870593 0
-5.2668305e-09 -0.1816978 0.0014555872 0
-1.6530548e-08 -0.18134065 0.0045671188 0
-2.7455375e-08 -0.18158524 0.0075850356 0
-3.4747117e-08 -0.18087013 0.0095993318 0
-0.0097759785 -0.17822595 -0.0097057875 0
-0.0099999718 -0.17856883 -0.0076979427 0
-0.0099999821 -0.17859264 -0.0045213462 0
-0.0099999923 -0.1785772 -0.0014847012 0
-0.010000003 -0.17847849 0.0016034221 0
-0.010000014 -0.17840511 0.0043912204 0
-0.010000029 -0.17887323 0.0073712985 0
-0.009797168 -0.17853764 0.0097506093 0
-0.0074067186 -0.17841893 -0.0099993777 0
-0.0074947621 -0.17844647 0.010000618 0
-0.0044386177 -0.17836383 -0.0099993683 0
-0.0045511201 -0.17836593 0.010000627 0
-0.001377072 -0.17853577 -0.0099993553 0
-0.0017835564 -0.1787181 0.010000641 0
3.420163e-08 -0.17872289 -0.0094473427 0
2.7264756e-08 -0.17836611 -0.0075310753 0
1.6411407e-08 -0.1786114 -0.0045329034 0
5.0055871e-09 -0.17868055 -0.0013821158 0
-5.2196092e-09 -0.17846827 0.001442531 0
-1.5478088e-08 -0.17848349 0.004276373 0
-2.640669e-08 -0.17873684 0.0072953324 0
-3.4185774e-08 -0.17826688 0.0094442554 0
-0.0095922463 -0.17556781 -0.009873963 0
-0.00999997 -0.17540452 -0.0075569041 0
-0.0099999812 -0.17560787 -0.0046373475 0
-0.0099999923 -0.17565186 -0.0013909272 0
-0.010000004 -0.1753841 0.0017985977 0
-0.010000016 -0.17563204 0.0048028938 0
-0.010000028 -0.17523003 0.0073807025 0
-0.0097632734 -0.17525397 0.0096803978 0
-0.0072031766 -0.17560583 -0.0099993888 0
-0.0076197907 -0.17532553 0.010000603 0
-0.0045779231 -0.17532432 -0.0099993786 0
-0.0047549675 -0.17549391 0.010000615 0
-0.0014313636 -0.17571673 -0.0099993665 0
-0.0015895203 -0.17537624 0.010000629 0
3.465788e-08 -0.1759146 -0.0095733888 0
2.7560125e-08 -0.1756561 -0.0076126787 0
1.6492978e-08 -0.17540717 -0.0045554484 0
5.5559917e-09 -0.17550011 -0.0015341733 0
-6.1209038e-09 -0.17543708 0.001691497 0
-1.4855234e-08 -0.17528379 0.0041043018 0
-2.8144097e-08 -0.17529541 0.0077752681 0
-3.4677981e-08 -0.17554384 0.0095802145 0
-0.0097529143 -0.17270069 -0.0096229538 0
-0.0099999718 -0.17232823 -0.0073547862 0
-0.0099999812 -0.17257872 -0.0045856317 0
-0.0099999933 -0.17265691 -0.001572681 0
-0.010000004 -0.17259502 0.0014870377 0
-0.010000015 -0.1722728 0.004558689 0
-0.010000025 -0.17251493 0.0072188638 0
-0.0098068314 -0.17216894 0.0097593646 0
-0.0079171276 -0.17254852 -0.0099994028 0
-0.0075372839 -0.17259806 0.010000595 0
-0.0042905957 -0.17267422 -0.0099993879 0
-0.004544212 -0.17249873 0.010000603 0
-0.0016470583 -0.17254539 -0.0099993777 0
-0.0014550621 -0.17234816 0.010000615 0
3.4744843e-08 -0.17269444 -0.0095974244 0
2.6029278e-08 -0.17245871 -0.0071898033 0
1.5493631e-08 -0.17245573 -0.004279396 0
5.407307e-09 -0.17232095 -0.0014931116 0
-5.262526e-09 -0.17245349 0.0014543647 0
-1.6729208e-08 -0.17255719 0.0046219653 0
-2.796598e-08 -0.17251205 0.0077260542 0
-3.4355882e-08 -0.17232294 0.0094912248 0
-0.0096954275 -0.16954544 -0.0097608222 0
-0.0099999728 -0.16928476 -0.0071017784 0
-0.0099999793 -0.16938518 -0.004758846 0
-0.0099999923 -0.16924518 -0.0013413006 0
-0.010000004 -0.16956204 0.0018183587 0
-0.010000014 -0.16948897 0.0042954958 0
-0.010000026 -0.16943212 0.0074203261 0
-0.0097390022 -0.16964492 0.0097236158 0
-0.0075032972 -0.16957138 -0.0099994112 0
-0.0073704342 -0.16935737 0.010000584 0
-0.0044307862 -0.16948748 -0.0099994028 0
-0.004572147 -0.16950083 0.010000597 0
-0.0012840951 -0.16950306 -0.0099993879 0
-0.0015997556 -0.16977774 0.01000061 0
3.4710617e-08 -0.16970712 -0.0095879799 0
2.6752978e-08 -0.16945733 -0.0073897326 0
1.6397214e-08 -0.16934073 -0.0045290166 0
4.9899973e-09 -0.16949937 -0.0013778424 0
-4.2969828e-09 -0.16944416 0.0011876285 0
-1.6424544e-08 -0.16966717 0.0045377933 0
-2.7395583e-08 -0.16956994 0.0075684749 0
-3.4630663e-08 -0.16953942 0.009567121 0
-0.0097816205 -0.16642156 -0.0097793359 0
-0.0099999718 -0.16644146 -0.0073318523 0
-0.0099999821 -0.16621694 -0.0043064915 0
-0.0099999933 -0.16669652 -0.0014068785 0
-0.010000007 -0.16674824 0.0017368521 0
-0.010000012 -0.16637126 0.0043784729 0
-0.010000025 -0.1666168 0.007732952 0
-0.0096530505 -0.16665025 0.0098732105 0
-0.0074560065 -0.16648109 -0.0099994224 0
-0.0074584559 -0.16672875 0.010000575 0
-0.0045860349 -0.16639756 -0.009999413 0
-0.0042383177 -0.16652253 0.010000584 0
-0.0013738835 -0.16637033 -0.0099994009 0
-0.0016554308 -0.16655724 0.010000595 0
3.4745518e-08 -0.16614361 -0.009597634 0
2.7498352e-08 -0.16649689 -0.0075956481 0
1.61395e-08 -0.16653743 -0.0044578346 0
5.6307679e-09 -0.16633002 -0.0015548628 0
-5.4480123e-09 -0.16668674 0.0015055833 0
-1.5266904e-08 -0.16647641 0.0042179911 0
-2.6990616e-08 -0.16673221 0.0074565951 0
-3.4605307e-08 -0.16622649 0.0095601045 0
-0.0097547648 -0.16374229 -0.0097179571 0
-0.00999997 -0.1633292 -0.0076310555 0
-0.0099999812 -0.16347781 -0.0045723501 0
-0.0099999923 -0.16347045 -0.0015032993 0
-0.010000004 -0.16339944 0.0015836643 0
-0.010000014 -0.16328824 0.0044060112 0
-0.010000023 -0.16356461 0.0073809572 0
-0.0096867336 -0.16315988 0.0098038036 0
-0.0075394316 -0.16357449 -0.0099994354 0
-0.0075948937 -0.16366953 0.010000561 0
-0.0045042112 -0.1634326 -0.0099994214 0
-0.0045213862 -0.16353478 0.010000573 0
-0.0014302076 -0.1632695 -0.009999414 0
-0.0015804395 -0.16354725 0.010000584 0
3.4300211e-08 -0.16345735 -0.0094746305 0
2.6322947e-08 -0.16361105 -0.0072709601 0
1.6547764e-08 -0.1635402 -0.0045706262 0
5.5128746e-09 -0.1633939 -0.0015223061 0
-4.5107593e-09 -0.16345736 0.0012466613 0
-1.6918381e-08 -0.16348891 0.0046741907 0
-2.7405582e-08 -0.16349041 0.0075712153 0
-3.4193178e-08 -0.16351971 0.0094462475 0
-0.0097158048 -0.16018794 -0.0098046325 0
-0.0099999709 -0.16053812 -0.0077990289 0
-0.0099999802 -0.16051041 -0.0045449222 0
-0.0099999933 -0.16057438 -0.0014558021 0
-0.010000003 -0.16053391 0.0015733518 0
-0.010000015 -0.16033322 0.004602097 0
-0.010000026 -0.16047612 0.0076353089 0
-0.0096875997 -0.16061921 0.0097690802 0
-0.0074137314 -0.16084754 -0.0099994428 0
-0.0075023696 -0.16044253 0.010000554 0
-0.0046140477 -0.16055474 -0.0099994317 0
-0.0045323847 -0.16076213 0.010000566 0
-0.0015764539 -0.1604152 -0.0099994233 0
-0.001453451 -0.1603265 0.010000573 0
3.4782136e-08 -0.16025734 -0.0096077705 0
2.7464315e-08 -0.16058031 -0.0075862668 0
1.6875683e-08 -0.16044059 -0.0046612229 0
4.7219766e-09 -0.16041626 -0.0013038364 0
-5.1821667e-09 -0.16059275 0.001432123 0
-1.6491967e-08 -0.16035615 0.0045563849 0
-2.6379443e-08 -0.16066357 0.0072877402 0
-3.4429654e-08 -0.16071162 0.0095115621 0
-0.0097853523 -0.15730406 -0.0097305104 0
-0.0099999709 -0.15754378 -0.0074221124 0
-0.0099999821 -0.15765169 -0.0042417943 0
-0.0099999942 -0.15727653 -0.0013906658 0
-0.010000004 -0.15747614 0.0015125357 0
-0.010000013 -0.15757492 0.0043178289 0
-0.010000025 -0.15762971 0.0075521823 0
-0.0098031936 -0.15777077 0.0097583644 0
-0.0075663393 -0.15738901 -0.009999455 0
-0.0077248523 -0.15733087 0.01000054 0
-0.0046455339 -0.15737121 -0.0099994447 0
-0.0043900935 -0.15736462 0.010000552 0
-0.0013148452 -0.15735327 -0.0099994307 0
-0.0013051642 -0.15771498 0.010000565 0
3.4168828e-08 -0.15726133 -0.0094383592 0
2.5435087e-08 -0.15763834 -0.0070257159 0
1.6282446e-08 -0.1575506 -0.0044973549 0
5.911327e-09 -0.15738162 -0.001632398 0
-6.1979071e-09 -0.15749891 0.0017127038 0
-1.545987e-08 -0.15734525 0.0042712633 0
-2.7981725e-08 -0.15736666 0.007730349 0
-3.4324728e-08 -0.15743698 0.0094825653 0
-0.0098030511 -0.15449625 -0.0097045619 0
-0.0099999718 -0.15453482 -0.0075719254 0
-0.0099999839 -0.15452342 -0.004398325 0
-0.0099999923 -0.15436715 -0.0015144683 0
-0.010000001 -0.15461832 0.0014076725 0
-0.010000014 -0.15456827 0.0045949235 0
-0.010000028 -0.15475041 0.0077665378 0
-0.0097333491 -0.15432712 0.0097290426 0
-0.0076862015 -0.1544552 -0.0099994671 0
-0.0074956985 -0.15451202 0.010000531 0
-0.0043165488 -0.15472239 -0.0099994522 0
-0.0043486725 -0.15442143 0.010000541 0
-0.0016914841 -0.15441866 -0.0099994447 0
-0.0014726684 -0.15432465 0.010000553 0
3.3472759e-08 -0.15459374 -0.0092460839 0
2.7668953e-08 -0.15459652 -0.0076428181 0
1.5880929e-08 -0.15422201 -0.0043864506 0
6.82651e-09 -0.1546679 -0.0018852216 0
-5.216326e-09 -0.15472102 0.001441538 0
-1.6752956e-08 -0.15440972 0.0046284599 0
-2.6398284e-08 -0.15419984 0.0072929221 0
-3.4338299e-08 -0.15450615 0.0094863037 0
-0.0096666683 -0.15174276 -0.0097325146 0
-0.0099999709 -0.15147677 -0.0075059244 0
-0.009999983 -0.15135758 -0.0046086856 0
-0.0099999923 -0.15141653 -0.0016516644 0
-0.010000003 -0.15156016 0.0014347198 0
-0.010000018 -0.15149957 0.004712929 0
-0.010000027 -0.15138343 0.0074214106 0
-0.0096826898 -0.15107101 0.0097713424 0
-0.0073844073 -0.15168038 -0.0099994782 0
-0.0076053799 -0.15141049 0.01000052 0
-0.0045240452 -0.15128055 -0.009999468 0
-0.0045411582 -0.15106878 0.010000529 0
-0.0012556477 -0.15145443 -0.0099994531 0
-0.0013757586 -0.15155795 0.01000054 0
3.4566948e-08 -0.15177968 -0.0095483577 0
2.7384608e-08 -0.15171929 -0.0075642806 0
1.6702657e-08 -0.15129967 -0.0046134586 0
5.8251848e-09 -0.15128532 -0.0016086239 0
-6.1616698e-09 -0.1512417 0.0017026708 0
-1.5325387e-08 -0.15152501 0.0042340923 0
-2.7304333e-08 -0.15136309 0.007543202 0
-3.4478727e-08 -0.15128805 0.0095250839 0
-0.0098417625 -0.14878175 -0.0096006421 0
-0.0099999718 -0.14837217 -0.0075222966 0
-0.009999983 -0.14845829 -0.004462115 0
-0.0099999942 -0.14854865 -0.0013743413 0
-0.010000004 -0.14825702 0.0016188184 0
-0.010000014 -0.14861821 0.0044682706 0
-0.010000029 -0.14841941 0.0075121196 0
-0.0097422898 -0.14838965 0.0097424146 0
-0.0076173679 -0.14841859 -0.0099994922 0
-0.007449409 -0.14852998 0.010000509 0
-0.0044682538 -0.1485493 -0.0099994764 0
-0.0044640931 -0.14855114 0.010000519 0
-0.0015239669 -0.14829025 -0.0099994689 0
-0.0015827785 -0.14859587 0.010000529 0
3.45708e-08 -0.14830494 -0.0095494343 0
2.7192383e-08 -0.14856271 -0.0075111906 0
1.5901414e-08 -0.14845212 -0.0043921303 0
5.7218226e-09 -0.1485361 -0.0015800806 0
-6.088182e-09 -0.14842711 0.0016823601 0
-1.6309301e-08 -0.14887196 0.0045058825 0
-2.7954298e-08 -0.1485156 0.0077227405 0
-3.4769393e-08 -0.14828549 0.0096053667 0
-0.0097344993 -0.14555317 -0.0095455097 0
-0.0099999709 -0.14553873 -0.0074086147 0
-0.0099999821 -0.1454737 -0.0045511955 0
-0.0099999933 -0.1455301 -0.0014226997 0
-0.010000004 -0.14550364 0.0016012333 0
-0.010000017 -0.14560959 0.0043626078 0
-0.010000024 -0.14571327 0.0077369902 0
-0.0099056028 -0.1455079 0.0096656466 0
-0.0074702287 -0.14551401 -0.0099994959 0
-0.0076602972 -0.14542817 0.010000497 0
-0.0042871595 -0.14509219 -0.0099994885 0
-0.0044449144 -0.14561369 0.01000051 0
-0.0014754315 -0.14546081 -0.0099994782 0
-0.0014769179 -0.14560178 0.010000518 0
3.4708712e-08 -0.14546926 -0.0095875422 0
2.6710115e-08 -0.14542685 -0.0073779784 0
1.6480664e-08 -0.14556518 -0.0045521548 0
5.1647833e-09 -0.14570373 -0.0014262121 0
-5.8809837e-09 -0.14570616 0.0016251131 0
-1.7741975e-08 -0.1456174 0.0049016387 0
-2.6957752e-08 -0.14534979 0.0074474392 0
-3.458813e-08 -0.14502697 0.009555283 0
-0.0095761735 -0.14262906 -0.009812898 0
-0.0099999709 -0.14287359 -0.0076682186 0
-0.0099999839 -0.14274624 -0.0044735773 0
-0.0099999914 -0.14228073 -0.0016567578 0
-0.010000003 -0.14262371 0.0014765585 0
-0.010000015 -0.14253329 0.0045470349 0
-0.010000026 -0.14247599 0.0078190612 0
-0.009699814 -0.14249417 0.009819096 0
-0.0077282088 -0.14240381 -0.0099995099 0
-0.0075157355 -0.14277032 0.010000486 0
-0.0043773414 -0.14250298 -0.0099994978 0
-0.0045094518 -0.14271367 0.010000498 0
-0.0014206894 -0.14245865 -0.0099994857 0
-0.0014291269 -0.14259197 0.010000507 0
3.4580232e-08 -0.14265339 -0.0095520606 0
2.6474881e-08 -0.14231433 -0.007313008 0
1.5839387e-08 -0.14240678 -0.0043750177 0
5.7229688e-09 -0.14243428 -0.0015804193 0
-5.5445764e-09 -0.1420835 0.0015321694 0
-1.5672462e-08 -0.14268224 0.0043299375 0
-2.7581111e-08 -0.14252333 0.0076196282 0
-3.3944826e-08 -0.14226894 0.0093775643 0
-0.0097777806 -0.13957457 -0.0096672745 0
-0.0099999737 -0.1394747 -0.0072858627 0
-0.0099999812 -0.13963655 -0.0044754236 0
-0.0099999933 -0.13937548 -0.0016129457 0
-0.010000005 -0.13969262 0.001217903 0
-0.010000013 -0.13969713 0.0044481941 0
-0.010000026 -0.13964991 0.0073796446 0
-0.0097942287 -0.1393292 0.0097710183 0
-0.0073520415 -0.139511 -0.0099995211 0
-0.0074497103 -0.1395755 0.010000477 0
-0.0047949953 -0.13936251 -0.0099995099 0
-0.0044133337 -0.13956615 0.010000485 0
-0.0016255485 -0.13953872 -0.0099994978 0
-0.0012289016 -0.13940842 0.010000498 0
3.4067718e-08 -0.13960184 -0.0094104912 0
2.6842265e-08 -0.13968138 -0.0074145049 0
1.6640657e-08 -0.13954279 -0.004596374 0
5.7101253e-09 -0.13955821 -0.0015768817 0
-6.0812146e-09 -0.13955823 0.0016804034 0
-1.6698584e-08 -0.13961153 0.0046133865 0
-2.617019e-08 -0.13956268 0.007229859 0
-3.380249e-08 -0.13961478 0.0093382355 0
-0.0097164661 -0.13673599 -0.0097459666 0
-0.009999969 -0.13670969 -0.007545569 0
-0.0099999821 -0.13652106 -0.0044965246 0
-0.0099999923 -0.13648355 -0.0014402887 0
-0.010000004 -0.13637139 0.0014819229 0
-0.010000015 -0.13670228 0.0046919957 0
-0.010000023 -0.13635403 0.0072266115 0
-0.0097999219 -0.13639244 0.0096587101 0
-0.0075138318 -0.1365788 -0.0099995295 0
-0.0074781724 -0.13643746 0.010000463 0
-0.0047637573 -0.13659917 -0.009999522 0
-0.0048151305 -0.13638619 0.010000477 0
-0.0012075917 -0.13655165 -0.0099995071 0
-0.0016133821 -0.136445 0.010000486 0
3.4489876e-08 -0.13699028 -0.0095271207 0
2.716002e-08 -0.13645841 -0.0075022941 0
1.6434589e-08 -0.13625234 -0.0045394609 0
5.88975e-09 -0.13674553 -0.0016265122 0
-6.3288645e-09 -0.13636045 0.0017488035 0
-1.6514671e-08 -0.13653669 0.0045625702 0
-2.7397141e-08 -0.13679467 0.0075687864 0
-3.419386e-08 -0.1361564 0.009446336 0
-0.0098190252 -0.13328978 -0.0097159939 0
-0.009999969 -0.13360791 -0.0074054236 0
-0.0099999812 -0.13352677 -0.0044548889 0
-0.0099999951 -0.13341635 -0.001372999 0
-0.010000004 -0.13358836 0.0015986649 0
-0.010000011 -0.13337162 0.004480544 0
-0.010000024 -0.13342732 0.0075196442 0
-0.0097201765 -0.13354866 0.0097744539 0
-0.0075483532 -0.13356709 -0.0099995416 0
-0.007684283 -0.13342968 0.010000454 0
-0.0045736595 -0.1334226 -0.0099995341 0
-0.0046550375 -0.13358304 0.010000465 0
-0.0016262742 -0.1335835 -0.0099995201 0
-0.0014177576 -0.13344902 0.010000476 0
3.4696846e-08 -0.13348897 -0.0095843067 0
2.6924214e-08 -0.13369019 -0.0074371644 0
1.6692947e-08 -0.13355401 -0.0046108407 0
4.8047335e-09 -0.13367294 -0.0013267942 0
-4.8484767e-09 -0.13348617 0.0013398451 0
-1.6318273e-08 -0.13335036 0.0045083053 0
-2.76441e-08 -0.13333747 0.0076369955 0
-3.3800674e-08 -0.13356777 0.0093377121 0
-0.0096711228 -0.13028724 -0.0098386705 0
-0.00999997 -0.13055494 -0.0074145519 0
-0.0099999812 -0.13050169 -0.0047475076 0
-0.0099999923 -0.13048096 -0.0013275997 0
-0.010000002 -0.1305313 0.0012806477 0
-0.010000016 -0.13045204 0.0045805559 0
-0.010000025 -0.13059232 0.0075401249 0
-0.0097533632 -0.13029563 0.0097153513 0
-0.0075209145 -0.13059013 -0.0099995527 0
-0.0073882402 -0.13059591 0.010000443 0
-0.0046150642 -0.13072705 -0.0099995425 0
-0.0047611455 -0.13053009 0.010000451 0
-0.0013510552 -0.13057569 -0.0099995285 0
-0.0014889711 -0.13060768 0.010000465 0
3.4816818e-08 -0.13082992 -0.0096174572 0
2.7484669e-08 -0.13049044 -0.0075919982 0
1.6426014e-08 -0.13061662 -0.0045371125 0
5.4494222e-09 -0.13042666 -0.0015048971 0
-5.8617333e-09 -0.1303954 0.0016197398 0
-1.5840143e-08 -0.13057983 0.0043762149 0
-2.7025855e-08 -0.13048312 0.0074661984 0
-3.3980594e-08 -0.13086656 0.0093874037 0
-0.0098011335 -0.12764655 -0.0097166561 0
-0.0099999718 -0.12733938 -0.007323598 0
-0.0099999812 -0.12764065 -0.0044965176 0
-0.0099999942 -0.12750258 -0.001256394 0
-0.010000004 -0.1275484 0.0015736052 0
-0.010000013 -0.12728938 0.004173215 0
-0.010000024 -0.12742704 0.0073542763 0
-0.0096439039 -0.12773483 0.0098761078 0
-0.0076287482 -0.12727763 -0.009999563 0
-0.0075192424 -0.12760614 0.010000433 0
-0.0045084856 -0.12751089 -0.0099995509 0
-0.0046677156 -0.12743549 0.010000445 0
-0.0018809272 -0.12740824 -0.0099995462 0
-0.0016381422 -0.12758335 0.010000455 0
3.4650107e-08 -0.12723711 -0.0095714182 0
2.6960992e-08 -0.12754592 -0.0074473461 0
1.6053875e-08 -0.12753725 -0.0044343225 0
5.4538485e-09 -0.12734601 -0.001506131 0
-5.5455507e-09 -0.12742396 0.0015323855 0
-1.6316097e-08 -0.12749884 0.0045076828 0
-2.7101024e-08 -0.12756906 0.0074869529 0
-3.4285225e-08 -0.1275399 0.0094715441 0
-0.0097794896 -0.12454563 -0.0097713778 0
-0.0099999718 -0.12456055 -0.0075495997 0
-0.0099999812 -0.12458456 -0.0047210827 0
-0.0099999923 -0.12463634 -0.001671452 0
-0.010000002 -0.12455522 0.0014903477 0
-0.010000017 -0.12480365 0.00451749 0
-0.010000023 -0.12461167 0.0074323327 0
-0.0097795194 -0.12444273 0.0098542552 0
-0.0074693277 -0.12436671 -0.0099995751 0
-0.0073804446 -0.12458767 0.010000422 0
-0.0043946831 -0.1244138 -0.0099995611 0
-0.0045155743 -0.12433761 0.010000429 0
-0.0016115805 -0.12443653 -0.0099995537 0
-0.0016538557 -0.12424326 0.010000442 0
3.4658171e-08 -0.12418231 -0.0095736571 0
2.6589831e-08 -0.12444226 -0.0073448271 0
1.7445551e-08 -0.12445322 -0.0048187757 0
4.890087e-09 -0.12442921 -0.0013504061 0
-5.4906866e-09 -0.12441738 0.0015172188 0
-1.5674248e-08 -0.12446918 0.004330365 0
-2.6673161e-08 -0.12437975 0.0073687471 0
-3.4223895e-08 -0.12462723 0.0094545912 0
-0.0098224292 -0.12177929 -0.0096789589 0
-0.009999969 -0.12176646 -0.0077318503 0
-0.0099999802 -0.12149396 -0.0045687137 0
-0.0099999905 -0.12166636 -0.0016290891 0
-0.010000004 -0.12138614 0.0016773194 0
-0.010000014 -0.12151171 0.0044719051 0
-0.010000023 -0.12161498 0.0074520363 0
-0.009728387 -0.12140265 0.0096705547 0
-0.0075671389 -0.12127726 -0.0099995863 0
-0.0075413259 -0.12152337 0.010000412 0
-0.0046784533 -0.12168451 -0.0099995723 0
-0.004554729 -0.12142681 0.010000422 0
-0.0014185852 -0.12142849 -0.0099995639 0
-0.0015790571 -0.12130769 0.010000432 0
3.3993331e-08 -0.12171727 -0.0093900077 0
2.6284971e-08 -0.12151058 -0.0072606215 0
1.6541213e-08 -0.12140629 -0.0045689689 0
6.0197518e-09 -0.12160932 -0.0016624792 0
-5.0800977e-09 -0.12163209 0.001403786 0
-1.5411459e-08 -0.12156545 0.0042577605 0
-2.8242683e-08 -0.12158683 0.0078023076 0
-3.4716653e-08 -0.12167415 0.0095907021 0
-0.0097418111 -0.11877371 -0.0097944001 0
-0.0099999718 -0.11852579 -0.0079698088 0
-0.0099999784 -0.11847998 -0.004793569 0
-0.0099999961 -0.11852886 -0.0012957096 0
-0.010000001 -0.11845553 0.0013086029 0
-0.010000012 -0.11855443 0.0044020927 0
-0.010000026 -0.1183802 0.0072068227 0
-0.0097587919 -0.11876892 0.0098376451 0
-0.007663101 -0.11847657 -0.0099995965 0
-0.0074529257 -0.11885783 0.010000404 0
-0.0046001966 -0.11836446 -0.0099995881 0
-0.0045342026 -0.11864948 0.010000411 0
-0.0013525486 -0.1187975 -0.0099995732 0
-0.0014555764 -0.11854574 0.010000422 0
3.4319314e-08 -0.11862202 -0.0094800703 0
2.651487e-08 -0.11833995 -0.0073241415 0
1.7505434e-08 -0.11834314 -0.0048353397 0
5.5969518e-09 -0.11846656 -0.0015456947 0
-4.5442161e-09 -0.11860066 0.0012557411 0
-1.5431779e-08 -0.11850189 0.0042633628 0
-2.7361846e-08 -0.11848649 0.0075589707 0
-3.4358091e-08 -0.11851967 0.0094916411 0
-0.009773653 -0.11554455 -0.009675541 0
-0.0099999737 -0.11547592 -0.0075643421 0
-0.0099999812 -0.11535223 -0.0044278447 0
-0.0099999942 -0.11577567 -0.0013988947 0
-0.010000004 -0.11561985 0.0015348875 0
-0.010000013 -0.1152825 0.0044929092 0
-0.010000024 -0.11560842 0.007270819 0
-0.0098298416 -0.11566545 0.0097091645 0
-0.0076567689 -0.11541937 -0.0099996077 0
-0.0077034836 -0.115543 0.010000387 0
-0.0044711106 -0.11552878 -0.0099995956 0
-0.0044026757 -0.11562346 0.010000398 0
-0.0016499021 -0.11564001 -0.0099995863 0
-0.0015325568 -0.11547142 0.010000411 0
3.4990059e-08 -0.1158556 -0.0096653691 0
2.7332401e-08 -0.11549877 -0.0075499895 0
1.6045457e-08 -0.11565279 -0.0044320398 0
5.3719389e-09 -0.11553929 -0.0014835468 0
-6.4254801e-09 -0.11537533 0.001775417 0
-1.6051661e-08 -0.11525785 0.0044345898 0
-2.6993403e-08 -0.11551312 0.0074571795 0
-3.4640049e-08 -0.11558478 0.0095695183 0
-0.0097058956 -0.11262131 -0.0097980173 0
-0.0099999737 -0.11259744 -0.0071989256 0
-0.0099999821 -0.11252686 -0.0044997018 0
-0.0099999914 -0.11236317 -0.0019226618 0
-0.010000003 -0.11266565 0.0014920277 0
-0.010000015 -0.1121932 0.0047555105 0
-0.010000029 -0.11256071 0.0074718599 0
-0.0096926102 -0.11249159 0.0097702742 0
-0.0075545874 -0.11237929 -0.0099996179 0
-0.0074526574 -0.11242029 0.010000378 0
-0.0045057 -0.11243532 -0.0099996077 0
-0.0044882358 -0.11230107 0.010000389 0
-0.0014419768 -0.11243076 -0.0099995965 0
-0.0013132461 -0.11252896 0.0100004 0
3.4088288e-08 -0.11253826 -0.0094162729 0
2.6934792e-08 -0.11246685 -0.0074401638 0
1.597361e-08 -0.1126325 -0.0044122036 0
5.3080282e-09 -0.11235057 -0.0014659034 0
-5.0181295e-09 -0.11264709 0.0013866352 0
-1.6578646e-08 -0.11217275 0.004580155 0
-2.7490115e-08 -0.11267407 0.0075943829 0
-3.4249901e-08 -0.1125694 0.0094617326 0
-0.0097322715 -0.10934456 -0.0097671458 0
-0.0099999709 -0.1095887 -0.0076248432 0
-0.0099999812 -0.10972577 -0.0046255817 0
-0.0099999923 -0.10956544 -0.0014797598 0
-0.010000004 -0.10968506 0.0014456692 0
-0.010000014 -0.10953716 0.0043106349 0
-0.010000026 -0.10946459 0.0075603011 0
-0.0096925516 -0.10965576 0.0097195012 0
-0.0074825566 -0.10971054 -0.0099996272 0
-0.0075490437 -0.1097187 0.010000368 0
-0.0043896111 -0.10967176 -0.0099996179 0
-0.004610376 -0.10952261 0.010000378 0
-0.0013338147 -0.10926348 -0.0099996068 0
-0.0011930828 -0.10958383 0.010000391 0
3.4433679e-08 -0.10948696 -0.0095116952 0
2.7062322e-08 -0.10959513 -0.0074754031 0
1.5573315e-08 -0.10952781 -0.004301636 0
5.4013354e-09 -0.10963485 -0.0014916888 0
-5.1896989e-09 -0.10966454 0.0014340193 0
-1.6348329e-08 -0.10932027 0.004516521 0
-2.7499347e-08 -0.10956296 0.0075969221 0
-3.4427035e-08 -0.10943051 0.0095106522 0
-0.0096857762 -0.10685655 -0.0097398981 0
-0.0099999718 -0.10647865 -0.0076217987 0
-0.0099999802 -0.10632227 -0.0046437788 0
-0.0099999942 -0.10669062 -0.0011469896 0
-0.010000004 -0.10635082 0.0015056697 0
-0.010000014 -0.10656322 0.0043852907 0
-0.010000025 -0.10646499 0.0076818829 0
-0.0097397044 -0.10667256 0.009764893 0
-0.0076896073 -0.10647254 -0.0099996412 0
-0.0074727177 -0.10653421 0.010000357 0
-0.004621048 -0.10655911 -0.00999963 0
-0.0046156263 -0.10656393 0.010000367 0
-0.0016232824 -0.10659841 -0.0099996179 0
-0.0014499465 -0.10651844 0.010000377 0
3.4401097e-08 -0.10620071 -0.009502707 0
2.7257922e-08 -0.10627261 -0.0075294487 0
1.619472e-08 -0.10667585 -0.0044733058 0
5.7731424e-09 -0.10630876 -0.0015944102 0
-5.423892e-09 -0.10662081 0.0014987027 0
-1.6505606e-08 -0.10651485 0.0045599574 0
-2.5866758e-08 -0.10642203 0.0071459175 0
-3.5108695e-08 -0.10649431 0.009698946 0
-0.009857595 -0.10348193 -0.0096001476 0
-0.00999997 -0.1033391 -0.0074866731 0
-0.0099999802 -0.10354602 -0.0044353693 0
-0.0099999933 -0.10341217 -0.0014333446 0
-0.010000004 -0.10351811 0.0014575751 0
-0.010000015 -0.10337601 0.0045462702 0
-0.010000024 -0.1035855 0.0076049422 0
-0.0098000802 -0.1034768 0.009799025 0
-0.0077030892 -0.10360456 -0.0099996515 0
-0.0075824852 -0.10375431 0.010000347 0
-0.0041934121 -0.10327715 -0.0099996394 0
-0.0045148511 -0.10364018 0.010000355 0
-0.0014761732 -0.10358716 -0.0099996282 0
-0.0016542409 -0.1035556 0.010000369 0
3.4451961e-08 -0.10353099 -0.0095167682 0
2.6883972e-08 -0.10339063 -0.0074261576 0
1.5861154e-08 -0.10348128 -0.0043811719 0
5.9457372e-09 -0.10332046 -0.0016420992 0
-4.9937241e-09 -0.10343111 0.00137986 0
-1.6404922e-08 -0.10362253 0.0045321342 0
-2.7059254e-08 -0.10345235 0.0074753268 0
-3.464487e-08 -0.10308255 0.0095708054 0
-0.009640553 -0.10036686 -0.0097532738 0
-0.00999997 -0.10032171 -0.0073048468 0
-0.0099999802 -0.10061494 -0.0045556128 0
-0.0099999914 -0.10051773 -0.0013832793 0
-0.010000004 -0.10045245 0.0018190024 0
-0.010000016 -0.10047761 0.0046074768 0
-0.010000026 -0.10046098 0.0074475389 0
-0.0097347023 -0.10065945 0.0097683687 0
-0.007515905 -0.10059845 -0.0099996608 0
-0.0076156352 -0.10054722 0.010000332 0
