# .PCD v0.7 - Point Cloud Data file format
VERSION 0.7
FIELDS x y z rgb
SIZE 4 4 4 4
TYPE F F F F
COUNT 1 1 1 1
WIDTH 1166
HEIGHT 1
VIEWPOINT 0 0 0 1 0 0 0
POINTS 1166
DATA ascii
-1.641531e-08 -0.097408667 0.0045349807 0
-2.6021576e-08 -0.097388625 0.0071886526 0
-3.3928544e-08 -0.097787283 0.0093729049 0
-0.0097248536 -0.094746225 -0.0098631298 0
-0.0099999728 -0.094406322 -0.0073909392 0
-0.0099999821 -0.094363593 -0.0046494058 0
-0.0099999933 -0.094459608 -0.0013885978 0
-0.010000003 -0.094372407 0.0016560944 0
-0.010000015 -0.094451547 0.0044711023 0
-0.010000027 -0.094458193 0.0076568834 0
-0.0097106416 -0.09441369 0.0097673852 0
-0.0073604817 -0.094307251 -0.0099996822 0
-0.0075998297 -0.094401136 0.010000312 0
-0.0046664998 -0.094371222 -0.0099996729 0
-0.004449992 -0.094503254 0.010000323 0
-0.0015538086 -0.094407506 -0.0099996636 0
-0.0013411702 -0.094576441 0.010000338 0
3.4054878e-08 -0.09456674 -0.0094071077 0
2.7033792e-08 -0.094360329 -0.0074675768 0
1.5962375e-08 -0.094534069 -0.0044091656 0
5.6233072e-09 -0.094498858 -0.001553062 0
-5.4568128e-09 -0.094730794 0.0015077539 0
-1.6316539e-08 -0.094341934 0.0045076851 0
-2.6702068e-08 -0.094449677 0.0073766238 0
-3.4630744e-08 -0.094497912 0.0095668714 0
-0.0098286616 -0.091854967 -0.0096085975 0
-0.0099999718 -0.091416061 -0.0074473121 0
-0.0099999839 -0.091489784 -0.0042437022 0
-0.0099999923 -0.091420308 -0.0015093056 0
-0.010000004 -0.091669574 0.001435709 0
-0.010000017 -0.09168873 0.0047319313 0
-0.010000026 -0.091471694 0.0073760822 0
-0.0096935201 -0.091464631 0.0098166876 0
-0.0077712182 -0.091443941 -0.009999698 0
-0.0076569621 -0.091454871 0.010000302 0
-0.0045511681 -0.091505043 -0.0099996831 0
-0.0044406899 -0.091631666 0.010000313 0
-0.0014115919 -0.091650933 -0.009999671 0
-0.0014157821 -0.091477402 0.010000324 0
3.463731e-08 -0.091547526 -0.0095680123 0
2.7204539e-08 -0.091544472 -0.0075147548 0
1.5888718e-08 -0.091360435 -0.0043888302 0
5.7529252e-09 -0.091552623 -0.0015888788 0
-6.0191638e-09 -0.091528267 0.0016630883 0
-1.6775827e-08 -0.091578282 0.0046345503 0
-2.6698885e-08 -0.091498367 0.0073757339 0
-3.4497166e-08 -0.091201611 0.0095299594 0
-0.0099054752 -0.088887237 -0.0095883477 0
-0.0099999709 -0.088488623 -0.0075777429 0
-0.0099999812 -0.088331848 -0.0046617924 0
-0.0099999942 -0.088421606 -0.0014041543 0
-0.010000005 -0.088503957 0.0016926588 0
-0.010000015 -0.0884379 0.0046136156 0
-0.010000025 -0.088437691 0.0076522348 0
-0.0097751515 -0.088984422 0.0097505245 0
-0.0076485369 -0.088861562 -0.0099997055 0
-0.007519071 -0.088478133 0.010000289 0
-0.0043796487 -0.08843904 -0.0099996934 0
-0.0044418634 -0.088531047 0.010000302 0
-0.0014237917 -0.088609613 -0.0099996813 0
-0.0015023914 -0.088192649 0.010000315 0
3.3648e-08 -0.08881896 -0.0092947315 0
2.599854e-08 -0.088352084 -0.007181617 0
1.5563979e-08 -0.088420033 -0.0042991336 0
5.9211116e-09 -0.088453844 -0.0016353504 0
-5.9868079e-09 -0.088539697 0.0016541394 0
-1.6819564e-08 -0.088772856 0.0046466226 0
-2.6962592e-08 -0.088536605 0.0074485703 0
-3.4329876e-08 -0.088955976 0.0094837388 0
-0.0098462263 -0.085550725 -0.0097168628 0
-0.009999969 -0.085545763 -0.0074188458 0
-0.0099999839 -0.085288316 -0.0045941183 0
-0.0099999942 -0.085417882 -0.0014102242 0
-0.010000004 -0.085656509 0.0015569922 0
-0.010000014 -0.085598312 0.004717235 0
-0.010000023 -0.085781015 0.0074062804 0
-0.0096520269 -0.085364141 0.0097953444 0
-0.0074719004 -0.085287236 -0.0099997167 0
-0.0075647449 -0.085646175 0.01000028 0
-0.0046628802 -0.085473761 -0.0099997083 0
-0.0045784181 -0.085686684 0.01000029 0
-0.0014264785 -0.085412346 -0.0099996934 0
-0.0018851834 -0.085618317 0.010000302 0
3.4630851e-08 -0.085515194 -0.0095662503 0
2.6618212e-08 -0.085449353 -0.007352808 0
1.6725723e-08 -0.085610397 -0.0046200678 0
5.3689457e-09 -0.085366502 -0.0014828291 0
-4.7569819e-09 -0.08550822 0.0013143965 0
-1.617896e-08 -0.085840717 0.0044696489 0
-2.7015588e-08 -0.085460111 0.0074631991 0
-3.480681e-08 -0.085186884 0.0096154753 0
-0.0096798008 -0.082369946 -0.0098158186 0
-0.0099999709 -0.082525782 -0.007335105 0
-0.0099999802 -0.082700625 -0.0046329079 0
-0.0099999942 -0.082347371 -0.0015795708 0
-0.010000004 -0.082503811 0.0014496854 0
-0.010000013 -0.08243975 0.00441059 0
-0.010000026 -0.0822028 0.0074680806 0
-0.0097432844 -0.08268065 0.0098364847 0
-0.007437015 -0.082484663 -0.009999725 0
-0.0075227739 -0.082409583 0.010000268 0
-0.0045675938 -0.082292572 -0.0099997167 0
-0.0046617747 -0.082364634 0.010000279 0
-0.0014262223 -0.082502984 -0.0099997045 0
-0.001709432 -0.082194865 0.010000288 0
3.430797e-08 -0.082601868 -0.0094770668 0
2.6352655e-08 -0.082587339 -0.0072794599 0
1.6670143e-08 -0.082650915 -0.0046047247 0
5.5403611e-09 -0.082347676 -0.0015301926 0
-5.17863e-09 -0.08254876 0.0014308635 0
-1.5616306e-08 -0.082192622 0.0043142061 0
-2.7908248e-08 -0.082605764 0.0077097807 0
-3.450748e-08 -0.082827508 0.0095327785 0
-0.0097800326 -0.079465881 -0.0098101776 0
-0.0099999728 -0.079470724 -0.0076275473 0
-0.0099999839 -0.0794563 -0.0044823969 0
-0.0099999923 -0.079483546 -0.0015057457 0
-0.010000003 -0.079698406 0.0014535182 0
-0.010000014 -0.079731129 0.0046546836 0
-0.010000028 -0.079521537 0.0075787376 0
-0.0097052548 -0.07953234 0.009827368 0
-0.0075577646 -0.07931599 -0.0099997399 0
-0.0073641771 -0.079667784 0.01000026 0
-0.0043463795 -0.079174563 -0.0099997297 0
-0.0044627716 -0.07974802 0.010000271 0
-0.0013649689 -0.079362705 -0.0099997157 0
-0.0015061476 -0.079259537 0.010000282 0
3.4166057e-08 -0.07891807 -0.0094378768 0
2.6894257e-08 -0.079642534 -0.0074290847 0
1.6989636e-08 -0.079307221 -0.004692995 0
5.2795688e-09 -0.079478964 -0.0014581607 0
-4.6261484e-09 -0.079273529 0.001278232 0
-1.6154758e-08 -0.079510964 0.0044629402 0
-2.698617e-08 -0.079395853 0.0074550505 0
-3.4507522e-08 -0.079488859 0.0095327785 0
-0.0097545506 -0.076780021 -0.0097678592 0
-0.00999997 -0.07652586 -0.0075531937 0
-0.0099999812 -0.076485537 -0.0043783225 0
-0.0099999961 -0.076298177 -0.0014836353 0
-0.010000003 -0.076598048 0.0015130534 0
-0.010000015 -0.076414041 0.0047012395 0
-0.010000024 -0.076432489 0.0074162879 0
-0.0097600622 -0.076470897 0.0096923634 0
-0.0073780641 -0.0765066 -0.0099997511 0
-0.007833859 -0.076190412 0.010000248 0
-0.0044234116 -0.07676851 -0.009999739 0
-0.0048664608 -0.076456472 0.010000257 0
-0.0017296115 -0.076483533 -0.0099997278 0
-0.0014084795 -0.076537006 0.01000027 0
3.4305401e-08 -0.07676553 -0.0094763786 0
2.7663384e-08 -0.076524913 -0.0076415627 0
1.74e-08 -0.076671153 -0.0048063654 0
4.748705e-09 -0.076353393 -0.0013115242 0
-6.0022676e-09 -0.076427177 0.0016583662 0
-1.6780147e-08 -0.076750033 0.0046356902 0
-2.7359148e-08 -0.0765334 0.0075580734 0
-3.5125115e-08 -0.076438367 0.0097033735 0
-0.0097956741 -0.073291354 -0.0097051719 0
-0.00999997 -0.073412098 -0.0077330819 0
-0.0099999821 -0.073614031 -0.0045354757 0
-0.0099999923 -0.073490225 -0.0013468796 0
-0.010000003 -0.073633716 0.0014696901 0
-0.010000013 -0.073508784 0.0044700708 0
-0.010000026 -0.073603548 0.0073710755 0
-0.0098183881 -0.073489748 0.0097295102 0
-0.0073929792 -0.073407926 -0.0099997586 0
-0.0075100795 -0.073544621 0.010000237 0
-0.0043595019 -0.073671162 -0.0099997455 0
-0.0047048065 -0.073851444 0.010000248 0
-0.00167007 -0.073590435 -0.0099997371 0
-0.001599681 -0.073571503 0.010000258 0
3.4774516e-08 -0.07392171 -0.0096059786 0
2.6899031e-08 -0.073752612 -0.0074304249 0
1.5890871e-08 -0.073448449 -0.0043894895 0
5.7950289e-09 -0.073661506 -0.0016005744 0
-5.7907612e-09 -0.073495604 0.0015999281 0
-1.7530878e-08 -0.07384178 0.0048430646 0
-2.6506511e-08 -0.073498659 0.0073225265 0
-3.4468506e-08 -0.073934294 0.0095219798 0
-0.009751495 -0.070627287 -0.00977543 0
-0.00999997 -0.070359617 -0.0075296527 0
-0.0099999839 -0.070099108 -0.0044419817 0
-0.0099999923 -0.070692375 -0.0016101903 0
-0.010000002 -0.070557788 0.0013744821 0
-0.010000014 -0.070567831 0.0045322357 0
-0.010000025 -0.070400804 0.0075646364 0
-0.0096397744 -0.07046403 0.0097945295 0
-0.0073856614 -0.07054083 -0.0099997707 0
-0.0075725284 -0.070526347 0.010000227 0
-0.0046472219 -0.070529655 -0.0099997604 0
-0.0042729764 -0.070484422 0.010000237 0
-0.001352123 -0.070400663 -0.0099997465 0
-0.0012413338 -0.070517071 0.010000248 0
3.3817962e-08 -0.070568971 -0.0093417484 0
2.7296577e-08 -0.070630856 -0.0075402558 0
1.6515084e-08 -0.070492439 -0.0045619351 0
6.822602e-09 -0.070435569 -0.0018844468 0
-6.3589236e-09 -0.070533268 0.0017568688 0
-1.5363225e-08 -0.070297383 0.0042442507 0
-2.7503805e-08 -0.070408195 0.0075980118 0
-3.3954418e-08 -0.070808925 0.009379955 0
-0.0097595509 -0.067281626 -0.0096925497 0
-0.0099999728 -0.067172058 -0.0076923417 0
-0.009999983 -0.067578167 -0.0044676089 0
-0.0099999923 -0.06730409 -0.0014813578 0
-0.010000003 -0.067597561 0.001458396 0
-0.010000014 -0.067454696 0.0040331422 0
-0.010000025 -0.067292355 0.0073829689 0
-0.0096923094 -0.067481391 0.0098217316 0
-0.0074969404 -0.067466103 -0.00999978 0
-0.0075053964 -0.067530394 0.010000213 0
-0.0043881382 -0.067399062 -0.0099997697 0
-0.0044618896 -0.067506015 0.010000226 0
-0.001450297 -0.067503653 -0.0099997614 0
-0.0013655596 -0.067562036 0.010000237 0
3.4098193e-08 -0.067219704 -0.009419173 0
2.7280256e-08 -0.067756206 -0.0075357575 0
1.5783257e-08 -0.067559347 -0.0043597831 0
5.2068105e-09 -0.067370676 -0.0014381055 0
-5.8958212e-09 -0.067434944 0.0016289285 0
-1.6098213e-08 -0.067389302 0.0044472762 0
-2.7961706e-08 -0.067594901 0.0077244937 0
-3.4602156e-08 -0.068039246 0.0095588788 0
-0.013696055 -0.063446313 -0.013708702 0
-0.0136507 -0.06342604 -0.010590895 0
-0.013876684 -0.063441366 -0.0074850293 0
-0.013627081 -0.063472994 -0.0043313368 0
-0.013559025 -0.063459858 -0.0016074241 0
-0.013901166 -0.063462511 0.0014151408 0
-0.013690435 -0.06342905 0.0045306529 0
-0.013610628 -0.063469194 0.0075221658 0
-0.013857391 -0.063436627 0.010494209 0
-0.013639579 -0.06343437 0.013510942 0
-0.010408494 -0.063467115 -0.013412498 0
-0.010515379 -0.06373331 -0.010397466 0
-0.01019621 -0.064011656 -0.007698915 0
-0.010206457 -0.06390132 -0.0045031528 0
-0.010119552 -0.063860655 -0.0013793806 0
-0.010168809 -0.063940115 0.0016682128 0
-0.010246933 -0.06398505 0.0044170902 0
-0.01010076 -0.064095445 0.0074943719 0
-0.010258405 -0.063910164 0.010132814 0
-0.010462197 -0.063473441 0.013475507 0
-0.0075822831 -0.063432455 -0.01394425 0
-0.0073989751 -0.063955784 -0.010027739 0
-0.0075886957 -0.063499995 -0.0074556354 0
-0.0074876901 -0.06349998 -0.0045233644 0
-0.0076779211 -0.063499965 -0.0015859868 0
-0.0073824581 -0.06349995 0.001515721 0
-0.0076856087 -0.063499957 0.0043608509 0
-0.0077195843 -0.063499935 0.0074710259 0
-0.0073927077 -0.063881278 0.010150561 0
-0.0076523428 -0.063448653 0.013517844 0
-0.0045262016 -0.063470826 -0.013730047 0
-0.0045884526 -0.06388516 -0.010256032 0
-0.004470096 -0.063500009 -0.0075434158 0
-0.0044869049 -0.063499987 -0.0045134346 0
-0.0046820757 -0.063499987 -0.0014720885 0
-0.0044811205 -0.063499957 0.0015039603 0
-0.0045125186 -0.063499957 0.0045445641 0
-0.0046433569 -0.063499935 0.007638365 0
-0.00467479 -0.064036302 0.010151816 0
-0.0044633173 -0.063480243 0.013935658 0
-0.00154864 -0.063435934 -0.013819498 0
-0.0014774096 -0.064001828 -0.010207357 0
-0.0016408761 -0.063500002 -0.0074280039 0
-0.0016037087 -0.063499987 -0.0045575453 0
-0.0015695592 -0.063499965 -0.0013994237 0
-0.0013620618 -0.063499965 0.0014296987 0
-0.0014536662 -0.06349995 0.0043910621 0
-0.0015021707 -0.063499935 0.0073777172 0
-0.0014011972 -0.063918114 0.010188135 0
-0.0013682758 -0.063446991 0.013832133 0
0.0014138324 -0.063410461 -0.014063599 0
0.0011767083 -0.063780762 -0.010173034 0
0.00091338344 -0.063999973 -0.0074595357 0
0.00079215039 -0.064121015 -0.0044218847 0
0.00095574843 -0.063930757 -0.0015136148 0
0.00066170539 -0.064114965 0.0016093514 0
0.00093236193 -0.064072318 0.004433882 0
0.00065871351 -0.064126201 0.0075709904 0
0.0012115116 -0.063808694 0.010281974 0
0.0015546761 -0.06346336 0.013923681 0
0.0045908359 -0.063436091 -0.013507179 0
0.0046530771 -0.063500032 -0.01068569 0
0.0044248947 -0.063500047 -0.0075951661 0
0.0046543241 -0.063500024 -0.0046120798 0
0.0045794374 -0.063500002 -0.0012785959 0
0.0045866058 -0.063500002 0.0014247325 0
0.0042531649 -0.063499987 0.0044454709 0
0.0046298155 -0.063499965 0.0075867674 0
0.0045010042 -0.063499972 0.010548208 0
0.0044463063 -0.063486919 0.013630648 0
0.0077636489 -0.063468367 -0.013496661 0
0.0075338813 -0.063500054 -0.010478227 0
0.0073741334 -0.063500024 -0.0076495646 0
0.0075218817 -0.063500009 -0.0044827047 0
0.0075120912 -0.063500017 -0.0015243745 0
0.0072903326 -0.063500009 0.0016604197 0
0.0075911172 -0.063499987 0.0044654212 0
0.0077053416 -0.063499965 0.0072701764 0
0.0072905719 -0.063499957 0.010664185 0
0.007264317 -0.063442878 0.013777561 0
0.01055599 -0.063425146 -0.013795804 0
0.010600214 -0.063500032 -0.010533539 0
0.010564362 -0.063500009 -0.0077407132 0
0.010495647 -0.063500009 -0.0045155133 0
0.010512495 -0.063500002 -0.0013766931 0
0.010635948 -0.063500009 0.0014144371 0
0.010716291 -0.063499995 0.0047387234 0
0.01037797 -0.06349998 0.0074236984 0
0.010445308 -0.063499957 0.010515571 0
0.010510403 -0.063463569 0.013909247 0
0.013706044 -0.063457713 -0.013502442 0
0.013480198 -0.063450314 -0.010550114 0
0.01359296 -0.063468665 -0.0076319179 0
0.013724606 -0.063463613 -0.0045653437 0
0.013591191 -0.06346754 -0.0016044619 0
0.013748266 -0.063478559 0.0015610947 0
0.013964651 -0.063451968 0.0044598356 0
0.013548475 -0.063471742 0.0073078894 0
0.013349654 -0.063459352 0.010384239 0
0.013581282 -0.06342297 0.013836861 0
-0.014295291 -0.061479241 -0.013922001 0
-0.014899968 -0.06143837 -0.010576801 0
-0.014899971 -0.061538842 -0.0076139304 0
-0.014899991 -0.061358821 -0.0043075145 0
-0.014899996 -0.06159668 -0.0015067449 0
-0.014900004 -0.061538432 0.0014712506 0
-0.014900018 -0.061614536 0.0046209842 0
-0.014900026 -0.061451107 0.007486179 0
-0.014900036 -0.0617663 0.010171261 0
-0.014219289 -0.061509654 0.014300476 0
-0.010849693 -0.061304092 -0.014899817 0
-0.010549481 -0.06147087 0.014900183 0
-0.0073956884 -0.061549757 -0.014899804 0
-0.00734177 -0.061276875 0.014900194 0
-0.0045992061 -0.061550684 -0.014899796 0
-0.004286834 -0.061441392 0.014900206 0
-0.0013483464 -0.061603796 -0.014899782 0
-0.0013817901 -0.061373472 0.014900221 0
0.0016033452 -0.06163276 -0.01489977 0
0.0013505896 -0.061538745 0.014900234 0
0.0047573722 -0.061558641 -0.014899761 0
0.0045316522 -0.061570298 0.014900239 0
0.0075578289 -0.061277218 -0.014899755 0
0.0076527577 -0.061299328 0.014900255 0
0.010578005 -0.06151868 -0.014899745 0
0.010529662 -0.061475877 0.014900261 0
0.014271341 -0.061675385 -0.014242698 0
0.014900037 -0.061325341 -0.010498022 0
0.01490003 -0.061352354 -0.0074841138 0
0.014900018 -0.06159059 -0.0045787776 0
0.014900006 -0.061489578 -0.0015055931 0
0.014899997 -0.061497148 0.0013685849 0
0.014899981 -0.061654646 0.0043658093 0
0.014899977 -0.061522387 0.0075882147 0
0.014899972 -0.061291691 0.01041348 0
0.014237202 -0.061454654 0.01410505 0
-0.014100672 -0.058586583 -0.014270091 0
-0.01489997 -0.058295507 -0.010491418 0
-0.014899975 -0.058592483 -0.0075685377 0
-0.014899988 -0.058357857 -0.0044333651 0
-0.014899997 -0.058590371 -0.0012756399 0
-0.014900004 -0.058716383 0.0013676656 0
-0.014900018 -0.058405422 0.0046830908 0
-0.014900026 -0.058378652 0.0074521545 0
-0.014900037 -0.058135793 0.010176745 0
-0.014240214 -0.058552742 0.014049054 0
-0.010484522 -0.058155622 -0.014899828 0
-0.010455492 -0.058743965 0.014900177 0
-0.0073776003 -0.058571294 -0.014899816 0
-0.0075967861 -0.058443502 0.014900187 0
-0.0047133509 -0.058647521 -0.014899807 0
-0.0044622803 -0.058450717 0.014900194 0
-0.0015967867 -0.058525294 -0.014899793 0
-0.0016180613 -0.058488313 0.014900208 0
0.0015202573 -0.058594082 -0.014899786 0
0.001588348 -0.058708336 0.014900218 0
0.0048373314 -0.05856524 -0.014899769 0
0.0045895367 -0.058561835 0.014900229 0
0.0075060432 -0.058428522 -0.014899763 0
0.0073172948 -0.058462482 0.014900236 0
0.010357466 -0.058478739 -0.014899753 0
0.010487379 -0.058503423 0.014900253 0
0.014112453 -0.058318384 -0.014298956 0
0.014900041 -0.058604933 -0.010454306 0
0.014900026 -0.058361743 -0.0074206367 0
0.014900015 -0.058629286 -0.0044173473 0
0.014900009 -0.058504023 -0.0015795591 0
0.014900001 -0.058506332 0.0013267627 0
0.014899986 -0.058246542 0.0044400143 0
0.014899979 -0.058443114 0.0074565164 0
0.014899964 -0.058585662 0.010450976 0
0.014025594 -0.058495194 0.014257724 0
-0.01396729 -0.055434946 -0.014308096 0
-0.014899962 -0.055543967 -0.010586302 0
-0.014899975 -0.055530593 -0.0073141567 0
-0.014899983 -0.055527978 -0.0047161626 0
-0.014899995 -0.055670448 -0.0013372167 0
-0.014900006 -0.055347532 0.0014899584 0
-0.014900016 -0.055624485 0.0043583536 0
-0.014900029 -0.055482469 0.0076928893 0
-0.014900042 -0.055410508 0.01053381 0
-0.014180031 -0.055479378 0.014191714 0
-0.010439267 -0.055513792 -0.014899836 0
-0.010749087 -0.055287767 0.014900161 0
-0.0075293118 -0.055391237 -0.014899827 0
-0.0074902158 -0.055327572 0.014900174 0
-0.0045656282 -0.055639092 -0.014899815 0
-0.0042391955 -0.055802587 0.014900189 0
-0.0015170582 -0.055495426 -0.014899804 0
-0.0016019136 -0.055939339 0.014900198 0
0.00139331 -0.055424612 -0.014899799 0
0.0013093752 -0.055562839 0.014900208 0
0.0044103418 -0.055763848 -0.014899782 0
0.004356917 -0.055529609 0.014900221 0
0.0076895896 -0.055583198 -0.014899774 0
0.0075157019 -0.05554916 0.014900234 0
0.010554511 -0.055664103 -0.01489976 0
0.010431662 -0.055517618 0.014900245 0
0.014123059 -0.05555417 -0.014244867 0
0.014900044 -0.055591311 -0.010622902 0
0.014900031 -0.05558696 -0.0071530039 0
0.014900017 -0.055544771 -0.004460332 0
0.014900005 -0.055379193 -0.001668368 0
0.014899994 -0.055618901 0.0014580605 0
0.014899984 -0.055487994 0.0043934691 0
0.014899975 -0.055476513 0.0074128499 0
0.014899962 -0.055804186 0.010513238 0
0.014097209 -0.055475317 0.01426497 0
-0.014207629 -0.052653808 -0.014056982 0
-0.014899961 -0.052581646 -0.010619248 0
-0.014899978 -0.052394442 -0.0073598879 0
-0.014899983 -0.052498881 -0.0043987562 0
-0.014899994 -0.052405201 -0.0014640787 0
-0.014900009 -0.052506104 0.0015362545 0
-0.014900018 -0.052496143 0.0045505958 0
-0.014900028 -0.052720521 0.0076625501 0
-0.014900039 -0.052622531 0.010509279 0
-0.014229901 -0.052600507 0.014087164 0
-0.010511857 -0.052402403 -0.01489985 0
-0.010373271 -0.052359913 0.014900156 0
-0.0073820748 -0.052325867 -0.014899842 0
-0.0075738085 -0.052477695 0.014900166 0
-0.0046251244 -0.052641071 -0.014899826 0
-0.0042980113 -0.052410696 0.014900181 0
-0.0013426524 -0.052511211 -0.014899815 0
-0.0012423956 -0.052467711 0.014900184 0
0.0015750858 -0.052469566 -0.014899812 0
0.0012443896 -0.052196782 0.014900193 0
0.00450393 -0.052403763 -0.014899797 0
0.0044972827 -0.052417994 0.014900207 0
0.007529479 -0.052725285 -0.014899785 0
0.0074291378 -0.052487329 0.014900216 0
0.010391256 -0.052394342 -0.014899772 0
0.010524117 -0.052519489 0.014900235 0
0.014125271 -0.052556969 -0.014225568 0
0.014900039 -0.052581009 -0.010542031 0
0.014900026 -0.052473858 -0.0075534224 0
0.014900016 -0.052663114 -0.0047188639 0
0.014900005 -0.052406248 -0.0013170274 0
0.014899993 -0.052291572 0.0015001784 0
0.014899986 -0.052375216 0.0043233675 0
0.014899973 -0.05235165 0.0074965879 0
0.014899968 -0.052399009 0.010335257 0
0.01403882 -0.052504253 0.014356503 0
-0.014111311 -0.04933726 -0.014114415 0
-0.014899966 -0.049720701 -0.01041902 0
-0.014899978 -0.049406521 -0.0074965241 0
-0.014899984 -0.049492173 -0.0043193181 0
-0.014899998 -0.049577657 -0.0015113277 0
-0.014900004 -0.049436584 0.0013835663 0
-0.014900016 -0.049603339 0.0044247182 0
-0.01490003 -0.049441535 0.0074528437 0
-0.014900041 -0.049561396 0.010736047 0
-0.014196603 -0.04958418 0.014194925 0
-0.010587802 -0.049646672 -0.014899862 0
-0.010525337 -0.049529787 0.014900141 0
-0.0072661168 -0.049345922 -0.014899851 0
-0.0073055387 -0.049542118 0.014900159 0
-0.0043999376 -0.049548846 -0.014899839 0
-0.0043488382 -0.049627014 0.014900167 0
-0.001396013 -0.049681243 -0.014899824 0
-0.00142491 -0.049492233 0.014900173 0
0.0016448587 -0.049419075 -0.014899815 0
0.0016350721 -0.049447339 0.014900187 0
0.0043148044 -0.049394242 -0.014899809 0
0.0046115816 -0.049368419 0.014900194 0
0.0074645276 -0.049304865 -0.014899794 0
0.0073731388 -0.049545344 0.01490021 0
0.010709271 -0.049525574 -0.014899785 0
0.010459855 -0.049653459 0.014900221 0
0.014285789 -0.049437724 -0.014136868 0
0.014900045 -0.049543235 -0.010344719 0
0.014900026 -0.049588431 -0.0074706841 0
0.01490002 -0.049658671 -0.0045272503 0
0.014900003 -0.049345911 -0.0011084938 0
0.014899995 -0.049433045 0.0011243453 0
0.014899989 -0.049547736 0.004552111 0
0.014899976 -0.049588419 0.0074251969 0
0.014899965 -0.049451146 0.010437626 0
0.014183535 -0.049575906 0.014028287 0
-0.013879266 -0.046648521 -0.01433352 0
-0.014899963 -0.046349227 -0.010647824 0
-0.014899974 -0.046611726 -0.0075059347 0
-0.014899986 -0.046414718 -0.0045827753 0
-0.014899994 -0.046252966 -0.0012933717 0
-0.014900007 -0.046532981 0.0014660039 0
-0.014900019 -0.046556603 0.0045746043 0
-0.014900026 -0.046629336 0.0074782926 0
-0.01490004 -0.046341848 0.010413281 0
-0.014325819 -0.046619549 0.013876718 0
-0.010494332 -0.046788875 -0.014899868 0
-0.010740547 -0.046715025 0.014900129 0
-0.0075593912 -0.046652224 -0.014899859 0
-0.0072823195 -0.046576992 0.014900141 0
-0.0045489026 -0.046801317 -0.014899846 0
-0.0046390789 -0.046477169 0.014900151 0
-0.0015475468 -0.046654616 -0.014899839 0
-0.0014203825 -0.046519559 0.014900162 0
0.0013848131 -0.046550766 -0.01489983 0
0.0013732336 -0.046388105 0.014900173 0
0.0045255716 -0.046593148 -0.014899814 0
0.0041393908 -0.046596397 0.014900184 0
0.0072229137 -0.046766613 -0.014899804 0
0.0076209093 -0.046386637 0.014900195 0
0.010347023 -0.046742965 -0.014899797 0
0.010529905 -0.04646178 0.014900213 0
0.014084921 -0.04657669 -0.014311856 0
0.014900039 -0.04643403 -0.010502809 0
0.014900025 -0.046513565 -0.0072317771 0
0.014900018 -0.046896163 -0.0045911158 0
0.014900009 -0.046341013 -0.0016357857 0
0.014899996 -0.046656508 0.0013117065 0
0.014899986 -0.046393678 0.0043494273 0
0.014899972 -0.04685574 0.0077788499 0
0.014899961 -0.046693005 0.010534473 0
0.014047099 -0.046737261 0.014350117 0
-0.014235324 -0.043543063 -0.014024998 0
-0.014899966 -0.043569114 -0.010195768 0
-0.014899973 -0.043540869 -0.0072658872 0
-0.014899991 -0.043398503 -0.0045888838 0
-0.014899998 -0.043472029 -0.0015721881 0
-0.014900004 -0.043348528 0.0015367563 0
-0.01490002 -0.043642651 0.0045243767 0
-0.014900029 -0.043667328 0.0072689438 0
-0.014900036 -0.043588798 0.010309834 0
-0.014076131 -0.043548521 0.014270549 0
-0.010316087 -0.043774594 -0.014899882 0
-0.010328431 -0.043309607 0.01490012 0
-0.007521709 -0.043334596 -0.014899871 0
-0.0073919264 -0.04337848 0.014900131 0
-0.0045617949 -0.043592084 -0.014899863 0
-0.0042535248 -0.043627445 0.014900144 0
-0.0011598743 -0.043560453 -0.014899851 0
-0.0012285166 -0.043570518 0.014900152 0
0.0017453921 -0.043618474 -0.014899839 0
0.001491916 -0.043444648 0.014900166 0
0.0043514064 -0.043680303 -0.014899831 0
0.00457802 -0.043324661 0.014900175 0
0.0075864107 -0.043343648 -0.014899816 0
0.0076751625 -0.043582458 0.014900189 0
0.010269013 -0.043491825 -0.014899807 0
0.010550712 -0.04382265 0.014900197 0
0.014083558 -0.04341419 -0.014236351 0
0.014900042 -0.043542005 -0.01057011 0
0.014900028 -0.043547187 -0.0074795103 0
0.014900018 -0.043559372 -0.0043459083 0
0.014900006 -0.043352142 -0.0013718401 0
0.014899999 -0.043559089 0.001406075 0
0.014899987 -0.043659303 0.0045705736 0
0.014899974 -0.043575909 0.0074317479 0
0.014899964 -0.04354028 0.010528023 0
0.014228563 -0.043560088 0.01412086 0
-0.014212972 -0.040577028 -0.014168683 0
-0.014899964 -0.040350966 -0.010504503 0
-0.014899972 -0.040415023 -0.0074439025 0
-0.014899985 -0.040419292 -0.0043934956 0
-0.014899996 -0.040411159 -0.0014047803 0
-0.014900004 -0.040543783 0.0015828366 0
-0.014900018 -0.040463042 0.0043647462 0
-0.014900027 -0.040250886 0.0072961044 0
-0.014900047 -0.040355451 0.010466113 0
-0.014228552 -0.040331859 0.014031327 0
-0.010582102 -0.040428501 -0.014899891 0
-0.010409638 -0.040290564 0.014900112 0
-0.0074354135 -0.040377192 -0.014899882 0
-0.0075811488 -0.040659141 0.014900121 0
-0.004468115 -0.040438991 -0.014899871 0
-0.0044264481 -0.040409151 0.014900134 0
-0.0013820234 -0.040448125 -0.014899857 0
-0.0018400002 -0.040551532 0.01490014 0
0.0014402342 -0.040508322 -0.014899847 0
0.0011228098 -0.040677153 0.014900152 0
0.0045434609 -0.040444296 -0.014899841 0
0.0044002631 -0.040625151 0.014900167 0
0.0075482801 -0.040421136 -0.014899827 0
0.0076605389 -0.040554509 0.014900179 0
0.010531438 -0.040421147 -0.014899816 0
0.010346129 -0.040586069 0.01490019 0
0.01394182 -0.040373113 -0.014280689 0
0.014900038 -0.040561546 -0.010757193 0
0.014900033 -0.040420428 -0.007377713 0
0.014900015 -0.04072139 -0.0044923145 0
0.014900005 -0.040557217 -0.0013517941 0
0.014899996 -0.040347837 0.0013638447 0
0.014899985 -0.040535897 0.0043628742 0
0.014899977 -0.040284809 0.0073081432 0
0.014899963 -0.040456694 0.010879103 0
0.01431377 -0.040576901 0.014042413 0
-0.014105414 -0.037467804 -0.014279462 0
-0.014899964 -0.037621547 -0.010509174 0
-0.014899974 -0.037619766 -0.0072316797 0
-0.014899987 -0.037231266 -0.0045304638 0
-0.014899994 -0.037578702 -0.0015594353 0
-0.014900004 -0.037313174 0.0014029014 0
-0.014900016 -0.037525691 0.0042568268 0
-0.014900028 -0.037489105 0.0072715534 0
-0.014900039 -0.037577234 0.010726066 0
-0.014213791 -0.03743599 0.014054159 0
-0.010588708 -0.037529439 -0.014899911 0
-0.010675028 -0.037338052 0.014900103 0
-0.0076309005 -0.037530754 -0.014899891 0
-0.0074022007 -0.037383202 0.01490011 0
-0.0045321453 -0.037344996 -0.014899884 0
-0.0044365078 -0.037456948 0.014900123 0
-0.0015399682 -0.03747296 -0.014899872 0
-0.0017796654 -0.037653077 0.014900128 0
0.0013170755 -0.037612356 -0.014899861 0
0.0012913989 -0.037568819 0.014900143 0
0.004688588 -0.0377547 -0.014899846 0
0.0042924099 -0.03769803 0.014900152 0
0.0074463305 -0.03736322 -0.014899842 0
0.0074228058 -0.037419558 0.014900164 0
0.010465449 -0.037382767 -0.014899834 0
0.010503348 -0.037240043 0.014900174 0
0.01403908 -0.037471954 -0.014202151 0
0.014900037 -0.0374614 -0.010500488 0
0.014900024 -0.037471578 -0.0071919691 0
0.014900018 -0.037529211 -0.0042632399 0
0.014900009 -0.037477113 -0.0015108499 0
0.014900002 -0.037411839 0.0013962602 0
0.014899983 -0.037432488 0.004667128 0
0.014899977 -0.037720527 0.007343505 0
0.014899966 -0.037512083 0.010403278 0
0.014243226 -0.037623324 0.014106167 0
-0.014110657 -0.034492165 -0.014358883 0
-0.014899964 -0.034514427 -0.010386585 0
-0.014899977 -0.034282867 -0.0073495754 0
-0.014899987 -0.034434792 -0.0045637167 0
-0.014900003 -0.034584984 -0.0014872168 0
-0.01490001 -0.034561802 0.0017018981 0
-0.014900019 -0.034487534 0.00456671 0
-0.014900033 -0.03452941 0.0074892351 0
-0.01490004 -0.034422807 0.010535191 0
-0.014221982 -0.034559101 0.014222424 0
-0.010248911 -0.034368381 -0.014899912 0
-0.010473805 -0.03446088 0.014900089 0
-0.0074216467 -0.034448694 -0.014899901 0
-0.0077167703 -0.034531593 0.014900099 0
-0.0044304323 -0.034327865 -0.014899893 0
-0.0045849695 -0.034378707 0.014900113 0
-0.0015656115 -0.03454823 -0.01489988 0
-0.0016824068 -0.034505591 0.014900117 0
0.0014350531 -0.03439397 -0.014899871 0
0.0012764329 -0.034482006 0.014900129 0
0.0043422189 -0.034473803 -0.014899863 0
0.0046225884 -0.034575507 0.01490014 0
0.0074333386 -0.034298405 -0.014899848 0
0.0075697838 -0.034715116 0.014900154 0
0.010544447 -0.034555003 -0.014899839 0
0.010552223 -0.034457646 0.014900166 0
0.014290674 -0.034466457 -0.014036664 0
0.014900042 -0.034477685 -0.010437843 0
0.014900026 -0.034154013 -0.0073951753 0
0.014900015 -0.034401584 -0.0043763444 0
0.014900004 -0.034388874 -0.0012265473 0
0.014899996 -0.034386497 0.0014355734 0
0.014899986 -0.034651417 0.0044305027 0
0.014899975 -0.03462901 0.0074861981 0
0.014899963 -0.034838609 0.010245482 0
0.014290144 -0.034454148 0.014156827 0
-0.014094663 -0.031345043 -0.014130626 0
-0.014899962 -0.031688318 -0.010484249 0
-0.014899971 -0.031518448 -0.0076669757 0
-0.014899988 -0.031476919 -0.0044200863 0
-0.014899995 -0.031425077 -0.0015137881 0
-0.014900004 -0.031666033 0.001384624 0
-0.014900016 -0.031196808 0.0042655119 0
-0.014900026 -0.031499345 0.0074732383 0
-0.014900042 -0.031607624 0.010482335 0
-0.014186562 -0.031489063 0.014204036 0
-0.010578514 -0.031534888 -0.014899929 0
-0.010411839 -0.031676244 0.014900084 0
-0.0075164852 -0.031552695 -0.014899918 0
-0.0076648686 -0.031553816 0.01490009 0
-0.0043964861 -0.031504534 -0.014899906 0
-0.0042685624 -0.031459026 0.014900098 0
-0.0014367985 -0.031480286 -0.014899896 0
-0.0012112168 -0.031762213 0.014900111 0
0.0016392441 -0.031577826 -0.014899883 0
0.0014305044 -0.03152455 0.014900119 0
0.0042023188 -0.031493258 -0.014899871 0
0.0045543974 -0.03132575 0.014900131 0
0.0075694644 -0.031564031 -0.014899858 0
0.0074662538 -0.031591985 0.014900143 0
0.010584635 -0.031672023 -0.014899846 0
0.010380983 -0.031338468 0.014900154 0
0.014294963 -0.031555094 -0.014150315 0
0.014900042 -0.031597771 -0.010532006 0
0.014900028 -0.031597178 -0.00753173 0
0.014900017 -0.031495705 -0.0045870971 0
0.014900004 -0.031428937 -0.0015826495 0
0.014899997 -0.031532552 0.001731683 0
0.014899985 -0.031225335 0.0045147012 0
0.014899972 -0.031250894 0.0074963039 0
0.01489996 -0.031317562 0.010712594 0
0.014193567 -0.031515397 0.013998524 0
-0.014198955 -0.028379435 -0.014106816 0
-0.014899965 -0.028491803 -0.01050905 0
-0.014899977 -0.028609186 -0.0076766224 0
-0.014899985 -0.028414791 -0.0044968473 0
-0.014899999 -0.02848894 -0.0013202758 0
-0.014900005 -0.028685918 0.0012907188 0
-0.014900019 -0.02857998 0.0046389359 0
-0.014900034 -0.028615415 0.0073906374 0
-0.014900043 -0.02842024 0.010211347 0
-0.014141479 -0.02866563 0.014180352 0
-0.010289198 -0.028578587 -0.014899933 0
-0.01047871 -0.028314326 0.014900064 0
-0.0073988913 -0.028467232 -0.014899925 0
-0.0073866607 -0.028585706 0.01490008 0
-0.004441001 -0.028474286 -0.014899913 0
-0.0046541439 -0.028542373 0.014900086 0
-0.0012939853 -0.028457606 -0.014899902 0
-0.0016513506 -0.028345002 0.014900099 0
0.0013897424 -0.028405257 -0.014899899 0
0.0016208215 -0.028462486 0.014900113 0
0.0043675136 -0.028216753 -0.014899884 0
0.0044448311 -0.028611071 0.014900118 0
0.007337776 -0.028543491 -0.014899869 0
0.0073844022 -0.028430009 0.01490013 0
0.010670907 -0.028572913 -0.01489986 0
0.010448132 -0.028568994 0.014900143 0
0.014191114 -0.028589698 -0.014146788 0
0.014900038 -0.028318373 -0.010668376 0
0.014900028 -0.02852443 -0.0073442301 0
0.014900015 -0.028376747 -0.0044468762 0
0.014900008 -0.028390341 -0.0012073995 0
0.014899993 -0.02851739 0.0015458621 0
0.014899984 -0.028491803 0.0044758352 0
0.014899978 -0.028513229 0.0075560794 0
0.014899963 -0.028565858 0.010613792 0
0.014268994 -0.02852397 0.014193829 0
-0.014056798 -0.025453283 -0.014378876 0
-0.014899962 -0.025434643 -0.010383638 0
-0.014899978 -0.025438098 -0.0075635733 0
-0.014899984 -0.025579436 -0.004147518 0
-0.014899993 -0.025346342 -0.0016020737 0
-0.014900006 -0.025266146 0.0016240268 0
-0.014900019 -0.02550195 0.0044932421 0
-0.014900031 -0.025448164 0.0075703384 0
-0.014900038 -0.025618123 0.010509616 0
-0.014269755 -0.025591113 0.014090187 0
-0.010551916 -0.025498524 -0.014899951 0
-0.010571124 -0.025591554 0.014900058 0
-0.0074109966 -0.025361061 -0.014899938 0
-0.0075515416 -0.025530811 0.014900066 0
-0.0043279571 -0.02546012 -0.014899923 0
-0.0044419807 -0.02556161 0.014900077 0
-0.0013460997 -0.025752816 -0.014899915 0
-0.0013515754 -0.025450122 0.014900091 0
0.0015377684 -0.025548819 -0.014899902 0
0.0015407688 -0.025672741 0.014900098 0
0.0047259144 -0.025732419 -0.01489989 0
0.0044665602 -0.025657265 0.014900114 0
0.0074668271 -0.025317948 -0.014899882 0
0.0073291175 -0.025309335 0.014900119 0
0.010531395 -0.025453536 -0.01489987 0
0.010702654 -0.025484953 0.014900132 0
0.014143394 -0.02539915 -0.014164532 0
0.014900037 -0.025181772 -0.010501464 0
0.014900027 -0.025513718 -0.0076425113 0
0.014900018 -0.025411081 -0.0046850415 0
0.014900009 -0.02564819 -0.0014560501 0
0.014899995 -0.025618792 0.0015402684 0
0.014899983 -0.025211658 0.0044034505 0
0.014899972 -0.025802651 0.0075380476 0
0.014899969 -0.025513869 0.010324582 0
0.014170196 -0.025502408 0.014026967 0
-0.014184005 -0.022490555 -0.013960962 0
-0.014899963 -0.022550372 -0.010476852 0
-0.014899976 -0.022356952 -0.0073612295 0
-0.014899986 -0.022275107 -0.0046546231 0
-0.014899994 -0.022881031 -0.0016471988 0
-0.014900005 -0.0224896 0.0017634836 0
-0.014900015 -0.02277831 0.0043836767 0
-0.014900027 -0.022101171 0.0075925793 0
-0.014900039 -0.022614984 0.010422489 0
-0.014085842 -0.022598118 0.014127134 0
-0.010498464 -0.022562498 -0.014899954 0
-0.010559211 -0.022684364 0.014900043 0
-0.0073519894 -0.02230485 -0.014899948 0
-0.007468069 -0.022639997 0.014900056 0
-0.0044675157 -0.022631587 -0.014899936 0
-0.0045446623 -0.022599829 0.014900074 0
-0.0014452905 -0.022741441 -0.014899929 0
-0.0016283195 -0.022526165 0.014900075 0
0.0016596481 -0.022196913 -0.014899914 0
0.0015474395 -0.022685327 0.014900088 0
0.0045029889 -0.02259283 -0.014899902 0
0.0044588735 -0.02253316 0.014900099 0
0.0075032595 -0.022786444 -0.014899894 0
0.0072738109 -0.022438388 0.014900111 0
0.010490047 -0.022407502 -0.014899884 0
0.010483521 -0.022705888 0.014900121 0
0.014100217 -0.022673164 -0.01420837 0
0.014900039 -0.022315715 -0.010379726 0
0.014900026 -0.02262621 -0.0074475361 0
0.014900018 -0.022512954 -0.00478569 0
0.014900008 -0.022424452 -0.001370642 0
0.0149 -0.022531219 0.0015815155 0
0.014899985 -0.02251572 0.0045866473 0
0.014899974 -0.022633202 0.0073270435 0
0.014899962 -0.022470625 0.010330427 0
0.014185885 -0.022660265 0.014019488 0
-0.014130428 -0.019416295 -0.014166415 0
-0.014899964 -0.019363001 -0.010451966 0
-0.014899972 -0.019506451 -0.0076830653 0
-0.014899986 -0.019512856 -0.004772868 0
-0.014900001 -0.01949816 -0.0015572327 0
-0.014900005 -0.019442311 0.0017417007 0
-0.014900025 -0.019417595 0.0045645968 0
-0.014900026 -0.019545026 0.0074332035 0
-0.014900041 -0.019551395 0.010239792 0
-0.014344268 -0.019470809 0.014201643 0
-0.010351066 -0.019549742 -0.01489997 0
-0.01045865 -0.019632863 0.014900034 0
-0.0077760178 -0.019393725 -0.014899959 0
-0.0076551144 -0.019511135 0.014900042 0
-0.0045720479 -0.019444158 -0.01489995 0
-0.0046853018 -0.019394312 0.014900052 0
-0.0014036851 -0.019416647 -0.014899938 0
-0.0015633393 -0.019601556 0.014900067 0
0.001168808 -0.019504512 -0.014899923 0
0.0013842607 -0.019908467 0.014900078 0
0.0041469233 -0.019667093 -0.014899913 0
0.004516711 -0.019313633 0.014900086 0
0.0078900531 -0.019258531 -0.014899903 0
0.0076494035 -0.019453049 0.014900099 0
0.010472026 -0.019476756 -0.014899891 0
0.010431943 -0.019358249 0.014900112 0
0.014121324 -0.019540785 -0.014244761 0
0.014900043 -0.019415453 -0.010703308 0
0.014900026 -0.019693127 -0.0074089821 0
0.014900017 -0.019562596 -0.004558275 0
0.014900009 -0.019463124 -0.0014921628 0
0.014899993 -0.019368073 0.001537232 0
0.014899983 -0.019349985 0.0046834988 0
0.014899973 -0.01938216 0.007444819 0
0.014899962 -0.019401342 0.010640023 0
0.014203074 -0.019351339 0.014027048 0
-0.014216473 -0.016632237 -0.014183173 0
-0.014899964 -0.016273055 -0.01049542 0
-0.014899973 -0.016501546 -0.007153356 0
-0.014899986 -0.016431421 -0.0042310217 0
-0.014899998 -0.016561208 -0.0014615022 0
-0.014900007 -0.016639274 0.0014812113 0
-0.014900015 -0.016488805 0.0044733668 0
-0.014900031 -0.016548906 0.0073512536 0
-0.014900036 -0.016691579 0.010222345 0
-0.01418958 -0.016296839 0.014176652 0
-0.010349222 -0.016595978 -0.014899978 0
-0.010640165 -0.016372239 0.01490002 0
-0.0074652308 -0.016365595 -0.01489997 0
-0.0072952155 -0.016536519 0.014900036 0
-0.0045285961 -0.016279614 -0.014899964 0
-0.0046910881 -0.016754908 0.014900044 0
-0.0014463463 -0.016580103 -0.014899952 0
-0.0013906573 -0.016582014 0.014900054 0
0.001325431 -0.016441047 -0.014899937 0
0.0014286618 -0.016576191 0.014900068 0
0.0042568198 -0.016339963 -0.014899926 0
0.0042692008 -0.01651177 0.014900075 0
0.0075060255 -0.016333779 -0.014899917 0
0.0074622137 -0.01659273 0.014900086 0
0.010488158 -0.01672432 -0.014899908 0
0.010640249 -0.016609825 0.014900098 0
0.014062689 -0.01650504 -0.014203302 0
0.01490004 -0.016504042 -0.010503988 0
0.014900028 -0.016611043 -0.0077069998 0
0.014900017 -0.016668145 -0.0047882749 0
0.014900006 -0.01637727 -0.0016928418 0
0.014899996 -0.016440758 0.0013246664 0
0.014899982 -0.016577413 0.0047578081 0
0.014899973 -0.01668087 0.007692344 0
0.014899966 -0.016709361 0.010390349 0
0.014386924 -0.016369997 0.014114729 0
-0.014251344 -0.013591571 -0.014154144 0
-0.014899964 -0.013369325 -0.010446438 0
-0.014899977 -0.0133664 -0.0072418349 0
-0.014899983 -0.013408434 -0.0045923386 0
-0.014899994 -0.013307363 -0.0012199555 0
-0.014900006 -0.013377962 0.0013777075 0
-0.014900019 -0.013514795 0.0048386068 0
-0.014900027 -0.013685891 0.0076209018 0
-0.014900045 -0.013610343 0.010652171 0
-0.014159543 -0.013519989 0.014171763 0
-0.010237706 -0.013510779 -0.014899988 0
-0.010438416 -0.013650773 0.014900012 0
-0.0074017104 -0.013688604 -0.014899979 0
-0.0074461652 -0.013269971 0.014900022 0
-0.0045214235 -0.013639247 -0.014899974 0
-0.0046786917 -0.013440616 0.014900031 0
-0.0013850699 -0.013534292 -0.014899954 0
-0.0014112195 -0.013764481 0.014900045 0
0.0015120567 -0.013675217 -0.014899944 0
0.0014882578 -0.013428066 0.014900055 0
0.0041706809 -0.01344311 -0.01489994 0
0.0044974959 -0.013540608 0.014900066 0
0.0074309441 -0.013515569 -0.014899925 0
0.0076146065 -0.013654476 0.014900076 0
0.010383015 -0.013338981 -0.014899917 0
0.010169639 -0.013346279 0.014900086 0
0.014122555 -0.013550836 -0.014243196 0
0.014900041 -0.01350466 -0.010591876 0
0.014900028 -0.013594911 -0.0076924991 0
0.014900016 -0.01347803 -0.0043751667 0
0.014900006 -0.013279686 -0.001648674 0
0.0149 -0.013661201 0.0014673671 0
0.014899983 -0.01342276 0.0045171487 0
0.014899977 -0.013259063 0.0075157997 0
0.014899964 -0.013632135 0.010661142 0
0.014190619 -0.013608292 0.014117119 0
-0.014246847 -0.010725385 -0.014034678 0
-0.014899963 -0.01029369 -0.010465477 0
-0.014899972 -0.010529343 -0.0074318508 0
-0.014899987 -0.010726512 -0.0045176921 0
-0.014899999 -0.010615702 -0.0012904957 0
-0.014900004 -0.010375724 0.0014008067 0
-0.014900017 -0.010416158 0.0045581544 0
-0.014900034 -0.010446297 0.0075737159 0
-0.014900039 -0.010384835 0.010752032 0
-0.014372583 -0.010453329 0.014035904 0
-0.010482106 -0.010677987 -0.014899998 0
-0.010444985 -0.010414231 0.014900003 0
-0.0074754152 -0.010288104 -0.014899992 0
-0.0072676511 -0.010266448 0.014900013 0
-0.0046274038 -0.010735599 -0.014899979 0
-0.0045380783 -0.010557511 0.014900023 0
-0.0015453589 -0.01064369 -0.014899966 0
-0.0016392409 -0.010608014 0.014900035 0
0.001700544 -0.010521025 -0.014899957 0
0.0012318838 -0.010591246 0.014900045 0
0.0044257748 -0.010500624 -0.014899947 0
0.0043628383 -0.010628272 0.014900054 0
0.0076967585 -0.010634732 -0.01489994 0
0.0074556204 -0.010433164 0.014900071 0
0.010306302 -0.010515947 -0.014899928 0
0.010477897 -0.010454409 0.014900078 0
0.014119336 -0.010317349 -0.014130667 0
0.014900042 -0.010423439 -0.010612949 0
0.014900025 -0.010468573 -0.0070908628 0
0.014900025 -0.010737346 -0.0045996793 0
0.014900006 -0.010572355 -0.0015272596 0
0.014899993 -0.0103658 0.0015647131 0
0.014899983 -0.010483107 0.0047173686 0
0.014899972 -0.010564948 0.007406855 0
0.014899964 -0.010263562 0.010491573 0
0.014303135 -0.010446644 0.014054114 0
-0.014093621 -0.0073530851 -0.014280076 0
-0.014899965 -0.0073877135 -0.01052741 0
-0.014899974 -0.0071726386 -0.0075805937 0
-0.014899984 -0.007820881 -0.004573205 0
-0.014899993 -0.0077111702 -0.001451208 0
-0.014900004 -0.0077176201 0.0015594697 0
-0.014900019 -0.0075928401 0.0045014098 0
-0.014900027 -0.0074833082 0.0076367543 0
-0.014900038 -0.0073529808 0.010689921 0
-0.014202844 -0.007352368 0.014146198 0
-0.010491709 -0.0075713596 -0.014900014 0
-0.010630572 -0.0075423531 0.014899991 0
-0.0074650915 -0.0076097171 -0.014899998 0
-0.0073053851 -0.0073490329 0.014899999 0
-0.0045765657 -0.0073872302 -0.014899993 0
-0.004370817 -0.0073603923 0.014900015 0
-0.0011928321 -0.0074095922 -0.014899979 0
-0.0011847559 -0.0074261441 0.014900024 0
0.0014861637 -0.0074199168 -0.014899969 0
0.0014570847 -0.0074718357 0.014900033 0
0.0044277515 -0.0075118463 -0.014899958 0
0.0045382618 -0.0076608378 0.014900048 0
0.0074730874 -0.007309265 -0.014899952 0
0.0077382163 -0.007548464 0.014900056 0
0.01043296 -0.007251082 -0.014899943 0
0.010527382 -0.0073548313 0.014900066 0
0.013964176 -0.0076914513 -0.014330042 0
0.01490004 -0.0074475906 -0.010613033 0
0.014900026 -0.0075728777 -0.0075466782 0
0.014900017 -0.0074317227 -0.0041567455 0
0.014900004 -0.0074768998 -0.0013911707 0
0.014899992 -0.0075835045 0.0014808095 0
0.014899985 -0.0073295627 0.0046482538 0
0.014899971 -0.0072510201 0.0076498357 0
0.014899961 -0.007370797 0.010665904 0
0.014208079 -0.0076076202 0.014163638 0
-0.014110201 -0.0046003698 -0.014205 0
-0.014899966 -0.0046134996 -0.010407308 0
-0.014899977 -0.0045725591 -0.0075106556 0
-0.014899982 -0.0047630291 -0.0045130136 0
-0.014899998 -0.0044432585 -0.0015442774 0
-0.014900006 -0.0045477776 0.0014287791 0
-0.014900018 -0.0045023267 0.004459748 0
-0.014900026 -0.0047630328 0.0074382504 0
-0.014900042 -0.0045575518 0.010659617 0
-0.014276951 -0.0045343353 0.014152293 0
-0.010409292 -0.0043593976 -0.014900028 0
-0.01056757 -0.0044730953 0.014899983 0
-0.0073069637 -0.0044293925 -0.014900012 0
-0.0076576644 -0.004505645 0.014899994 0
-0.0046236152 -0.0044939839 -0.014900003 0
-0.0046207118 -0.0044272309 0.014900003 0
-0.0016643397 -0.0043978193 -0.01489999 0
-0.001294572 -0.004356843 0.014900012 0
0.0013823704 -0.0045143841 -0.014899981 0
0.0015417113 -0.0045538242 0.014900022 0
0.004550973 -0.0045562326 -0.014899966 0
0.0046606804 -0.0044142012 0.014900032 0
0.0077109691 -0.0042986711 -0.014899957 0
0.0073300647 -0.0048587257 0.014900045 0
0.010509519 -0.0044472488 -0.014899948 0
0.010910533 -0.00433585 0.014900054 0
0.014271757 -0.0045520929 -0.013875733 0
0.014900044 -0.0044746501 -0.01039677 0
0.014900029 -0.0043845554 -0.0077518295 0
0.014900016 -0.0043427777 -0.0046528573 0
0.014900004 -0.0043810257 -0.0016537092 0
0.014899995 -0.0044686948 0.0016871265 0
0.014899987 -0.0043718759 0.0045807674 0
0.014899972 -0.0043724608 0.0073462632 0
0.014899962 -0.0045141261 0.010570141 0
0.014162036 -0.0042620185 0.014177091 0
-0.01419667 -0.0018305338 -0.014082423 0
-0.014899968 -0.00162769 -0.010568418 0
-0.014899974 -0.0014222276 -0.0072330758 0
-0.014899983 -0.0014498595 -0.004280922 0
-0.014900001 -0.001634131 -0.0014303381 0
-0.014900004 -0.0017210577 0.0016405581 0
-0.014900017 -0.0018237737 0.004219301 0
-0.014900025 -0.0013740493 0.0073227603 0
-0.014900037 -0.0015712526 0.010219282 0
-0.014038256 -0.0013651171 0.01419394 0
-0.010803496 -0.0016711224 -0.014900037 0
-0.010538619 -0.0014431357 0.014899971 0
-0.0074648554 -0.0013584725 -0.014900025 0
-0.0073790937 -0.0013471153 0.014899981 0
-0.0044876002 -0.0014286861 -0.014900014 0
-0.0045564654 -0.0012695692 0.014899993 0
-0.0015299397 -0.0014703021 -0.014899999 0
-0.0013998398 -0.0015759573 0.014900004 0
0.0015720358 -0.0013808083 -0.014899993 0
0.0014214452 -0.0018134998 0.014900014 0
0.0046839681 -0.0012488859 -0.014899982 0
0.0044325506 -0.0016905318 0.014900026 0
0.0072838259 -0.0015805356 -0.014899967 0
0.0073800208 -0.0014560677 0.014900036 0
0.010600716 -0.0013836585 -0.014899963 0
0.010521589 -0.0013816159 0.014900053 0
0.014278662 -0.0012109684 -0.014145547 0
0.014900042 -0.0014577971 -0.010470321 0
0.014900032 -0.001368333 -0.0074244286 0
0.014900014 -0.0015008086 -0.0041193347 0
0.014900005 -0.0015574768 -0.0014626508 0
0.014899994 -0.001625567 0.0013693974 0
0.014899986 -0.0016734317 0.0044496665 0
0.014899978 -0.0015117644 0.0074700457 0
0.01489997 -0.0015780049 0.010633294 0
0.014098647 -0.0015745573 0.014187366 0
-0.013410364 -4.7985086e-08 -0.013255585 0
-0.013563136 -3.7599939e-08 -0.010386752 0
-0.013590022 -2.7258281e-08 -0.0075299325 0
-0.013612707 -1.5657324e-08 -0.0043252399 0
-0.01366839 -5.1332147e-09 -0.0014180191 0
-0.013384012 5.1314544e-09 0.0014175327 0
-0.013561532 1.5392247e-08 0.0042520138 0
-0.013624114 2.636108e-08 0.0072820866 0
-0.013314618 3.7918593e-08 0.010474778 0
-0.01387476 4.7460517e-08 0.013110676 0
-0.010493975 -4.8467633e-08 -0.013388885 0
-0.01041687 -3.856783e-08 -0.010654125 0
-0.010616235 -2.7182709e-08 -0.0075090565 0
-0.01065458 -1.6488231e-08 -0.0045547723 0
-0.010525621 -4.9493192e-09 -0.0013672189 0
-0.0106849 5.2579998e-09 0.0014524901 0
-0.010488113 1.5546016e-08 0.0042944909 0
-0.010532197 2.7262887e-08 0.0075312047 0
-0.010454316 3.7515822e-08 0.010363515 0
-0.010617503 4.9340745e-08 0.013630077 0
-0.0075330501 -4.9344852e-08 -0.013631212 0
-0.0075063296 -3.7925098e-08 -0.010476574 0
-0.0075895903 -2.7144733e-08 -0.0074985651 0
-0.0074045965 -1.6258399e-08 -0.0044912826 0
-0.0074798921 -4.9674984e-09 -0.0013722408 0
-0.0077912542 5.4012235e-09 0.0014920548 0
-0.0074171 1.6793392e-08 0.0046390709 0
-0.0074453782 2.7238617e-08 0.0075245001 0
-0.0076323431 3.8260826e-08 0.010569317 0
-0.0074385377 4.9202942e-08 0.013592009 0
-0.0043957592 -4.8670952e-08 -0.013445051 0
-0.0046225763 -3.7870866e-08 -0.010461594 0
-0.0044444706 -2.7748612e-08 -0.0076653836 0
-0.0044150804 -1.6167226e-08 -0.0044660964 0
-0.0042932509 -5.2802482e-09 -0.0014586361 0
-0.0043212809 5.0066298e-09 0.0013830508 0
-0.004484565 1.5652441e-08 0.0043238904 0
-0.0046654772 2.7404736e-08 0.0075703897 0
-0.0046141758 3.8097699e-08 0.010524255 0
-0.0045348187 4.9036924e-08 0.013546148 0
-0.0015035942 -4.9145665e-08 -0.013576187 0
-0.0013080359 -3.7909881e-08 -0.010472371 0
-0.0014008102 -2.7037746e-08 -0.007469011 0
-0.0016511957 -1.5591231e-08 -0.0043069818 0
-0.0015919305 -4.9507394e-09 -0.0013676113 0
-0.0016299743 5.24282e-09 0.0014482967 0
-0.0013797079 1.6541833e-08 0.0045695794 0
-0.0016569793 2.7321565e-08 0.0075474139 0
-0.001350314 3.7658062e-08 0.010402808 0
-0.001437981 4.8659675e-08 0.013441935 0
0.0011539325 -4.8856091e-08 -0.013496195 0
0.001795418 -3.7201147e-08 -0.010276589 0
0.0014509215 -2.6453446e-08 -0.0073076016 0
0.0014624211 -1.6391716e-08 -0.0045281108 0
0.0014545686 -4.7171391e-09 -0.0013030807 0
0.0014050135 5.3270397e-09 0.0014715621 0
0.0015581993 1.6946931e-08 0.0046814857 0
0.0016334658 2.6913021e-08 0.0074345567 0
0.0015965373 3.9032333e-08 0.010782441 0
0.0014473087 4.8075766e-08 0.013280635 0
0.004282177 -4.8516828e-08 -0.013402475 0
0.0042961682 -3.7779166e-08 -0.010436262 0
0.0044758199 -2.7308175e-08 -0.0075437152 0
0.0044101421 -1.6289643e-08 -0.0044999141 0
0.0042171031 -6.1243375e-09 -0.0016918106 0
0.0046835626 5.3217191e-09 0.0014700922 0
0.0044115088 1.6615509e-08 0.0045899316 0
0.0043009454 2.7189838e-08 0.0075110253 0
0.0044295248 3.8472333e-08 0.010627746 0
0.0043838578 4.8086648e-08 0.01328364 0
0.0073774606 -4.8662617e-08 -0.013442748 0
0.0073913625 -3.8670013e-08 -0.010682353 0
0.0075964807 -2.7158165e-08 -0.007502276 0
0.0074718152 -1.5888126e-08 -0.0043889973 0
0.0074594617 -5.4476299e-09 -0.0015048742 0
0.0077008768 4.4685597e-09 0.0012344121 0
0.0072517609 1.7122025e-08 0.0047298539 0
0.0075907363 2.6777952e-08 0.0073972447 0
0.0074179322 3.7350155e-08 0.010317751 0
0.0074542612 4.8532474e-08 0.013406798 0
0.010515538 -4.9030074e-08 -0.013544257 0
0.010505719 -3.7743298e-08 -0.010426354 0
0.01027428 -2.7884083e-08 -0.007702806 0
0.010680175 -1.5868343e-08 -0.0043835323 0
0.010511878 -5.8419705e-09 -0.0016138083 0
0.010615026 5.509047e-09 0.0015218403 0
0.010463637 1.6491846e-08 0.0045557711 0
