# .PCD v0.7 - Point Cloud Data file format
VERSION 0.7
FIELDS x y z rgb
SIZE 4 4 4 4
TYPE F F F F
COUNT 1 1 1 1
WIDTH 1204
HEIGHT 1
VIEWPOINT 0 0 0 1 0 0 0
POINTS 1204
DATA ascii
0.0017488191 -0.24019891 -0.024886865 0
0.0012468994 -0.24020009 -0.022268042 0
0.0014302484 -0.24020009 -0.019340632 0
0.0016637419 -0.2402001 -0.016600832 0
0.0017449365 -0.24020006 -0.01360157 0
0.001346907 -0.24020006 -0.010618809 0
0.001578624 -0.24020007 -0.0076564113 0
0.0013727676 -0.24020006 -0.0043981029 0
0.0016028236 -0.24020001 -0.0014997552 0
0.0014736411 -0.24020001 0.0015233022 0
0.0015954714 -0.24020001 0.0046407389 0
0.0015667168 -0.2402 0.0073425868 0
0.0016331535 -0.24019997 0.010412749 0
0.0017129016 -0.24019998 0.013751921 0
0.0016559049 -0.24019995 0.016353222 0
0.0013731432 -0.24019994 0.019739045 0
0.0015007044 -0.24019997 0.022504138 0
0.0014923116 -0.24018504 0.025091587 0
0.0050769555 -0.240163 -0.027467221 0
0.0041357032 -0.24020012 -0.025386484 0
0.0044494565 -0.2402001 -0.022517946 0
0.0044498309 -0.2402001 -0.019541848 0
0.0046617924 -0.24020007 -0.016390987 0
0.0045132316 -0.24020006 -0.013612942 0
0.0044710529 -0.24020006 -0.010330759 0
0.0046152514 -0.24020004 -0.0073883878 0
0.0046407725 -0.24020006 -0.0045470078 0
0.0042291065 -0.24020003 -0.0012392222 0
0.0045759738 -0.24020003 0.0015629254 0
0.0043107481 -0.24020001 0.0044408161 0
0.0045494954 -0.24020001 0.0075148381 0
0.0043625063 -0.24019998 0.010161152 0
0.0045652003 -0.24019998 0.013414434 0
0.0044230614 -0.24019995 0.016255494 0
0.0045318808 -0.24019994 0.019562935 0
0.0045210663 -0.24019994 0.022333287 0
0.0045998394 -0.24019995 0.025484901 0
0.0054417141 -0.24017224 0.027509721 0
0.0077108946 -0.24019092 -0.027923953 0
0.0075335079 -0.24020012 -0.025331872 0
0.0073077893 -0.24020009 -0.022567527 0
0.0074568419 -0.24020009 -0.019369381 0
0.0075986618 -0.24020009 -0.016531121 0
0.0075240014 -0.24020006 -0.013400111 0
0.0073105646 -0.24020006 -0.010659242 0
0.0073117372 -0.24020004 -0.0074697887 0
0.0072465055 -0.24020003 -0.0046001822 0
0.0075671235 -0.24020001 -0.0015474785 0
0.0073803165 -0.24020003 0.0013550527 0
0.0075018392 -0.2402 0.0045542079 0
0.0075761289 -0.24020001 0.0076571079 0
0.0073788706 -0.2402 0.010527488 0
0.0075568324 -0.24019998 0.013659922 0
0.0075748242 -0.24019995 0.016416023 0
0.0073488927 -0.24019997 0.019721134 0
0.0073852222 -0.24019997 0.022575555 0
0.0077147004 -0.24019994 0.025374044 0
0.0073925811 -0.24019648 0.02793207 0
0.010702385 -0.2401991 -0.028413298 0
0.010574751 -0.24020013 -0.025544118 0
0.010512168 -0.24020012 -0.022370318 0
0.010496877 -0.2402001 -0.019400092 0
0.010752183 -0.24020009 -0.016588811 0
0.010669582 -0.24020006 -0.013193593 0
0.010398335 -0.24020006 -0.010285316 0
0.010382 -0.24020006 -0.0073912069 0
0.010512846 -0.24020003 -0.0043865265 0
0.010598102 -0.24020001 -0.0015941026 0
0.010209546 -0.24020003 0.0017061424 0
0.010674131 -0.24020001 0.004436593 0
0.010746376 -0.2402 0.0076187947 0
0.010527375 -0.24019998 0.010537189 0
0.010475307 -0.24019997 0.013636998 0
0.010520237 -0.24019995 0.016463295 0
0.01072771 -0.24019995 0.019430237 0
0.01056138 -0.24019995 0.022533849 0
0.010543037 -0.24019992 0.025359361 0
0.010439061 -0.24019992 0.028039465 0
0.013648876 -0.24019584 -0.028611621 0
0.013453012 -0.24020012 -0.025377095 0
0.013591258 -0.24020012 -0.022548016 0
0.013511383 -0.24020009 -0.019551311 0
0.013546161 -0.24020009 -0.016511424 0
0.013481632 -0.24020006 -0.013469576 0
0.013543305 -0.24020006 -0.010807697 0
0.013406705 -0.24020006 -0.0075955079 0
0.01346918 -0.24020003 -0.0044664196 0
0.013378394 -0.24020003 -0.0016291145 0
0.013443012 -0.24020003 0.0015948279 0
0.013240045 -0.2402 0.0045474037 0
0.013413586 -0.24019998 0.0074315425 0
0.013687207 -0.24019998 0.010659543 0
0.013619851 -0.2402 0.013413248 0
0.013566585 -0.24019995 0.016385762 0
0.013269339 -0.24019995 0.019429101 0
0.013519127 -0.24019994 0.022445651 0
0.013690904 -0.24019994 0.025766792 0
0.013203342 -0.24019337 0.028318487 0
0.0165371 -0.24019325 -0.028583059 0
0.016318318 -0.24020012 -0.025561089 0
0.016362453 -0.24020012 -0.022739191 0
0.016573714 -0.2402001 -0.019467691 0
0.016426018 -0.24020007 -0.016317958 0
0.016437279 -0.24020007 -0.013416986 0
0.016542055 -0.24020007 -0.010673658 0
0.016622365 -0.24020006 -0.0076873852 0
0.016549136 -0.24020003 -0.0045662215 0
0.016537551 -0.24020003 -0.0016777525 0
0.016465019 -0.24020001 0.0017368909 0
0.016273052 -0.2402 0.0045822104 0
0.016651476 -0.24019998 0.0074949278 0
0.016519988 -0.24019998 0.010482761 0
0.016771007 -0.24019997 0.013496832 0
0.016399767 -0.24019997 0.016469205 0
0.01669796 -0.24019994 0.019787099 0
0.016548982 -0.24019994 0.022641366 0
0.016585156 -0.24019992 0.025557719 0
0.016428318 -0.24019125 0.02847559 0
0.019643238 -0.24019238 -0.028334519 0
0.019604918 -0.24020013 -0.025520936 0
0.01968509 -0.24020009 -0.022352144 0
0.019467028 -0.2402001 -0.019524267 0
0.019720931 -0.2402001 -0.01623646 0
0.019557778 -0.24020007 -0.013488944 0
0.01945737 -0.24020007 -0.010597782 0
0.019437972 -0.24020004 -0.0076235607 0
0.019220676 -0.24020003 -0.004556526 0
0.019649412 -0.24020001 -0.0014501294 0
0.019636817 -0.24020001 0.0015029731 0
0.019479586 -0.24020003 0.0044239154 0
0.019235469 -0.24019998 0.0072733187 0
0.019698441 -0.24019997 0.010579555 0
0.019555546 -0.2402 0.013579478 0
0.019326804 -0.24019997 0.016651219 0
0.019400775 -0.24019995 0.019610822 0
0.019621704 -0.24019997 0.022612432 0
0.019348433 -0.24019994 0.025369257 0
0.019327603 -0.2401849 0.028165661 0
0.022364501 -0.24019481 -0.02786253 0
0.022386994 -0.24020012 -0.025533339 0
0.022515049 -0.2402001 -0.022318061 0
0.022502249 -0.2402001 -0.019685226 0
0.022406379 -0.24020009 -0.016443651 0
0.022389237 -0.24020007 -0.013524842 0
0.022603234 -0.24020007 -0.010470358 0
0.022610359 -0.24020006 -0.0075555937 0
0.022606203 -0.24020003 -0.0045056357 0
0.022437559 -0.24020004 -0.0017495605 0
0.022407774 -0.24020004 0.0018335668 0
0.02255558 -0.24020001 0.004443265 0
0.022600854 -0.2402 0.0076225353 0
0.02272125 -0.2402 0.010475134 0
0.022807704 -0.24019997 0.013592305 0
0.022564003 -0.24019995 0.016648671 0
0.022563212 -0.24019995 0.019424852 0
0.022403231 -0.24019994 0.022392062 0
0.022430168 -0.24019992 0.025498886 0
0.022542806 -0.24018539 0.028086899 0
0.025087452 -0.24017318 -0.02740152 0
0.025344994 -0.2402001 -0.025347872 0
0.025349945 -0.24020012 -0.02263145 0
0.025579561 -0.24020009 -0.019619768 0
0.025531285 -0.24020009 -0.016506888 0
0.025372244 -0.24020007 -0.013682943 0
0.025480488 -0.24020006 -0.01071283 0
0.025545573 -0.24020004 -0.0077584661 0
0.025579197 -0.24020006 -0.0046172505 0
0.025577718 -0.24020004 -0.0014590787 0
0.025447711 -0.24020004 0.0015145289 0
0.025562519 -0.2402 0.0044301362 0
0.025370289 -0.2402 0.0071782153 0
0.025777372 -0.24019997 0.010679445 0
0.025752138 -0.24019998 0.013373562 0
0.025519028 -0.24019998 0.016590314 0
0.025605591 -0.24019994 0.019379325 0
0.02532964 -0.24019994 0.022429595 0
0.025489511 -0.24019994 0.025614234 0
0.024969602 -0.24019215 0.027333194 0
0.02827977 -0.24019286 -0.025189256 0
0.028480774 -0.24020009 -0.022503763 0
0.028611606 -0.24020009 -0.019644881 0
0.028136536 -0.24020009 -0.016609251 0
0.028517433 -0.24020007 -0.013565612 0
0.028600231 -0.24020004 -0.010279411 0
0.028774902 -0.24020004 -0.0074909991 0
0.028389918 -0.24020006 -0.0043371767 0
0.028382162 -0.24020001 -0.0015651481 0
0.028478185 -0.24020003 0.0016009368 0
0.028380103 -0.24020001 0.0043026134 0
0.02856298 -0.24019998 0.0076702191 0
0.028482947 -0.24019998 0.010684913 0
0.028280446 -0.24019998 0.013717527 0
0.028326999 -0.24019995 0.016522272 0
0.028590778 -0.24019995 0.019404467 0
0.028543949 -0.24019997 0.022494957 0
0.028374316 -0.2401907 0.025200233 0
0.030368436 -0.24016798 -0.024318665 0
0.031217739 -0.2402001 -0.022419957 0
0.031653553 -0.2402001 -0.019507434 0
0.031733621 -0.24020009 -0.016445499 0
0.031348519 -0.24020006 -0.013360013 0
0.031526014 -0.24020006 -0.010471472 0
0.031556997 -0.24020007 -0.0071296194 0
0.031733721 -0.24020004 -0.0045099687 0
0.031471547 -0.24020003 -0.0015031355 0
0.031661041 -0.24020003 0.0017864684 0
0.031319164 -0.24020001 0.0045107235 0
0.03117642 -0.2402 0.007765823 0
0.031577941 -0.2402 0.010527444 0
0.031342428 -0.24019998 0.01343475 0
0.031592131 -0.24019997 0.016503787 0
0.031573627 -0.24019995 0.019632375 0
0.031107364 -0.24019995 0.022446755 0
0.030170146 -0.24019456 0.024685748 0
0.033900328 -0.24019361 -0.021257138 0
0.034221228 -0.24019058 -0.019202569 0
0.034293212 -0.2402001 -0.016416647 0
0.034137215 -0.24020007 -0.013383039 0
0.034496009 -0.24020006 -0.010650871 0
0.034667198 -0.24020006 -0.0078274971 0
0.034273613 -0.24020003 -0.0046799178 0
0.034640774 -0.24020001 -0.0014225221 0
0.034424208 -0.24020001 0.0015142722 0
0.034312472 -0.2402 0.0045026625 0
0.034554362 -0.2402 0.0077687195 0
0.034636952 -0.24019998 0.010335267 0
0.03448005 -0.24019997 0.013503138 0
0.034328874 -0.24019997 0.016399832 0
0.03413685 -0.24019995 0.019401701 0
0.03368726 -0.24014179 0.021243107 0
0.036812045 -0.2401872 -0.016060648 0
0.037449669 -0.24019131 -0.013406513 0
0.037455954 -0.24020009 -0.010571181 0
0.037519868 -0.24020004 -0.0076291435 0
0.037740786 -0.24020003 -0.004409459 0
0.037487786 -0.24020003 -0.0013149674 0
0.0375982 -0.24020003 0.0014855502 0
0.037465248 -0.24020001 0.0045965281 0
0.037594259 -0.2402 0.0077037876 0
0.037521575 -0.24019997 0.010409442 0
0.037317149 -0.24019966 0.013299895 0
0.036758751 -0.24018949 0.015949139 0
0.036163431 -0.24008867 0.018171158 0
0.039309941 -0.24017261 -0.010130429 0
0.039612744 -0.24019855 -0.006932681 0
0.039526723 -0.24019121 -0.0044154939 0
0.039586578 -0.24019364 -0.0013457014 0
0.03955071 -0.24020004 0.0015429785 0
0.039726876 -0.24017797 0.0046003386 0
0.039797872 -0.24017181 0.0069869868 0
0.039443884 -0.2401389 0.010037748 0
-0.0090301903 -0.23850611 -0.012135794 0
-0.0094946837 -0.23838261 -0.01038271 0
-0.0099861929 -0.23849659 -0.0075911535 0
-0.0099999821 -0.23841505 -0.0044509978 0
-0.0099999914 -0.23852085 -0.0016410341 0
-0.010000006 -0.23847714 0.0017438687 0
-0.010000015 -0.23881838 0.0045473268 0
-0.0099805314 -0.23847902 0.0076522226 0
-0.009471816 -0.23869632 0.010471131 0
-0.0061254874 -0.23846753 -0.018231584 0
-0.0071258466 -0.2384126 -0.016589986 0
-0.0086132092 -0.23821007 -0.01364181 0
-0.0085673817 -0.23855858 0.013787244 0
-0.0072419029 -0.23851575 0.016401403 0
-0.0061685224 -0.23899703 0.018162861 0
-0.0035770366 -0.23844565 -0.021721354 0
-0.0050606425 -0.2384575 -0.019977048 0
-0.0051483344 -0.23863557 0.019833999 0
-0.0036504923 -0.23840407 0.021657754 0
-0.00048456332 -0.23810615 -0.024476454 0
-0.0021348069 -0.2385091 -0.023006238 0
-0.0020405983 -0.23852535 0.023092037 0
-0.00052298798 -0.23869079 0.0244441 0
0.0013777636 -0.23841792 -0.025886633 0
0.0014957152 -0.23833953 0.025984179 0
0.0047606081 -0.23845015 -0.027539056 0
0.0033196656 -0.2380348 -0.026872361 0
0.0033123121 -0.23790342 0.026870795 0
0.0047986871 -0.23827586 0.02755853 0
0.0072992453 -0.23859878 -0.028654285 0
0.0074137179 -0.23843718 0.02868332 0
0.010333522 -0.23864497 -0.029295916 0
0.01050878 -0.23839858 0.029324157 0
0.013257526 -0.23861752 -0.029736508 0
0.013544389 -0.23851325 0.029781593 0
0.016551739 -0.23864985 -0.029765265 0
0.016451482 -0.23856418 0.029782189 0
0.019388642 -0.23863934 -0.029337777 0
0.019419884 -0.23851909 0.029334905 0
0.022555785 -0.23823015 -0.028696811 0
0.022392686 -0.23813689 0.028748944 0
0.025336087 -0.2386751 -0.027494332 0
0.026706608 -0.23786831 -0.026860213 0
0.026713412 -0.23837207 0.02685889 0
0.025180204 -0.23848417 0.027568273 0
0.028319689 -0.23874615 -0.026038179 0
0.028705239 -0.23856725 0.02582188 0
0.030559886 -0.23816606 -0.024409391 0
0.032011628 -0.23844248 -0.023116004 0
0.032059107 -0.23843226 0.023075514 0
0.03060703 -0.23842843 0.024369176 0
0.033769347 -0.23850481 -0.021550022 0
0.035000533 -0.23815452 -0.020072823 0
0.034961026 -0.23856778 0.020139264 0
0.033728682 -0.23807988 0.021588091 0
0.036176659 -0.23857586 -0.018147677 0
0.037213136 -0.2381268 -0.016446775 0
0.038705979 -0.23846988 -0.013335237 0
0.038698088 -0.23846953 0.013342643 0
0.037172925 -0.23859283 0.016514566 0
0.036143858 -0.23848796 0.018203275 0
0.039041027 -0.23824576 -0.012103747 0
0.039523367 -0.23855881 -0.010301282 0
0.040182643 -0.23836543 -0.007434702 0
0.040180176 -0.23863304 -0.0044429549 0
0.040062327 -0.23832175 -0.0015362188 0
0.040061299 -0.23862198 0.0015130051 0
0.040181853 -0.23840144 0.0044871238 0
0.040163759 -0.23845775 0.0075659426 0
0.039394289 -0.23847257 0.010785373 0
0.03904165 -0.23897235 0.012103107 0
-0.009036907 -0.23525715 -0.012110618 0
-0.0094861025 -0.23559065 -0.010416529 0
-0.0099872025 -0.23550621 -0.0075071496 0
-0.0099999849 -0.23572835 -0.0042126514 0
-0.0099999933 -0.2354871 -0.0016643617 0
-0.010000003 -0.23545289 0.0017640936 0
-0.010000015 -0.23560292 0.0047663394 0
-0.0099843638 -0.23521173 0.0074711707 0
-0.0094969887 -0.23541611 0.01037882 0
-0.0090405159 -0.23421255 0.012099042 0
-0.0061134119 -0.23551959 -0.01825141 0
-0.0071880021 -0.23543084 -0.016487993 0
-0.0086442605 -0.23574533 -0.013545435 0
-0.0085724825 -0.23546736 0.013747655 0
-0.007283784 -0.23556648 0.016332658 0
-0.0060764523 -0.23492791 0.018313939 0
-0.003519756 -0.23549496 -0.021772394 0
-0.0052457019 -0.23568173 -0.019675331 0
-0.0052271583 -0.23549625 0.019707039 0
-0.0035621258 -0.23548074 0.021736473 0
-0.00047307136 -0.23565689 -0.024486698 0
-0.0018776567 -0.23536867 -0.023235351 0
-0.0022196607 -0.23535503 0.022932494 0
-0.00041775356 -0.23558144 0.024537843 0
0.0014209065 -0.23556623 -0.025910968 0
0.001386571 -0.23538922 0.025876565 0
0.0046431366 -0.23552364 -0.027484711 0
0.0032245307 -0.23532055 -0.026828354 0
0.003286995 -0.23504025 0.026859069 0
0.0048610778 -0.23549379 0.027587386 0
0.0076649128 -0.23534201 -0.028775595 0
0.0075328974 -0.23569055 0.028733291 0
0.010501486 -0.23555419 -0.029321237 0
0.010379116 -0.23542757 0.029304611 0
0.013515602 -0.23530731 -0.029775405 0
0.013262651 -0.23547624 0.029739123 0
0.016543455 -0.2353283 -0.029766535 0
0.016579334 -0.23530641 0.029762914 0
0.019605832 -0.23529649 -0.029305063 0
0.019399291 -0.23553519 0.029338 0
0.022503797 -0.23574255 -0.028708449 0
0.022613943 -0.2354755 0.028694479 0
0.025085416 -0.23535298 -0.027610334 0
0.026646139 -0.2355213 -0.026888195 0
0.026634675 -0.23559894 0.026895311 0
0.025070157 -0.23517947 0.027619185 0
0.028605361 -0.2356029 -0.02589439 0
0.028408326 -0.23533681 0.026012138 0
0.030387433 -0.23554997 -0.024563039 0
0.031978842 -0.23579668 -0.023145225 0
0.031879015 -0.23562033 0.023235954 0
0.030605515 -0.23512816 0.024370519 0
0.033514764 -0.23596302 -0.021776855 0
0.035227302 -0.23535244 -0.019703701 0
0.035308421 -0.2355397 0.019571779 0
0.033650234 -0.23541974 0.02165797 0
0.036126152 -0.23552296 -0.018230572 0
0.037150286 -0.23573732 -0.016549934 0
0.038658831 -0.23553178 -0.013504684 0
0.038592238 -0.23546024 0.013731559 0
0.037120868 -0.23557283 0.016599985 0
0.036134183 -0.23596101 0.018219141 0
0.039029922 -0.23640461 -0.012145254 0
0.039492026 -0.23540036 -0.010418413 0
0.040219262 -0.23564804 -0.0071688737 0
0.040185649 -0.23552549 -0.0045780051 0
0.040065005 -0.23542082 -0.0016023411 0
0.040063746 -0.23542839 0.0015735934 0
0.040188644 -0.23560932 0.0046547712 0
0.040184122 -0.2354608 0.0075406581 0
0.039474223 -0.23545252 0.010486673 0
0.039033487 -0.23522107 0.012133588 0
-0.0090352157 -0.23232454 -0.012116969 0
-0.0094968248 -0.23244421 -0.010371553 0
-0.0099850055 -0.23250586 -0.0075111282 0
-0.0099999821 -0.2323475 -0.0044278414 0
-0.0099999933 -0.23248851 -0.0015169904 0
-0.010000003 -0.23275721 0.0015127464 0
-0.010000015 -0.23253399 0.0046945419 0
-0.0099886954 -0.23232624 0.0074381637 0
-0.0095038665 -0.23272459 0.010348622 0
-0.0090374006 -0.23311979 0.012110719 0
-0.006133602 -0.23203382 -0.01821829 0
-0.0071932515 -0.23235236 -0.016479392 0
-0.0085858125 -0.23252599 -0.01375752 0
-0.0086014066 -0.23228607 0.013680506 0
-0.0072163367 -0.23267652 0.016443335 0
-0.0060981289 -0.23232724 0.018278359 0
-0.0036471484 -0.232724 -0.021658916 0
-0.0052671689 -0.23275219 -0.019640114 0
-0.0051204413 -0.23247488 0.019882081 0
-0.0036962994 -0.23215967 0.021616923 0
-0.00054655725 -0.23286948 -0.024421241 0
-0.0019843315 -0.23219673 -0.023140322 0
-0.0019879842 -0.2325132 0.023138884 0
-0.0005267649 -0.23254295 0.024440711 0
0.001379511 -0.23258604 -0.025872005 0
0.0016273289 -0.23246725 0.026037049 0
0.0047376915 -0.23245905 -0.027528472 0
0.0032375508 -0.23246375 -0.026834391 0
0.0031700663 -0.23268627 0.026804958 0
0.0047450201 -0.23232611 0.027533667 0
0.0075813709 -0.23241752 -0.02876707 0
0.0072406353 -0.23245822 0.028625654 0
0.010407636 -0.23245771 -0.029307107 0
0.010596552 -0.23250152 0.029337365 0
0.013598552 -0.23252527 -0.029787917 0
0.013274917 -0.23274232 0.029740961 0
0.016738979 -0.23270829 -0.029737076 0
0.016815776 -0.23257722 0.029727278 0
0.019874712 -0.23271365 -0.029264551 0
0.01942507 -0.23251481 0.029334109 0
0.022375381 -0.23248905 -0.028766178 0
0.022465136 -0.23233245 0.028745605 0
0.025011923 -0.23290032 -0.02764434 0
0.026714055 -0.23196939 -0.026856782 0
0.0266439 -0.23219934 0.02689103 0
0.025340667 -0.23275404 0.027494013 0
0.028699409 -0.23266298 -0.025856331 0
0.028563041 -0.2327074 0.025963394 0
0.030650571 -0.23230968 -0.024328617 0
0.032065257 -0.23240682 -0.023068246 0
0.032203313 -0.23272762 0.022947023 0
0.03037326 -0.23269662 0.024577422 0
0.033663128 -0.23228732 -0.021644685 0
0.035112996 -0.23261556 -0.019892287 0
0.035051014 -0.23257801 0.019994903 0
0.03377331 -0.23245643 0.021548308 0
0.036138177 -0.23270585 -0.018210858 0
0.037246402 -0.23250344 -0.016392209 0
0.038600333 -0.23214908 -0.013644277 0
0.038570657 -0.23241828 0.013755074 0
0.037137616 -0.2324709 0.016572488 0
0.036138073 -0.23246181 0.018212743 0
0.039030083 -0.23246177 -0.01214467 0
0.0395464 -0.23239298 -0.010215266 0
0.040185072 -0.23265991 -0.0074646804 0
0.040174417 -0.23233519 -0.004301101 0
0.040071558 -0.23230027 -0.0017638243 0
0.040061735 -0.23245724 0.0015238815 0
0.040179554 -0.23239291 0.0044303089 0
0.040137619 -0.23230757 0.0076997802 0
0.039422207 -0.2323648 0.010681019 0
0.0390338 -0.23247555 0.012132417 0
-0.0095721334 -0.22963901 -0.010098968 0
-0.0099965082 -0.22972319 -0.0075089671 0
-0.0099999821 -0.22941501 -0.0047318777 0
-0.0099999942 -0.2295523 -0.0012495437 0
-0.010000004 -0.22942868 0.0014216757 0
-0.010000015 -0.22948651 0.0044654538 0
-0.0099985292 -0.22943467 0.0072619505 0
-0.0097433086 -0.22945173 0.0098628001 0
-0.0090148849 -0.23057099 0.012195149 0
-0.0061269626 -0.2307454 -0.01822919 0
-0.0067656985 -0.23036456 -0.016416682 0
-0.0076173674 -0.23030864 -0.013523881 0
-0.0072681382 -0.22989182 -0.010624724 0
-0.0072787208 -0.22964102 0.010534799 0
-0.0077235764 -0.23031291 0.013698104 0
-0.0072119501 -0.23034355 0.015941061 0
-0.0062412131 -0.23058116 0.018043544 0
-0.0036744277 -0.23035903 -0.021383001 0
-0.0046029193 -0.23027116 -0.019547703 0
-0.0045479741 -0.23020001 -0.016556302 0
-0.004339552 -0.23019996 -0.013299314 0
-0.0046145604 -0.22967973 -0.01045667 0
-0.0045374245 -0.22969061 0.010527357 0
-0.0045522936 -0.23019992 0.013523741 0
-0.0046565942 -0.23019987 0.016338062 0
-0.004273484 -0.23026255 0.019540181 0
-0.0033227366 -0.23023489 0.021636687 0
-0.0003740509 -0.23048732 -0.024461387 0
-0.0014891822 -0.23028147 -0.022649862 0
-0.0015383334 -0.23019999 -0.019628044 0
-0.0012854941 -0.23019996 -0.016577732 0
-0.0013021586 -0.23019999 -0.013689945 0
-0.0016224094 -0.2295891 -0.010357833 0
-0.0014126867 -0.2296363 0.010397888 0
-0.0015359723 -0.23019987 0.013533221 0
-0.0016579917 -0.23019986 0.01653431 0
-0.0012500804 -0.23019987 0.019561829 0
-0.0014437489 -0.23026927 0.022234708 0
-0.00051960431 -0.23038045 0.024367781 0
0.0013454529 -0.23032953 -0.02517483 0
0.0014393801 -0.23019999 -0.022491891 0
0.0014985269 -0.23020001 -0.019445181 0
0.0015445316 -0.23020001 -0.016295072 0
0.0015902442 -0.23020002 -0.013587807 0
0.0013783346 -0.23012266 -0.010380416 0
0.00088966842 -0.22983897 -0.007462326 0
0.00079211808 -0.22982752 -0.0043464913 0
0.00086896418 -0.22974019 -0.0012432012 0
0.0011674312 -0.22987169 0.0018373453 0
0.00080244837 -0.22965667 0.0045439703 0
0.00080705096 -0.22969781 0.0074113808 0
0.0012636952 -0.23004648 0.010305573 0
0.0015273764 -0.23019989 0.013442103 0
0.0017847358 -0.23019987 0.016479742 0
0.001548462 -0.23019987 0.019616028 0
0.001511946 -0.23019987 0.022598663 0
0.0016711715 -0.23032044 0.025219563 0
0.0048620417 -0.23043758 -0.027467646 0
0.004322608 -0.23025404 -0.025649296 0
0.0044205142 -0.23019998 -0.022368118 0
0.0044340421 -0.23020005 -0.019446924 0
0.0045671822 -0.23019998 -0.016572692 0
0.0044326894 -0.23020001 -0.013590525 0
0.0045835176 -0.23019995 -0.010321171 0
0.0046301065 -0.23019995 -0.007271355 0
0.0044434513 -0.23019995 -0.0043393443 0
0.004371495 -0.23019992 -0.0015194437 0
0.0042412672 -0.23019992 0.0016388613 0
0.0043418892 -0.23019993 0.0044457284 0
0.0043245135 -0.23019992 0.0074192225 0
0.0042617703 -0.23019992 0.010427064 0
0.0045960424 -0.23019987 0.013589058 0
0.0045421775 -0.23019984 0.016442023 0
0.0047408869 -0.23019987 0.019643737 0
0.0045999526 -0.23019987 0.022350634 0
0.0045465063 -0.23022954 0.02577541 0
0.0052034091 -0.23043503 0.027575256 0
0.007584936 -0.23034959 -0.028209087 0
0.007615142 -0.23019999 -0.025515284 0
0.0071114968 -0.23019999 -0.022572258 0
0.0075948085 -0.23019999 -0.019522514 0
0.0076244758 -0.23019999 -0.016396055 0
0.0073999255 -0.23019995 -0.013465268 0
0.0071168332 -0.23019998 -0.010440069 0
0.0075565395 -0.23019995 -0.0074208756 0
0.0075230356 -0.23019993 -0.0044700666 0
0.0076289321 -0.23019993 -0.0014745827 0
0.0075125885 -0.23019995 0.0015640291 0
0.0073997076 -0.23019992 0.0042142947 0
0.0073725623 -0.23019987 0.0075026569 0
0.0076190559 -0.23019986 0.010487479 0
0.0074937223 -0.23019987 0.013820317 0
0.0073470115 -0.23019984 0.016459206 0
0.0072687403 -0.23019986 0.019634798 0
0.007776232 -0.23019984 0.022364285 0
0.0073810006 -0.23019983 0.02570164 0
0.0072376467 -0.23038362 0.028161079 0
0.010691367 -0.23026519 -0.028282447 0
0.010431691 -0.23020005 -0.02559432 0
0.010353048 -0.23019999 -0.022428522 0
0.010539088 -0.23020002 -0.019669969 0
0.010614211 -0.23019998 -0.016554486 0
0.010464982 -0.23019998 -0.01339619 0
0.010594019 -0.23019995 -0.010596148 0
0.010415748 -0.23019999 -0.0073798429 0
0.010569814 -0.23019996 -0.0044547836 0
0.010374569 -0.2301999 -0.0014129715 0
0.010351796 -0.23019992 0.0015687016 0
0.010513821 -0.23019995 0.0045151543 0
0.01030454 -0.23019987 0.0076218657 0
0.010343606 -0.23019986 0.010442661 0
0.010215774 -0.23019987 0.013627406 0
0.010363992 -0.23019986 0.016417705 0
0.010433154 -0.23019984 0.019621117 0
0.010508139 -0.23019984 0.022789545 0
0.010716585 -0.23019981 0.025378857 0
0.010355716 -0.23024277 0.028375093 0
0.013750634 -0.23030959 -0.028853983 0
0.013426951 -0.23020002 -0.025354423 0
0.013231769 -0.23020005 -0.022681249 0
0.013407012 -0.23020001 -0.019179717 0
0.01347654 -0.23019995 -0.016613496 0
0.013410199 -0.23019996 -0.013578517 0
0.013569838 -0.23019996 -0.01046812 0
0.013437062 -0.23019995 -0.0075866901 0
0.013425941 -0.23019995 -0.0047462969 0
0.013546267 -0.23019998 -0.0016183979 0
0.01346046 -0.23019993 0.0015748709 0
0.013394143 -0.2301999 0.0044932198 0
0.013468285 -0.23019987 0.0076359659 0
0.013619973 -0.23019989 0.010386278 0
0.013543771 -0.23019987 0.013503416 0
0.01351612 -0.23019984 0.016506409 0
0.013602591 -0.23019986 0.019456005 0
0.01387033 -0.23019984 0.022354942 0
0.013613171 -0.23019983 0.025602419 0
0.013693666 -0.23025401 0.028464146 0
0.016422875 -0.23027532 -0.028764263 0
0.016714582 -0.23020002 -0.025487373 0
0.016407875 -0.23019999 -0.022590326 0
0.016341928 -0.23020001 -0.019447207 0
0.016687823 -0.23019998 -0.01649381 0
0.016579205 -0.23019996 -0.013462247 0
0.016482398 -0.23019998 -0.01047131 0
0.016432995 -0.23019993 -0.007625402 0
0.016800603 -0.23019993 -0.0042451802 0
0.016319532 -0.23019992 -0.0014542603 0
0.016307412 -0.23019995 0.0014424872 0
0.016693192 -0.2301999 0.0043791919 0
0.01631725 -0.23019993 0.0075824307 0
0.016564026 -0.23019989 0.010430166 0
0.016757902 -0.23019992 0.013614718 0
0.01668679 -0.23019987 0.016485872 0
0.016679011 -0.23019983 0.019596845 0
0.016520651 -0.23019983 0.022421954 0
0.016647896 -0.23019981 0.025307989 0
0.016335906 -0.23025696 0.028655326 0
0.01945175 -0.23025867 -0.028303672 0
0.019480206 -0.23020007 -0.025439119 0
0.019368626 -0.23019999 -0.022417376 0
0.019089952 -0.23019999 -0.019445924 0
0.019528689 -0.23019996 -0.016272487 0
0.019460917 -0.23019995 -0.013377059 0
0.019687578 -0.23019998 -0.010536347 0
0.019411733 -0.23019998 -0.007558411 0
0.019412369 -0.23019992 -0.0045943246 0
0.019495403 -0.23019992 -0.0014184949 0
0.019546002 -0.23019992 0.0013881115 0
0.019259606 -0.23019995 0.0042375508 0
0.019675378 -0.2301999 0.0076646092 0
0.019400461 -0.23019989 0.010203338 0
0.019565994 -0.23019989 0.013514683 0
0.019667014 -0.23019987 0.016538134 0
0.019334991 -0.23019989 0.019530283 0
0.0195051 -0.23019986 0.022392705 0
0.019403195 -0.23019981 0.025381448 0
0.019594917 -0.23027316 0.028355381 0
0.0226481 -0.23027095 -0.027861381 0
0.022478528 -0.23019999 -0.025516484 0
0.022666989 -0.23019999 -0.022462692 0
0.022624077 -0.23020002 -0.019492477 0
0.022417601 -0.23019999 -0.016644236 0
0.022464929 -0.23019996 -0.01349506 0
0.022312231 -0.23019996 -0.010309092 0
0.022747768 -0.23020001 -0.0074605686 0
0.02250302 -0.23019995 -0.0045959037 0
0.022092829 -0.23019992 -0.0013580896 0
0.022740623 -0.2301999 0.0014268275 0
0.022640012 -0.2301999 0.0046240999 0
0.022583267 -0.23019989 0.0076618339 0
0.022615636 -0.23019989 0.010425025 0
0.022150755 -0.23019989 0.013648221 0
0.022518668 -0.23019987 0.016494751 0
0.022541761 -0.23019984 0.019555816 0
0.022329867 -0.23019986 0.022744335 0
0.022491599 -0.23019983 0.025438691 0
0.022502996 -0.23032835 0.028258976 0
0.025154689 -0.23035441 -0.027288007 0
0.025573188 -0.23022985 -0.025394378 0
0.025504805 -0.23019998 -0.022536462 0
0.025294024 -0.23019999 -0.019552024 0
0.025513817 -0.23019999 -0.016743027 0
0.025607878 -0.23019995 -0.01356294 0
0.025616892 -0.23019996 -0.010351479 0
0.025452789 -0.23019996 -0.0070536342 0
0.025556818 -0.23019996 -0.0046008215 0
0.025615336 -0.23019992 -0.0016374598 0
0.025361739 -0.23019993 0.0014614882 0
0.025247321 -0.23019993 0.0047035711 0
0.02563508 -0.23019987 0.0074059628 0
0.025490662 -0.23019987 0.010520739 0
0.025564747 -0.23019987 0.01357775 0
0.025197905 -0.2301999 0.016764607 0
0.025265543 -0.23019984 0.019528672 0
0.025424605 -0.23019987 0.022773497 0
0.025611965 -0.23020619 0.025586946 0
0.025191911 -0.23041663 0.027419476 0
0.028370639 -0.23028147 -0.02501001 0
0.028390311 -0.23020002 -0.022503741 0
0.028554196 -0.23019999 -0.019500511 0
0.028416863 -0.23019999 -0.016382569 0
0.028365985 -0.23019993 -0.013423651 0
0.028534718 -0.23019996 -0.01046074 0
0.028569475 -0.23019993 -0.0076700319 0
0.028400967 -0.23019998 -0.0045863097 0
0.028314581 -0.23019996 -0.0014049576 0
0.028625652 -0.23019992 0.0014574303 0
0.028445099 -0.2301999 0.0047475561 0
0.028655604 -0.23019989 0.0074417577 0
0.02843444 -0.23019989 0.010485739 0
0.028376779 -0.2301999 0.01347383 0
0.028449526 -0.23019987 0.016725212 0
0.028465243 -0.23019987 0.019738404 0
0.028657762 -0.23019984 0.02251525 0
0.028337415 -0.23036537 0.025434375 0
0.030523868 -0.23039176 -0.024369329 0
0.031290911 -0.2303326 -0.022606663 0
0.031490661 -0.23019998 -0.019424653 0
0.031317376 -0.23019999 -0.016700679 0
0.031675965 -0.23019998 -0.013455058 0
0.031450663 -0.23019996 -0.010507053 0
0.031635929 -0.23019995 -0.007515722 0
0.031339802 -0.23019993 -0.0046119257 0
0.031396933 -0.23019992 -0.001255458 0
0.03153453 -0.23019992 0.0015560327 0
0.031318039 -0.2301999 0.0044098692 0
0.031709038 -0.23019987 0.0077214944 0
0.031548362 -0.23019987 0.010467781 0
0.031667821 -0.23019987 0.013251781 0
0.031501263 -0.23019989 0.016550196 0
0.031457815 -0.23019984 0.019393424 0
0.031184964 -0.2302976 0.02238741 0
0.030417427 -0.23051316 0.024476497 0
0.033608355 -0.23056197 -0.021566935 0
0.034443952 -0.23032618 -0.019414678 0
0.034594763 -0.23019998 -0.016674498 0
0.034140728 -0.23019998 -0.013596074 0
0.034573492 -0.23019996 -0.01007101 0
0.03431505 -0.23019995 -0.0076999585 0
0.034356639 -0.23019992 -0.0046934397 0
0.034584153 -0.23019992 -0.0014402461 0
0.034773901 -0.23019995 0.0014706412 0
0.034889061 -0.23019992 0.0044538486 0
0.034525342 -0.23019989 0.0076606181 0
0.034636039 -0.23019989 0.010692602 0
0.034449622 -0.23019987 0.013674673 0
0.034799252 -0.2301999 0.016276244 0
0.034583814 -0.23030016 0.019284209 0
0.033579919 -0.23030742 0.021413909 0
0.036090147 -0.23069233 -0.018289682 0
0.036974888 -0.23038478 -0.016150184 0
0.037696507 -0.23034315 -0.013513781 0
0.037684575 -0.23019995 -0.010505316 0
0.037698612 -0.23019999 -0.0075374627 0
0.037488669 -0.23019992 -0.0047907559 0
0.037662007 -0.23019992 -0.001255687 0
0.037487481 -0.2301999 0.0014327853 0
0.037506074 -0.23019989 0.0044844802 0
0.037751961 -0.23019993 0.0073903748 0
0.037299879 -0.23019987 0.010628771 0
0.037578303 -0.23027948 0.013618823 0
0.036916964 -0.23036958 0.016210329 0
0.036205254 -0.23052467 0.018102493 0
0.039393675 -0.23029469 -0.01015386 0
0.039910924 -0.230361 -0.0071805259 0
0.039927538 -0.23051298 -0.0044486616 0
0.039773196 -0.23034205 -0.0016730656 0
0.039758861 -0.23033126 0.0014590011 0
0.039720293 -0.23041791 0.0045162491 0
0.039762251 -0.23031949 0.0075226421 0
0.03945883 -0.23068735 0.01043755 0
0.039010141 -0.23088391 0.01222082 0
-0.0097231269 -0.22628008 -0.0096366955 0
-0.009999969 -0.22635388 -0.0074137216 0
-0.0099999821 -0.22633307 -0.0043519801 0
-0.0099999933 -0.22616839 -0.0013630737 0
-0.010000003 -0.22674042 0.0011645707 0
-0.010000018 -0.22658385 0.0047726729 0
-0.010000026 -0.22650701 0.007555821 0
-0.0097415941 -0.22668672 0.0098718693 0
-0.0074652513 -0.22616471 -0.0099992082 0
-0.0075347642 -0.22661667 0.010000791 0
-0.0046416749 -0.22675188 -0.009999196 0
-0.0045260987 -0.22647016 0.010000799 0
-0.0010522876 -0.22662635 -0.0099991821 0
-0.001689329 -0.22641893 0.01000081 0
3.5126849e-08 -0.22635724 -0.0097027561 0
2.7034227e-08 -0.22625892 -0.0074672201 0
1.5868364e-08 -0.22659172 -0.0043827179 0
6.3472405e-09 -0.22679007 -0.0017525651 0
-5.3154481e-09 -0.22656401 0.00146918 0
-1.6111656e-08 -0.22617811 0.0044515645 0
-2.7260114e-08 -0.22641876 0.0075312583 0
-3.4220875e-08 -0.22652963 0.0094541265 0
-0.0097096553 -0.22353423 -0.0097090658 0
-0.0099999709 -0.22363192 -0.0075317142 0
-0.0099999839 -0.22349022 -0.0042328979 0
-0.0099999923 -0.22329399 -0.0015326764 0
-0.010000007 -0.22360681 0.0014966867 0
-0.010000016 -0.22339647 0.0046889884 0
-0.010000025 -0.22352029 0.0076695951 0
-0.0097451834 -0.22347172 0.009706486 0
-0.0076959603 -0.22361666 -0.0099992156 0
-0.0074411752 -0.22360374 0.01000078 0
-0.0046256185 -0.22341633 -0.0099992063 0
-0.0045641051 -0.22364821 0.010000789 0
-0.0016168078 -0.22333215 -0.0099991979 0
-0.001233376 -0.22334182 0.010000804 0
3.3900488e-08 -0.22330494 -0.0093639931 0
2.7239835e-08 -0.223712 -0.007524027 0
1.7405343e-08 -0.22336735 -0.0048073106 0
5.4639515e-09 -0.2233633 -0.0015085744 0
-5.6497265e-09 -0.22352518 0.0015615114 0
-1.6125956e-08 -0.22376102 0.0044555059 0
-2.6910415e-08 -0.22350225 0.0074346457 0
-3.4522472e-08 -0.22330165 0.0095374286 0
-0.0097714476 -0.22055404 -0.0097529413 0
-0.00999997 -0.22046646 -0.0077023944 0
-0.0099999839 -0.22020887 -0.0045188479 0
-0.0099999914 -0.22047485 -0.001183143 0
-0.010000004 -0.22072068 0.0012155538 0
-0.010000014 -0.22040702 0.0047006626 0
-0.010000028 -0.22043937 0.007626147 0
-0.0097073996 -0.2201483 0.0098053413 0
-0.007365881 -0.22052291 -0.0099992268 0
-0.0075553632 -0.22056986 0.010000771 0
-0.0041812998 -0.22049782 -0.0099992147 0
-0.0045713317 -0.22057909 0.010000779 0
-0.0014920183 -0.22081624 -0.0099992054 0
-0.0017305412 -0.22039181 0.010000789 0
3.4364781e-08 -0.22055557 -0.0094922613 0
2.7099665e-08 -0.22035317 -0.007485318 0
1.6673367e-08 -0.22041228 -0.0046051173 0
5.3353055e-09 -0.22059253 -0.0014730468 0
-6.1684386e-09 -0.22033606 0.0017047907 0
-1.5771805e-08 -0.22040385 0.0043576616 0
-2.7104797e-08 -0.22068274 0.0074883322 0
-3.4215272e-08 -0.22045469 0.0094525563 0
-0.0096983621 -0.21767725 -0.0097250184 0
-0.0099999709 -0.21744563 -0.0077126892 0
-0.0099999839 -0.21774592 -0.0042140288 0
-0.0099999933 -0.21764585 -0.0013672382 0
-0.010000006 -0.21774408 0.0017354683 0
-0.010000014 -0.21765038 0.0044054394 0
-0.010000028 -0.21758421 0.0072350944 0
-0.0096460851 -0.21737118 0.0098160692 0
-0.0075664921 -0.2175355 -0.0099992407 0
-0.0077459826 -0.21730934 0.010000757 0
-0.0045409268 -0.21770298 -0.0099992296 0
-0.0045912308 -0.2173378 0.010000766 0
-0.001556507 -0.21738911 -0.0099992203 0
-0.0014648446 -0.21735293 0.01000078 0
3.4102136e-08 -0.21707028 -0.0094197188 0
2.6199153e-08 -0.21754928 -0.0072365673 0
1.6638698e-08 -0.21742645 -0.0045955507 0
5.6215645e-09 -0.21754262 -0.0015521351 0
-4.7203947e-09 -0.21753575 0.0013047674 0
-1.6958953e-08 -0.21758273 0.0046855938 0
-2.7702614e-08 -0.21749599 0.0076534641 0
-3.411046e-08 -0.21698788 0.0094235903 0
-0.0098007889 -0.21439774 -0.0097581791 0
-0.00999997 -0.21462968 -0.0075391317 0
-0.0099999849 -0.21424189 -0.0046980237 0
-0.0099999923 -0.21464242 -0.0014576257 0
-0.010000003 -0.21447261 0.0014990028 0
-0.010000016 -0.2146059 0.0046185083 0
-0.010000027 -0.21463291 0.0072918246 0
-0.0096954666 -0.21474099 0.0097179841 0
-0.0075980155 -0.21457444 -0.0099992482 0
-0.007427108 -0.2143911 0.010000748 0
-0.004656238 -0.21449353 -0.0099992389 0
-0.0044835047 -0.21463813 0.010000759 0
-0.001443363 -0.21458849 -0.0099992296 0
-0.0016185794 -0.21460965 0.010000772 0
3.4223387e-08 -0.21471292 -0.0094532222 0
2.7883265e-08 -0.21451245 -0.0077018039 0
1.6816571e-08 -0.21476607 -0.0046446966 0
5.4788405e-09 -0.21491012 -0.0015127179 0
-6.1202936e-09 -0.21450453 0.0016914699 0
-1.7178337e-08 -0.21450448 0.0047461865 0
-2.7688884e-08 -0.21464993 0.007649661 0
-3.4213812e-08 -0.21437734 0.0094521306 0
-0.0097915502 -0.21183422 -0.0097089354 0
-0.0099999709 -0.21137398 -0.0074360552 0
-0.0099999839 -0.21158862 -0.0047123102 0
-0.0099999923 -0.21123214 -0.001342355 0
-0.010000004 -0.21139175 0.0013923418 0
-0.010000015 -0.21155326 0.0044452832 0
-0.010000026 -0.21165197 0.0074443156 0
-0.0097001195 -0.21137398 0.0097804619 0
-0.0077813338 -0.21160647 -0.0099992594 0
-0.0075439694 -0.21164298 0.010000738 0
-0.0045134453 -0.21134438 -0.009999251 0
-0.0045432327 -0.21175304 0.010000749 0
-0.0016150911 -0.21138281 -0.0099992407 0
-0.0017012503 -0.21140222 0.010000758 0
3.4547028e-08 -0.21189177 -0.0095426366 0
2.7852193e-08 -0.21174233 -0.0076932306 0
1.6302312e-08 -0.21171784 -0.0045026471 0
5.6953611e-09 -0.21140964 -0.0015725432 0
-6.6759571e-09 -0.21128902 0.0018449569 0
-1.6676314e-08 -0.21146755 0.0046074945 0
-2.692814e-08 -0.21158788 0.0074394988 0
-3.4580133e-08 -0.21121766 0.0095533133 0
-0.009840847 -0.20846725 -0.0096770525 0
-0.0099999718 -0.20838536 -0.0075591244 0
-0.0099999812 -0.20834289 -0.0043637026 0
-0.0099999923 -0.20847426 -0.0016553267 0
-0.010000004 -0.20846385 0.001581857 0
-0.010000017 -0.20869569 0.0045691351 0
-0.010000027 -0.2086321 0.0076584723 0
-0.0097652189 -0.20825118 0.0098043857 0
-0.0072681881 -0.20843977 -0.0099992696 0
-0.0076010567 -0.20847623 0.010000724 0
-0.0044875531 -0.20860477 -0.0099992575 0
-0.0042356956 -0.20872436 0.010000738 0
-0.0016051824 -0.20868 -0.0099992501 0
-0.0017118169 -0.20860822 0.010000749 0
3.4605474e-08 -0.20851536 -0.009558795 0
2.7099345e-08 -0.20861799 -0.0074852719 0
1.5455628e-08 -0.2083303 -0.0042687678 0
5.5617195e-09 -0.20843925 -0.0015356361 0
-6.1645888e-09 -0.20827024 0.0017036836 0
-1.6623439e-08 -0.20845486 0.0045928773 0
-2.8021487e-08 -0.2084455 0.0077415179 0
-3.3829625e-08 -0.20884493 0.0093459822 0
-0.0097358171 -0.20559707 -0.0098524084 0
-0.00999997 -0.20542452 -0.0073651727 0
-0.0099999821 -0.20546457 -0.0047152853 0
-0.0099999923 -0.20531741 -0.0017697066 0
-0.010000002 -0.20550989 0.0015148727 0
-0.010000015 -0.20536856 0.0046517421 0
-0.010000026 -0.20532142 0.0073637855 0
-0.0097816046 -0.20555598 0.0096691558 0
-0.0076044402 -0.20573571 -0.0099992808 0
-0.0076305331 -0.2053944 0.010000712 0
-0.0045243991 -0.20557092 -0.0099992733 0
-0.0044714781 -0.2054801 0.010000725 0
-0.0015938747 -0.20567819 -0.0099992584 0
-0.0013485106 -0.20568837 0.01000074 0
3.4753992e-08 -0.20509836 -0.0095998337 0
2.6812224e-08 -0.20554815 -0.0074059675 0
1.5304323e-08 -0.2053657 -0.0042269817 0
5.0151843e-09 -0.20547768 -0.00138467 0
-5.4805183e-09 -0.20544167 0.0015147032 0
-1.5953606e-08 -0.20535025 0.0044078287 0
-2.7003011e-08 -0.20546703 0.0074601592 0
-3.4278408e-08 -0.20566712 0.0094699431 0
-0.0096108653 -0.20254181 -0.0098347757 0
-0.0099999718 -0.20254809 -0.0075239488 0
-0.0099999821 -0.20223227 -0.0044802297 0
-0.0099999942 -0.20261152 -0.0012929422 0
-0.010000007 -0.20259233 0.0017932265 0
-0.010000017 -0.20251447 0.0046994337 0
-0.010000025 -0.20243217 0.0072629885 0
-0.0096452087 -0.20236665 0.0097398525 0
-0.0075820056 -0.20256309 -0.009999292 0
-0.007664822 -0.20251541 0.010000703 0
-0.0045138835 -0.20260124 -0.0099992827 0
-0.0044857697 -0.2027148 0.010000717 0
-0.0014273237 -0.20248061 -0.0099992715 0
-0.0013903176 -0.20275046 0.010000729 0
3.4598745e-08 -0.20232877 -0.0095569585 0
2.7642599e-08 -0.20234439 -0.0076353652 0
1.6291763e-08 -0.2028966 -0.0044997646 0
5.736688e-09 -0.20249134 -0.0015839917 0
-5.6784581e-09 -0.20255621 0.0015693724 0
-1.6582383e-08 -0.20256527 0.0045815147 0
-2.723764e-08 -0.20244829 0.0075249635 0
-3.4940914e-08 -0.20235737 0.0096529452 0
-0.0097817974 -0.19949403 -0.0098039042 0
-0.0099999728 -0.19929969 -0.0072603491 0
-0.0099999821 -0.19960505 -0.0046813763 0
-0.0099999933 -0.19926099 -0.0013041093 0
-0.010000004 -0.19953379 0.0015426079 0
-0.010000014 -0.19925433 0.0045246934 0
-0.010000028 -0.19953218 0.0076599736 0
-0.0097244503 -0.1995215 0.0097995196 0
-0.0072733196 -0.19958323 -0.0099993022 0
-0.0073291403 -0.19951674 0.010000695 0
-0.0044765892 -0.19933 -0.0099992948 0
-0.0046884622 -0.19950143 0.010000704 0
-0.0014084206 -0.19957398 -0.0099992799 0
-0.001491087 -0.19946921 0.010000715 0
3.386587e-08 -0.19961008 -0.0093545159 0
2.7186363e-08 -0.19925354 -0.0075093443 0
1.566881e-08 -0.19945912 -0.0043276902 0
4.8083235e-09 -0.19946961 -0.0013275477 0
-4.7722089e-09 -0.19946995 0.0013190154 0
-1.567502e-08 -0.19933036 0.0043308497 0
-2.7626633e-08 -0.19952974 0.0076324097 0
-3.406911e-08 -0.19942726 0.0094121043 0
-0.0098184748 -0.19653758 -0.0096842488 0
-0.0099999681 -0.19640665 -0.0076180748 0
-0.0099999849 -0.19632374 -0.0044749021 0
-0.0099999951 -0.19635922 -0.001664803 0
-0.010000003 -0.19640833 0.0017287397 0
-0.010000015 -0.19656323 0.0046221931 0
-0.010000025 -0.19659337 0.0075456481 0
-0.0096463067 -0.19649254 0.0098257661 0
-0.0075343945 -0.19647159 -0.0099993162 0
-0.0072768736 -0.19638744 0.010000683 0
-0.0046151578 -0.19635008 -0.0099993069 0
-0.004379618 -0.19631176 0.010000695 0
-0.001617983 -0.19670521 -0.009999292 0
-0.0016174291 -0.19649281 0.010000703 0
3.431493e-08 -0.19627985 -0.0094785774 0
2.7126919e-08 -0.19658363 -0.007492933 0
1.6128345e-08 -0.19670244 -0.0044546439 0
4.9733031e-09 -0.19641933 -0.0013731333 0
-3.804776e-09 -0.19662768 0.0010517577 0
-1.6056426e-08 -0.19639619 0.0044362 0
-2.7225324e-08 -0.19637403 0.0075215395 0
-3.4756127e-08 -0.19654706 0.009601878 0
-0.0097116539 -0.19345745 -0.0097839767 0
-0.0099999728 -0.19343947 -0.0074835815 0
-0.0099999812 -0.19326848 -0.0045431582 0
-0.0099999923 -0.19345912 -0.001491275 0
-0.010000007 -0.19348483 0.0016764728 0
-0.010000014 -0.19341877 0.0044886535 0
-0.010000026 -0.19350117 0.0076646237 0
-0.0097287372 -0.19342093 0.0096767507 0
-0.0073567112 -0.19357255 -0.0099993236 0
-0.0074344114 -0.19344291 0.010000672 0
-0.0048508705 -0.19376215 -0.0099993171 0
-0.0046344805 -0.19354559 0.010000682 0
-0.0015534423 -0.19359666 -0.0099993031 0
-0.001439858 -0.19350821 0.010000694 0
3.4254064e-08 -0.19335212 -0.0094617745 0
2.7370437e-08 -0.19350474 -0.0075602145 0
1.6077486e-08 -0.19331609 -0.0044406066 0
5.4829532e-09 -0.19315617 -0.0015139328 0
-5.6957377e-09 -0.19367726 0.0015741135 0
-1.5781913e-08 -0.19360793 0.0043603568 0
-2.6621036e-08 -0.19357064 0.007354598 0
-3.4032254e-08 -0.19371843 0.0094019026 0
-0.0096826963 -0.19073343 -0.0098501295 0
-0.0099999709 -0.19045953 -0.0074328701 0
-0.0099999812 -0.19034138 -0.0044229268 0
-0.0099999933 -0.19054341 -0.0016152201 0
-0.010000004 -0.19059622 0.001510833 0
-0.010000016 -0.19025719 0.0046593058 0
-0.010000025 -0.19029136 0.007398305 0
-0.0099296235 -0.19038711 0.009572126 0
-0.0073997006 -0.1902961 -0.0099993376 0
-0.0075447029 -0.19041637 0.010000661 0
-0.0046813753 -0.19018194 -0.0099993274 0
-0.0043100961 -0.19058093 0.010000671 0
-0.0013342844 -0.19041856 -0.0099993162 0
-0.0015347577 -0.19030353 0.010000684 0
3.420573e-08 -0.19093056 -0.0094484314 0
2.679959e-08 -0.19034314 -0.0074025327 0
1.5967398e-08 -0.19035631 -0.0044102063 0
4.8479594e-09 -0.19045979 -0.0013385295 0
-5.5119198e-09 -0.19060138 0.0015233239 0
-1.6417451e-08 -0.19067213 0.0045359097 0
-2.7175728e-08 -0.19071221 0.0075078183 0
-3.427758e-08 -0.19085863 0.0094696619 0
-0.0098621259 -0.1874474 -0.0095858406 0
-0.0099999728 -0.18782438 -0.0070042461 0
-0.0099999839 -0.18754987 -0.0046599708 0
-0.0099999951 -0.18761797 -0.00097181724 0
-0.010000004 -0.18737343 0.0015171757 0
-0.010000014 -0.18737336 0.00455085 0
-0.010000029 -0.18744664 0.007702203 0
-0.0096889585 -0.1876547 0.009804979 0
-0.007264324 -0.18739164 -0.0099993497 0
-0.0075834971 -0.18765786 0.01000065 0
-0.0041614613 -0.18749335 -0.0099993339 0
-0.0045008971 -0.18771952 0.010000663 0
-0.0014004866 -0.18744962 -0.0099993227 0
-0.0016293412 -0.18775515 0.010000671 0
3.4120653e-08 -0.1875959 -0.0094249416 0
2.6926005e-08 -0.1875456 -0.0074374643 0
1.6496619e-08 -0.1877467 -0.0045564095 0
5.1340892e-09 -0.18742904 -0.001417582 0
-5.8544001e-09 -0.18748492 0.0016179207 0
-1.761992e-08 -0.18764225 0.0048680739 0
-2.7801661e-08 -0.18771723 0.0076807174 0
-3.4315814e-08 -0.18793191 0.0094802119 0
-0.0098566655 -0.18457487 -0.0096294191 0
-0.00999997 -0.18437855 -0.0072443727 0
-0.0099999812 -0.18429083 -0.004685848 0
-0.0099999914 -0.18445516 -0.0016816935 0
-0.010000004 -0.18434264 0.0011841313 0
-0.010000014 -0.18434413 0.0045167222 0
-0.010000028 -0.18468282 0.0075305342 0
-0.0097806761 -0.18451495 0.0097077824 0
-0.0075791758 -0.18468335 -0.0099993572 0
-0.0075625391 -0.18473108 0.010000642 0
-0.004257597 -0.1847923 -0.009999346 0
-0.004351676 -0.18429814 0.010000649 0
-0.0016055311 -0.18455291 -0.0099993357 0
-0.0013132485 -0.18452957 0.010000663 0
3.4388275e-08 -0.1846237 -0.0094988812 0
2.7780422e-08 -0.18445766 -0.0076735029 0
1.5516434e-08 -0.1845533 -0.0042856513 0
5.1795981e-09 -0.18433709 -0.0014301648 0
-4.0186032e-09 -0.18424875 0.0011107813 0
-1.5962119e-08 -0.18467915 0.0044101058 0
-2.5678393e-08 -0.18448551 0.0070941658 0
-3.4017564e-08 -0.18424349 0.0093978094 0
-0.009780379 -0.18144435 -0.0097551439 0
-0.0099999709 -0.18138303 -0.0075128041 0
-0.0099999802 -0.18122058 -0.0046221097 0
-0.0099999923 -0.18145137 -0.0016495708 0
-0.010000006 -0.18134485 0.0015527662 0
-0.010000017 -0.18130612 0.0048090969 0
-0.010000024 -0.1814308 0.0074719582 0
-0.0097099561 -0.18135004 0.0098196212 0
-0.0073499721 -0.18145876 -0.0099993693 0
-0.0076571186 -0.18146241 0.010000629 0
-0.0046043866 -0.1817605 -0.0099993562 0
-0.0044995029 -0.18146044 0.010000639 0
-0.0014066735 -0.18164766 -0.0099993451 0
-0.0014427211 -0.18161653 0.010000653 0
3.430651e-08 -0.18170249 -0.009476305 0
2.6765212e-08 -0.18135197 -0.0073930686 0
1.7290988e-08 -0.18135317 -0.0047758725 0
6.213063e-09 -0.18160179 -0.001715663 0
-5.9352048e-09 -0.18123564 0.0016402199 0
-1.535947e-08 -0.18144201 0.004243616 0
-2.7268042e-08 -0.18161099 0.0075332862 0
-3.4504627e-08 -0.18139987 0.0095323473 0
-0.0098797185 -0.17852883 -0.0096695293 0
-0.0099999718 -0.1784869 -0.0075725927 0
-0.0099999802 -0.1785332 -0.0046842182 0
-0.0099999933 -0.17836916 -0.0014727546 0
-0.010000004 -0.1786893 0.0016359159 0
-0.010000015 -0.17803431 0.0043067941 0
-0.010000026 -0.17860958 0.0077660354 0
-0.0097838528 -0.17851749 0.0097097252 0
-0.0075068232 -0.17840882 -0.0099993786 0
-0.007568208 -0.17882383 0.01000062 0
-0.0045711552 -0.17851691 -0.0099993711 0
-0.0046551772 -0.17850845 0.010000627 0
-0.0016457159 -0.17856213 -0.0099993581 0
-0.0015073959 -0.17871559 0.01000064 0
3.4136871e-08 -0.17866078 -0.0094294539 0
2.6977155e-08 -0.17849052 -0.0074516265 0
1.6579012e-08 -0.17844431 -0.0045792041 0
5.0214601e-09 -0.17864245 -0.0013865008 0
-6.3467431e-09 -0.17849639 0.0017538948 0
-1.5279992e-08 -0.17855553 0.0042216503 0
-2.6322677e-08 -0.17842308 0.0072721234 0
-3.4532121e-08 -0.17872341 0.0095399329 0
-0.009907023 -0.17527899 -0.0096372953 0
-0.0099999709 -0.17557569 -0.0075344583 0
-0.0099999821 -0.1753633 -0.0044327625 0
-0.0099999942 -0.17526303 -0.0017452871 0
-0.010000002 -0.17536993 0.0011407027 0
-0.010000015 -0.17545149 0.0045077447 0
-0.010000026 -0.17535339 0.0070092604 0
-0.0097401543 -0.17557874 0.0097891921 0
-0.0072419033 -0.17552716 -0.0099993888 0
-0.0075053852 -0.17571284 0.010000608 0
-0.0047208304 -0.17559759 -0.0099993786 0
-0.0048163841 -0.17572601 0.010000617 0
-0.001524598 -0.17539442 -0.0099993702 0
-0.0014810015 -0.175519 0.010000627 0
3.4312198e-08 -0.1755733 -0.0094778985 0
2.7660334e-08 -0.17547102 -0.0076403618 0
1.5074729e-08 -0.17539394 -0.0041636666 0
4.9454929e-09 -0.17562139 -0.0013655262 0
-5.1907101e-09 -0.17540014 0.0014345367 0
-1.6585108e-08 -0.17550175 0.0045821695 0
-2.5941466e-08 -0.17568499 0.0071668066 0
-3.4667412e-08 -0.17571075 0.0095772957 0
-0.0097663552 -0.17219555 -0.0097125554 0
-0.0099999709 -0.17242688 -0.0078165391 0
-0.0099999812 -0.17261261 -0.004494743 0
-0.0099999923 -0.17259087 -0.0016254355 0
-0.010000004 -0.17231716 0.0018172575 0
-0.010000015 -0.17259313 0.0047096461 0
-0.010000023 -0.17256701 0.0073104301 0
-0.0098557239 -0.17246519 0.0096211843 0
-0.0075591076 -0.17272811 -0.0099994019 0
-0.0075736162 -0.17251286 0.010000595 0
-0.0045169014 -0.17244084 -0.0099993926 0
-0.0043034828 -0.17266534 0.010000608 0
-0.0017559075 -0.17242426 -0.0099993823 0
-0.0013875745 -0.17247549 0.010000617 0
3.4489538e-08 -0.17239621 -0.0095268991 0
2.7041544e-08 -0.17276879 -0.0074694348 0
1.5307293e-08 -0.17250687 -0.0042279209 0
5.7314771e-09 -0.17197694 -0.0015826627 0
-4.5948885e-09 -0.17241888 0.0012699338 0
-1.7035882e-08 -0.17237711 0.0047066817 0
-2.6932039e-08 -0.17226902 0.0074404334 0
-3.3657297e-08 -0.17205158 0.0092982445 0
-0.0097434595 -0.16953699 -0.0097914543 0
-0.00999997 -0.16917731 -0.0073507004 0
-0.0099999812 -0.16973688 -0.0047686803 0
-0.0099999933 -0.16932973 -0.001665593 0
-0.010000004 -0.16936626 0.0014000038 0
-0.010000013 -0.16933261 0.0044867857 0
-0.010000024 -0.16931784 0.0074753826 0
-0.0097065652 -0.16954617 0.0098288609 0
-0.0075533004 -0.16956531 -0.0099994121 0
-0.0073885364 -0.16952442 0.010000585 0
-0.0043873801 -0.16952525 -0.0099993991 0
-0.0043557561 -0.16941464 0.010000599 0
-0.0013361309 -0.16947964 -0.009999387 0
-0.001339858 -0.16952635 0.010000606 0
3.398295e-08 -0.16921768 -0.0093869679 0
2.702585e-08 -0.16938955 -0.0074651116 0
1.6790585e-08 -0.16943501 -0.0046376823 0
6.0188059e-09 -0.1694411 -0.0016620447 0
-5.4111067e-09 -0.16929561 0.0014953978 0
-1.6656772e-08 -0.16956992 0.0046019447 0
-2.6462548e-08 -0.16925107 0.0073107285 0
-3.4546659e-08 -0.1692598 0.0095439143 0
-0.0098099755 -0.16626658 -0.0096251573 0
-0.0099999709 -0.16650091 -0.0075662592 0
-0.0099999849 -0.16637236 -0.0044446578 0
-0.0099999961 -0.16613166 -0.0015461737 0
-0.010000003 -0.16638647 0.0015983328 0
-0.010000016 -0.16641271 0.0045805285 0
