# .PCD v0.7 - Point Cloud Data file format
VERSION 0.7
FIELDS x y z rgb
SIZE 4 4 4 4
TYPE F F F F
COUNT 1 1 1 1
WIDTH 1174
HEIGHT 1
VIEWPOINT 0 0 0 1 0 0 0
POINTS 1174
DATA ascii
-0.010000004 -0.16349259 0.001640716 0
-0.010000017 -0.16329736 0.0045977333 0
-0.010000027 -0.16338119 0.0077122734 0
-0.0097743021 -0.16341303 0.0097300746 0
-0.007380018 -0.16349748 -0.0099994317 0
-0.0073934277 -0.16369525 0.010000563 0
-0.0042103035 -0.16346048 -0.0099994214 0
-0.0046223048 -0.16342403 0.010000573 0
-0.001398255 -0.16364966 -0.0099994102 0
-0.0014623099 -0.16355996 0.010000585 0
0.0014672418 -0.16352077 -0.0099994 0
0.0017816562 -0.16352177 0.0100006 0
0.0045456081 -0.16338336 -0.0099993907 0
0.004494308 -0.16364793 0.010000605 0
0.0072677396 -0.16356829 -0.0099993804 0
0.0075649805 -0.16347246 0.010000617 0
0.0096958764 -0.16316144 -0.0098027587 0
0.010000028 -0.16345054 -0.0073538111 0
0.010000015 -0.16330956 -0.004704671 0
0.010000006 -0.16348471 -0.0017075064 0
0.0099999914 -0.16349421 0.0015250189 0
0.0099999858 -0.16367468 0.0042360756 0
0.00999997 -0.16338108 0.0076538101 0
0.0097289477 -0.16333632 0.0097941989 0
-0.0097664613 -0.16078322 -0.0097156344 0
-0.0099999718 -0.16070047 -0.0071819625 0
-0.0099999821 -0.16058961 -0.0046680947 0
-0.0099999951 -0.16027458 -0.0015254683 0
-0.010000004 -0.16056502 0.0016466244 0
-0.010000015 -0.16035722 0.0044365423 0
-0.010000027 -0.16048817 0.0073938812 0
-0.009848929 -0.16069667 0.0096722832 0
-0.0075716157 -0.16041023 -0.0099994447 0
-0.0074208705 -0.16062753 0.010000555 0
-0.0041605034 -0.16041598 -0.0099994326 0
-0.0043964256 -0.16060668 0.010000564 0
-0.0013762689 -0.16046874 -0.0099994224 0
-0.0014873049 -0.16048238 0.010000574 0
0.0014945492 -0.16050899 -0.009999413 0
0.0015821309 -0.16060483 0.010000587 0
0.0041062334 -0.16052879 -0.0099994047 0
0.0045692162 -0.16035305 0.010000597 0
0.0074177715 -0.16045009 -0.0099993888 0
0.0076118987 -0.16045189 0.010000607 0
0.0096967928 -0.16052462 -0.0098088244 0
0.010000024 -0.1603708 -0.0074346056 0
0.010000012 -0.16032381 -0.0043463553 0
0.010000005 -0.16062458 -0.001657031 0
0.0099999933 -0.16040727 0.0014737663 0
0.0099999821 -0.16053016 0.0043725078 0
0.0099999728 -0.16023697 0.0072982167 0
0.0096945679 -0.16060486 0.0097680427 0
-0.0097357947 -0.15728842 -0.0097186482 0
-0.0099999718 -0.15770626 -0.0077240658 0
-0.0099999821 -0.15755875 -0.0044127712 0
-0.0099999923 -0.1574131 -0.0014433148 0
-0.010000006 -0.15720883 0.0016743013 0
-0.010000015 -0.1572794 0.0044650626 0
-0.010000025 -0.1574595 0.0074928855 0
-0.0098743252 -0.15726078 0.0097457422 0
-0.0074663828 -0.15735511 -0.009999455 0
-0.0076584448 -0.15738581 0.010000539 0
-0.0043773651 -0.15764433 -0.0099994466 0
-0.0045883013 -0.15749158 0.010000554 0
-0.0016491945 -0.15705968 -0.0099994391 0
-0.0017438683 -0.15751022 0.010000561 0
0.0014825891 -0.1573365 -0.0099994224 0
0.0014372061 -0.15748301 0.010000573 0
0.0044063982 -0.15765616 -0.0099994112 0
0.0043926421 -0.15741116 0.010000584 0
0.0070866249 -0.15760112 -0.0099994019 0
0.0074955183 -0.15735714 0.010000595 0
0.0098432247 -0.15741976 -0.0097293686 0
0.010000024 -0.15755183 -0.0076204804 0
0.010000015 -0.1575686 -0.0045247702 0
0.010000004 -0.15740095 -0.0013445977 0
0.0099999942 -0.15771173 0.0014633558 0
0.0099999839 -0.15780365 0.0046671205 0
0.0099999746 -0.15725966 0.0075471252 0
0.0099182688 -0.15782784 0.0096448418 0
-0.0097392127 -0.15467824 -0.0097238421 0
-0.0099999709 -0.15460551 -0.0076780445 0
-0.009999983 -0.15436491 -0.004688601 0
-0.0099999923 -0.15446089 -0.0015318826 0
-0.010000006 -0.15424845 0.0015792913 0
-0.010000015 -0.15452023 0.0047372747 0
-0.010000025 -0.15430087 0.0074343933 0
-0.0097253686 -0.15447371 0.0098468624 0
-0.0077721952 -0.15465833 -0.009999468 0
-0.007468882 -0.15450977 0.01000053 0
-0.0043674004 -0.15448722 -0.009999455 0
-0.0046791234 -0.15440889 0.010000544 0
-0.0016126895 -0.15465476 -0.0099994456 0
-0.0012760622 -0.15443394 0.010000553 0
0.0014062205 -0.15453435 -0.0099994345 0
0.001623275 -0.15452275 0.010000563 0
0.0045674387 -0.15468822 -0.0099994214 0
0.004739122 -0.15442011 0.010000576 0
0.0074517401 -0.15473045 -0.009999414 0
0.007469432 -0.15445544 0.010000584 0
0.009665017 -0.15443669 -0.0098690037 0
0.010000029 -0.15449747 -0.007667705 0
0.010000017 -0.15450637 -0.0045539839 0
0.010000004 -0.15438995 -0.0015899435 0
0.0099999914 -0.15457648 0.0016755067 0
0.0099999812 -0.15424989 0.0043237745 0
0.0099999746 -0.15469818 0.007541779 0
0.009762642 -0.15434577 0.0098189991 0
-0.0096239373 -0.15144607 -0.0098030539 0
-0.0099999709 -0.15151714 -0.0074723107 0
-0.0099999802 -0.15154922 -0.0046022497 0
-0.0099999942 -0.15153183 -0.0014832679 0
-0.010000002 -0.15151636 0.0014147053 0
-0.010000017 -0.15123521 0.004693598 0
-0.010000025 -0.15170488 0.0074760132 0
-0.0097065521 -0.15158144 0.0097361961 0
-0.0075557446 -0.15156981 -0.0099994754 0
-0.0074546137 -0.15144524 0.010000519 0
-0.0045175762 -0.15145093 -0.0099994643 0
-0.0044859094 -0.15162684 0.010000531 0
-0.0017013812 -0.15156215 -0.0099994568 0
-0.0014590793 -0.15135972 0.01000054 0
0.0011938013 -0.15111744 -0.0099994494 0
0.0012704958 -0.15144458 0.010000554 0
0.0046016304 -0.15169339 -0.0099994326 0
0.0047079679 -0.15154405 0.010000565 0
0.0073154573 -0.15143983 -0.0099994242 0
0.0073480862 -0.15155935 0.010000574 0
0.0098940236 -0.15134399 -0.009609119 0
0.010000024 -0.15150532 -0.0072048022 0
0.010000013 -0.15138035 -0.0044258106 0
0.010000005 -0.15147722 -0.0017651892 0
0.0099999951 -0.15155862 0.0016511648 0
0.0099999821 -0.15156175 0.0044979975 0
0.0099999728 -0.15167004 0.0077458303 0
0.0097708097 -0.15155378 0.0098001743 0
-0.0097999526 -0.14870837 -0.009657451 0
-0.0099999709 -0.14863473 -0.0075884983 0
-0.0099999849 -0.14875275 -0.0045009064 0
-0.0099999933 -0.14868452 -0.0016461948 0
-0.010000004 -0.14848031 0.0014234401 0
-0.010000013 -0.14868365 0.0044942638 0
-0.010000024 -0.14855538 0.0072840638 0
-0.009765327 -0.14857966 0.0097588021 0
-0.0073398631 -0.14861336 -0.0099994866 0
-0.0075154551 -0.14848168 0.010000506 0
-0.0046192957 -0.14850615 -0.0099994773 0
-0.0042617945 -0.14834391 0.010000521 0
-0.0015506136 -0.14847839 -0.0099994661 0
-0.0016570132 -0.1484393 0.01000053 0
0.0016868256 -0.14850436 -0.0099994531 0
0.0014439344 -0.14876035 0.010000545 0
0.0047016195 -0.14840995 -0.0099994456 0
0.0041924026 -0.14862081 0.010000552 0
0.0073256395 -0.14845432 -0.0099994345 0
0.0075759795 -0.14848767 0.010000562 0
0.0096748462 -0.14869939 -0.0097934818 0
0.010000024 -0.14859055 -0.0076055457 0
0.010000014 -0.14832456 -0.0043220804 0
0.010000003 -0.14843418 -0.0014866675 0
0.0099999923 -0.14856732 0.0015395206 0
0.0099999802 -0.14807592 0.004528889 0
0.0099999737 -0.14856161 0.0075602569 0
0.0098424135 -0.14807607 0.0097663831 0
-0.0098995548 -0.14548142 -0.0097017139 0
-0.0099999709 -0.14547984 -0.0073597808 0
-0.0099999849 -0.14517853 -0.0044607506 0
-0.0099999923 -0.14551537 -0.0015633742 0
-0.010000004 -0.14561108 0.0016095594 0
-0.010000013 -0.14547066 0.0044416226 0
-0.010000026 -0.14556377 0.0076813106 0
-0.0097458381 -0.14566621 0.0097220875 0
-0.0077310149 -0.14559513 -0.0099994978 0
-0.0074798642 -0.14579058 0.0100005 0
-0.0043429756 -0.14552954 -0.0099994894 0
-0.0044866004 -0.14553234 0.01000051 0
-0.0012068532 -0.14533839 -0.0099994792 0
-0.0015837186 -0.14546451 0.010000519 0
0.0015885175 -0.14567219 -0.0099994643 0
0.0015379483 -0.14548738 0.010000532 0
0.0046882783 -0.14525032 -0.0099994559 0
0.0043668118 -0.14557558 0.010000542 0
0.0076770638 -0.14541499 -0.0099994438 0
0.0073582935 -0.14553839 0.010000551 0
0.0097520379 -0.1455383 -0.009744456 0
0.010000028 -0.14546891 -0.0073400345 0
0.010000014 -0.14548154 -0.0045869406 0
0.010000004 -0.14550571 -0.001504082 0
0.0099999933 -0.14548655 0.0011768601 0
0.0099999821 -0.14535633 0.0046711876 0
0.00999997 -0.1455438 0.0076195728 0
0.0098241512 -0.14529999 0.0097294515 0
-0.0097949626 -0.14232114 -0.0096840328 0
-0.0099999737 -0.14239486 -0.007438485 0
-0.0099999802 -0.1425146 -0.0046688118 0
-0.0099999905 -0.14257388 -0.0015356786 0
-0.010000004 -0.1425744 0.0017343878 0
-0.010000015 -0.14250897 0.0044793263 0
-0.010000028 -0.14226647 0.0079017011 0
-0.0097482176 -0.14259718 0.0097008981 0
-0.0075178756 -0.14258002 -0.009999508 0
-0.0077873357 -0.14241193 0.010000486 0
-0.0043161116 -0.14229211 -0.0099995015 0
-0.0046982407 -0.14255562 0.0100005 0
-0.0017346183 -0.14275542 -0.0099994885 0
-0.0015933127 -0.14278436 0.010000509 0
0.0016048172 -0.14253554 -0.0099994782 0
0.0014136314 -0.14234476 0.010000519 0
0.0046731862 -0.14257248 -0.009999468 0
0.0047747381 -0.14266457 0.010000532 0
0.0075659105 -0.14253317 -0.009999455 0
0.0075173327 -0.1424963 0.010000541 0
0.0096974112 -0.14268602 -0.0097967116 0
0.010000025 -0.14243804 -0.0075915176 0
0.010000015 -0.14251497 -0.0046132533 0
0.010000005 -0.14236982 -0.0016363412 0
0.0099999914 -0.1424955 0.0015121233 0
0.0099999839 -0.14262623 0.0044234125 0
0.0099999709 -0.14249061 0.0073164701 0
0.0096710026 -0.14274451 0.0098285601 0
-0.009712927 -0.13960262 -0.0098245544 0
-0.0099999718 -0.13940558 -0.0074788821 0
-0.009999983 -0.13923818 -0.0045945491 0
-0.0099999961 -0.13948049 -0.0012250033 0
-0.010000004 -0.1397412 0.0014228246 0
-0.010000018 -0.13965313 0.0045285211 0
-0.010000027 -0.13971697 0.0077392445 0
-0.0097610485 -0.13947722 0.0097085256 0
-0.0073509263 -0.13959685 -0.0099995192 0
-0.0077107879 -0.13966659 0.010000478 0
-0.0044452078 -0.13937674 -0.0099995099 0
-0.0042803893 -0.13942334 0.010000487 0
-0.0012694502 -0.13949554 -0.0099994987 0
-0.0013939622 -0.13964321 0.010000501 0
0.0017141415 -0.13945207 -0.0099994875 0
0.001638003 -0.13953693 0.010000508 0
0.0044520409 -0.13956161 -0.0099994801 0
0.0045940895 -0.13946396 0.010000519 0
0.0074501676 -0.13973352 -0.0099994643 0
0.0074031129 -0.1394655 0.01000053 0
0.0098299133 -0.13982463 -0.0095982347 0
0.010000026 -0.13948312 -0.0075491434 0
0.010000015 -0.1396533 -0.0045547094 0
0.010000003 -0.13941199 -0.0015592261 0
0.0099999933 -0.13941264 0.0016270952 0
0.0099999812 -0.13955502 0.0045031728 0
0.009999969 -0.1392004 0.0076063313 0
0.0096515073 -0.13963217 0.0098059941 0
-0.0096474495 -0.13659967 -0.0097792754 0
-0.0099999709 -0.13667174 -0.0075829318 0
-0.0099999849 -0.13634191 -0.0043801884 0
-0.0099999933 -0.13634789 -0.0016693511 0
-0.010000004 -0.13659088 0.0015169767 0
-0.010000016 -0.13657516 0.0043754736 0
-0.010000026 -0.13643847 0.0075001214 0
-0.0097688753 -0.13609411 0.0097857714 0
-0.0074341055 -0.1364231 -0.0099995313 0
-0.0077041751 -0.13666496 0.010000466 0
-0.0044145915 -0.13619798 -0.0099995229 0
-0.0044553461 -0.13650031 0.010000476 0
-0.0015772124 -0.13655387 -0.009999509 0
-0.0013904836 -0.13651633 0.010000488 0
0.0015341988 -0.13666488 -0.0099994978 0
0.0016652987 -0.13638447 0.010000496 0
0.0044595525 -0.1365661 -0.0099994866 0
0.0046705264 -0.13638395 0.010000508 0
0.007633673 -0.13619016 -0.0099994792 0
0.0074199401 -0.13641667 0.010000519 0
0.0097851334 -0.13636231 -0.0096725691 0
0.010000025 -0.13626927 -0.0075591765 0
0.010000016 -0.13652141 -0.0046146605 0
0.010000004 -0.13655438 -0.0017503182 0
0.0099999933 -0.13642658 0.0013741557 0
0.0099999849 -0.13644053 0.0046046488 0
0.0099999746 -0.13652101 0.0073883398 0
0.0099077942 -0.13611957 0.0095728245 0
-0.0097884219 -0.13324034 -0.0097089885 0
-0.009999969 -0.13361296 -0.0076255789 0
-0.0099999802 -0.13366111 -0.0046051019 0
-0.0099999914 -0.13337772 -0.0014119779 0
-0.010000004 -0.13348898 0.0013931753 0
-0.010000018 -0.1332987 0.0045381682 0
-0.010000026 -0.13341522 0.0075266645 0
-0.0097093927 -0.13346572 0.0099037876 0
-0.0076694773 -0.13339798 -0.0099995434 0
-0.0074500013 -0.1335814 0.010000454 0
-0.0043429891 -0.13354504 -0.0099995332 0
-0.0047841077 -0.13368945 0.010000467 0
-0.0014973414 -0.1333257 -0.009999522 0
-0.0014251044 -0.13325426 0.010000475 0
0.001390678 -0.1333558 -0.0099995118 0
0.0016518005 -0.13328253 0.010000485 0
0.004274609 -0.13370356 -0.0099995006 0
0.0047479901 -0.13353419 0.010000498 0
0.0074421647 -0.13365719 -0.0099994857 0
0.0072660926 -0.13351488 0.010000509 0
0.0097458092 -0.13356456 -0.0097171711 0
0.010000027 -0.13353315 -0.0076856464 0
0.010000015 -0.1334759 -0.0047478783 0
0.010000004 -0.13364147 -0.0014420181 0
0.0099999933 -0.13325861 0.0011980535 0
0.0099999812 -0.13343436 0.0045369044 0
0.0099999728 -0.13332473 0.0070862141 0
0.0097018471 -0.13370387 0.0098483358 0
-0.0097795464 -0.13087435 -0.0097061023 0
-0.00999997 -0.13052067 -0.007393965 0
-0.0099999839 -0.13056873 -0.0042306031 0
-0.0099999933 -0.13031191 -0.0014354464 0
-0.010000008 -0.13034841 0.0016148207 0
-0.010000014 -0.13071156 0.0044517103 0
-0.010000026 -0.13059019 0.0074490462 0
-0.0096587874 -0.13067627 0.0098315803 0
-0.0074392208 -0.1303679 -0.0099995527 0
-0.007381998 -0.13043167 0.010000444 0
-0.0044990494 -0.13046733 -0.0099995434 0
-0.0042882152 -0.13088161 0.01000046 0
-0.0014285221 -0.13049358 -0.0099995313 0
-0.0015776854 -0.13051981 0.010000465 0
0.0016471617 -0.13023028 -0.0099995211 0
0.0016116024 -0.13046637 0.010000478 0
0.0044856821 -0.13031125 -0.0099995108 0
0.0046067149 -0.13039953 0.010000491 0
0.0072681722 -0.13042732 -0.0099994997 0
0.0075403615 -0.13033056 0.0100005 0
0.0098042563 -0.13064046 -0.0097268904 0
0.010000025 -0.13029544 -0.0072814478 0
0.010000016 -0.13037796 -0.0046701152 0
0.010000001 -0.13045309 -0.001243301 0
0.0099999905 -0.13034596 0.0015976614 0
0.0099999821 -0.13061482 0.004534422 0
0.0099999709 -0.13037747 0.0075257346 0
0.0096562933 -0.13071543 0.0098184375 0
-0.0097590135 -0.12752208 -0.0098043131 0
-0.0099999709 -0.12766428 -0.0074386331 0
-0.0099999849 -0.12750275 -0.0043944051 0
-0.0099999923 -0.12749444 -0.0014439876 0
-0.010000004 -0.12752271 0.0015869236 0
-0.010000017 -0.12756653 0.0042290632 0
-0.010000023 -0.12748584 0.0074384469 0
-0.0097873285 -0.12774742 0.0097263921 0
-0.0075490144 -0.12758547 -0.009999563 0
-0.0074835052 -0.12744512 0.010000431 0
-0.004571375 -0.12750255 -0.0099995537 0
-0.0043120296 -0.12744053 0.010000442 0
-0.0014612435 -0.12754183 -0.0099995425 0
-0.0014839465 -0.12754284 0.010000453 0
0.0014586137 -0.12719306 -0.0099995304 0
0.0015707058 -0.12751034 0.010000466 0
0.0045212936 -0.12753204 -0.0099995174 0
0.0044343839 -0.12741928 0.010000476 0
0.0073453388 -0.12750316 -0.009999509 0
0.0072412221 -0.12756439 0.010000485 0
0.009816085 -0.12776841 -0.0096248165 0
0.010000028 -0.1273177 -0.0076380582 0
0.010000018 -0.12771992 -0.0047071176 0
0.010000003 -0.12747298 -0.0015518571 0
0.0099999905 -0.12760447 0.0014702852 0
0.0099999839 -0.12763929 0.0046078893 0
0.0099999718 -0.12749358 0.0074015595 0
0.0097865015 -0.1275222 0.0097104236 0
-0.0097864801 -0.1246108 -0.0097347656 0
-0.00999997 -0.12444449 -0.0076454408 0
-0.0099999812 -0.12459704 -0.0045039752 0
-0.0099999933 -0.12466247 -0.0016254158 0
-0.010000004 -0.1244962 0.0015389684 0
-0.010000016 -0.12427586 0.0044193622 0
-0.010000026 -0.12446538 0.0073861438 0
-0.0097985556 -0.12449341 0.009760486 0
-0.0074482355 -0.12435485 -0.0099995788 0
-0.0075574727 -0.12467764 0.010000422 0
-0.0044334759 -0.12444653 -0.0099995639 0
-0.0043323259 -0.12449642 0.010000431 0
-0.0015977662 -0.12434677 -0.0099995546 0
-0.0015346374 -0.12452383 0.010000442 0
0.001384843 -0.12431167 -0.0099995453 0
0.0014849699 -0.12444913 0.010000454 0
0.0045430334 -0.12479588 -0.0099995295 0
0.004294706 -0.1248279 0.010000465 0
0.0073668649 -0.12466513 -0.0099995183 0
0.0074442094 -0.12452752 0.010000475 0
0.0097090183 -0.1245641 -0.0096885879 0
0.010000024 -0.12428593 -0.0074434225 0
0.010000017 -0.12457939 -0.004508052 0
0.010000005 -0.12492464 -0.0018058908 0
0.0099999961 -0.12455226 0.0015170287 0
0.0099999821 -0.12452646 0.0044579748 0
0.0099999718 -0.12456187 0.007305617 0
0.0095993998 -0.12448762 0.009861378 0
-0.0097972527 -0.12127215 -0.0097178947 0
-0.0099999718 -0.12152295 -0.0074520572 0
-0.0099999802 -0.12137706 -0.0047290358 0
-0.0099999914 -0.12160946 -0.0014384235 0
-0.010000007 -0.12160955 0.0014213721 0
-0.010000016 -0.12177987 0.0045169047 0
-0.010000025 -0.12174734 0.0074198367 0
-0.0097718034 -0.12176204 0.0097821895 0
-0.0072424798 -0.12141275 -0.0099995853 0
-0.0074633425 -0.12145034 0.010000411 0
-0.0048256302 -0.12159298 -0.009999576 0
-0.0045942417 -0.12131837 0.010000422 0
-0.0015641592 -0.12158833 -0.0099995621 0
-0.0013836327 -0.12133619 0.010000434 0
0.0015983261 -0.12147646 -0.0099995537 0
0.0016555638 -0.12124414 0.010000441 0
0.0041378443 -0.12167229 -0.0099995434 0
0.0043594721 -0.12123656 0.010000452 0
0.0073993802 -0.12140296 -0.0099995341 0
0.0071552801 -0.12156836 0.010000466 0
0.0097915549 -0.12112007 -0.009773856 0
0.010000026 -0.12134344 -0.0076726433 0
0.010000017 -0.12131658 -0.0045437329 0
0.010000005 -0.1217045 -0.0016354551 0
0.0099999914 -0.12119893 0.0017193884 0
0.0099999849 -0.12130988 0.0044046566 0
0.0099999709 -0.12146274 0.0074229068 0
0.0096384231 -0.12145929 0.0098373983 0
-0.0098682884 -0.11842965 -0.009691867 0
-0.00999997 -0.11848475 -0.0074227001 0
-0.0099999812 -0.11851334 -0.0044990643 0
-0.0099999933 -0.1185123 -0.0013566865 0
-0.010000004 -0.11866039 0.0015729642 0
-0.010000014 -0.11849327 0.0045636795 0
-0.010000026 -0.11850388 0.0073740026 0
-0.0098099019 -0.11861944 0.0097557744 0
-0.0075880638 -0.11856481 -0.0099995965 0
-0.0073630242 -0.11836879 0.010000399 0
-0.0045814915 -0.11881363 -0.0099995863 0
-0.0046194955 -0.1185329 0.010000413 0
-0.0013734051 -0.11862136 -0.0099995723 0
-0.0015801048 -0.11873277 0.010000422 0
0.0015824318 -0.1185611 -0.0099995658 0
0.0017167 -0.11840384 0.010000436 0
0.0046202051 -0.11861411 -0.0099995527 0
0.0044013164 -0.11825981 0.010000444 0
0.0076161553 -0.11855667 -0.0099995406 0
0.0075152512 -0.11852187 0.010000454 0
0.0097963922 -0.11854589 -0.0098246941 0
0.010000027 -0.11839313 -0.007637314 0
0.010000013 -0.11879905 -0.0043784352 0
0.010000004 -0.11851596 -0.0013355059 0
0.0099999923 -0.11838241 0.0017654747 0
0.0099999839 -0.11852179 0.0042747785 0
0.0099999718 -0.11865255 0.0075019277 0
0.0097717633 -0.11851525 0.0098926462 0
-0.0098415641 -0.11519251 -0.0097221658 0
-0.0099999728 -0.11559392 -0.0074754762 0
-0.0099999802 -0.11523169 -0.0046477816 0
-0.0099999914 -0.1156389 -0.0017615742 0
-0.010000006 -0.11568134 0.0016839599 0
-0.010000018 -0.1154155 0.0045051011 0
-0.010000025 -0.11557088 0.0074965754 0
-0.0098019643 -0.11537011 0.009586066 0
-0.0075527024 -0.11563522 -0.0099996058 0
-0.0073468592 -0.11564032 0.01000039 0
-0.0046411459 -0.11564096 -0.0099995965 0
-0.0043264427 -0.11546928 0.0100004 0
-0.0012999837 -0.11549009 -0.0099995844 0
-0.0013570401 -0.11551134 0.010000412 0
0.00157431 -0.11582119 -0.0099995732 0
0.0016120466 -0.11561013 0.010000422 0
0.0045088949 -0.11578637 -0.0099995658 0
0.0047059571 -0.11556716 0.010000434 0
0.0074109975 -0.11546446 -0.0099995527 0
0.0072299941 -0.11531096 0.010000442 0
0.0096911639 -0.11544473 -0.0097338622 0
0.010000027 -0.11543746 -0.0072614793 0
0.010000015 -0.11544891 -0.0048105116 0
0.010000004 -0.11550312 -0.0016827614 0
0.0099999951 -0.1151951 0.0016350667 0
0.0099999812 -0.11546761 0.0046430607 0
0.00999997 -0.11560153 0.0075548124 0
0.0097242063 -0.11529961 0.0097919023 0
-0.0099185063 -0.11250158 -0.0096292598 0
-0.00999997 -0.11255286 -0.0076685017 0
-0.0099999839 -0.1122582 -0.0045023519 0
-0.009999997 -0.1127222 -0.0013733181 0
-0.010000003 -0.11240323 0.001530625 0
-0.010000015 -0.11255041 0.0043250462 0
-0.010000028 -0.11259855 0.0074845413 0
-0.0097700274 -0.11287876 0.0096679162 0
-0.0072508305 -0.1126093 -0.009999617 0
-0.0073208255 -0.11241546 0.010000379 0
-0.0044016223 -0.11257245 -0.0099996049 0
-0.0043769293 -0.11260831 0.010000393 0
-0.0014916052 -0.11263315 -0.0099995947 0
-0.0017363217 -0.11251206 0.010000399 0
0.0015357897 -0.11265289 -0.0099995844 0
0.0014008353 -0.11226359 0.01000041 0
0.0044754599 -0.11230388 -0.0099995751 0
0.004394928 -0.11253534 0.010000422 0
0.0074462402 -0.11225197 -0.0099995648 0
0.0075670378 -0.11256542 0.010000436 0
0.0097455978 -0.11257917 -0.009767116 0
0.010000027 -0.11276978 -0.0075414842 0
0.010000016 -0.11225648 -0.0045526647 0
0.010000008 -0.11249024 -0.001773927 0
0.0099999951 -0.11240748 0.0013885794 0
0.0099999821 -0.11232744 0.0045796051 0
0.0099999737 -0.11271802 0.0071454723 0
0.0097979102 -0.11234389 0.0097863507 0
-0.0097527169 -0.10922486 -0.0097129783 0
-0.0099999709 -0.10943257 -0.007420857 0
-0.0099999812 -0.10946432 -0.004407906 0
-0.0099999914 -0.10939479 -0.001435944 0
-0.010000004 -0.1096651 0.0015154514 0
-0.010000014 -0.10955443 0.0043943236 0
-0.010000025 -0.10971587 0.007430851 0
-0.0097912932 -0.10959558 0.0096622715 0
-0.0074142357 -0.10930941 -0.0099996291 0
-0.007156244 -0.10967663 0.01000037 0
-0.0043223593 -0.10938074 -0.009999617 0
-0.0046424405 -0.1096158 0.010000379 0
-0.0015916033 -0.10963733 -0.0099996086 0
-0.0014660985 -0.10912586 0.010000387 0
0.0015835196 -0.10930017 -0.0099995947 0
0.0016860419 -0.10933799 0.0100004 0
0.0045610568 -0.10908205 -0.0099995872 0
0.0044242595 -0.10943907 0.010000409 0
0.0074971104 -0.1094697 -0.0099995751 0
0.0076235076 -0.10916464 0.010000421 0
0.0097411443 -0.10951177 -0.0098584602 0
0.010000028 -0.10969399 -0.0074736858 0
0.010000015 -0.10966107 -0.0044739204 0
0.010000004 -0.10951827 -0.0015691469 0
0.0099999951 -0.10955416 0.0016221802 0
0.0099999812 -0.10932518 0.0043831752 0
0.0099999709 -0.10934301 0.0076105245 0
0.0097923148 -0.10963383 0.0097828079 0
-0.0096319225 -0.10643328 -0.0097386129 0
-0.0099999709 -0.10622798 -0.007482375 0
-0.0099999802 -0.10649989 -0.0045728586 0
-0.0099999933 -0.10648173 -0.0014921798 0
-0.010000004 -0.10648888 0.0015513781 0
-0.010000015 -0.10658506 0.0046580541 0
-0.010000028 -0.10644838 0.0078141065 0
-0.0097655421 -0.10628034 0.009821265 0
-0.0073993597 -0.10652415 -0.0099996384 0
-0.0075424877 -0.10656905 0.010000356 0
-0.0045520207 -0.10655902 -0.0099996328 0
-0.0044595762 -0.10643518 0.010000368 0
-0.0014630983 -0.10618576 -0.0099996179 0
-0.0017222674 -0.10655845 0.010000379 0
0.0013550854 -0.10644935 -0.0099996077 0
0.0014702455 -0.10640667 0.010000389 0
0.0045736851 -0.10645363 -0.0099995956 0
0.0043721641 -0.10636875 0.010000399 0
0.0076084621 -0.10661605 -0.0099995844 0
0.0075236303 -0.10638998 0.010000411 0
0.0096932137 -0.10621114 -0.0097831413 0
0.010000024 -0.10660107 -0.0073357522 0
0.010000015 -0.10626259 -0.0044202465 0
0.010000005 -0.10631939 -0.0014367863 0
0.0099999914 -0.10655677 0.0015594463 0
0.0099999821 -0.10617415 0.004482328 0
0.0099999728 -0.10630636 0.0073000849 0
0.009836955 -0.10666015 0.009614788 0
-0.0097489692 -0.10324362 -0.0097417496 0
-0.0099999728 -0.10381999 -0.0076666242 0
-0.0099999849 -0.10350251 -0.0043325364 0
-0.0099999914 -0.10377081 -0.001560677 0
-0.010000005 -0.10345271 0.0014646801 0
-0.010000014 -0.10349207 0.0043351864 0
-0.010000027 -0.1034938 0.0076637357 0
-0.0097396709 -0.10335706 0.0097860266 0
-0.0074286028 -0.10362019 -0.0099996487 0
-0.0072740442 -0.10339294 0.010000345 0
-0.0043183127 -0.10355817 -0.0099996394 0
-0.0044633821 -0.10333236 0.010000356 0
-0.0015285641 -0.10342318 -0.00999963 0
-0.0014587712 -0.10344915 0.010000367 0
0.0014658922 -0.10337771 -0.009999617 0
0.0012498029 -0.10336548 0.010000379 0
0.0045045977 -0.10351767 -0.0099996058 0
0.0046223975 -0.10333316 0.010000388 0
0.0073983283 -0.10336386 -0.0099995965 0
0.0076326192 -0.10347624 0.0100004 0
0.009678985 -0.10348311 -0.0097174747 0
0.01000003 -0.10326763 -0.0077762366 0
0.010000015 -0.1035308 -0.0047197454 0
0.010000005 -0.10323115 -0.0014526023 0
0.0099999914 -0.10356116 0.0017529167 0
0.009999983 -0.10374229 0.0045868037 0
0.0099999709 -0.10339753 0.0075030806 0
0.009745121 -0.10336065 0.0097254785 0
-0.0097383475 -0.10050575 -0.0097126858 0
-0.0099999737 -0.10037462 -0.0074057677 0
-0.0099999858 -0.10043272 -0.0041869772 0
-0.0099999905 -0.10032634 -0.0016882536 0
-0.010000005 -0.10056374 0.0012817911 0
-0.010000015 -0.100546 0.0045904461 0
-0.01000003 -0.10028383 0.0076394812 0
-0.009787011 -0.10065355 0.0097844386 0
-0.0074015013 -0.10037113 -0.0099996608 0
-0.0074465964 -0.10053206 0.010000334 0
-0.0046610297 -0.10046868 -0.0099996496 0
-0.0044216448 -0.10038716 0.010000344 0
-0.0012857436 -0.10041652 -0.0099996403 0
-0.0016043161 -0.10043703 0.010000355 0
0.001593739 -0.10082047 -0.0099996282 0
0.0014071226 -0.10047837 0.01000037 0
0.004730924 -0.10049989 -0.0099996179 0
0.0046414672 -0.1004414 0.01000038 0
0.0075131333 -0.10059175 -0.0099996086 0
0.0075885686 -0.1006867 0.010000392 0
0.0096195191 -0.10064315 -0.009828629 0
0.010000026 -0.10073039 -0.0075885127 0
0.010000017 -0.10042615 -0.0043071858 0
0.010000005 -0.10068839 -0.0015081797 0
0.0099999914 -0.10049411 0.0017589442 0
0.0099999849 -0.10035992 0.00428023 0
0.0099999728 -0.10049559 0.007659202 0
0.0097637298 -0.10062189 0.0097362008 0
-0.0097084315 -0.097389415 -0.0097471662 0
-0.0099999737 -0.097210146 -0.0074445708 0
-0.0099999821 -0.097467057 -0.0045407256 0
-0.0099999933 -0.097577609 -0.0015138783 0
-0.010000004 -0.097359329 0.0015671452 0
-0.010000015 -0.097195432 0.0044663046 0
-0.010000026 -0.097485252 0.0074832006 0
-0.0097525315 -0.097250313 0.0097963205 0
-0.0076441402 -0.097477347 -0.0099996729 0
-0.0072203241 -0.097530708 0.010000328 0
-0.0040503116 -0.097599149 -0.0099996636 0
-0.0045855865 -0.097727865 0.010000335 0
-0.0012509773 -0.097621612 -0.0099996477 0
-0.0014363744 -0.097531222 0.010000348 0
0.0015604401 -0.097546659 -0.0099996403 0
0.0015398486 -0.097166322 0.010000355 0
0.0049202801 -0.097504742 -0.00999963 0
0.0041957782 -0.097502768 0.010000366 0
0.007373949 -0.097272933 -0.0099996189 0
0.0077136811 -0.097397558 0.010000379 0
0.0096767191 -0.097607955 -0.0097401515 0
0.010000025 -0.097526796 -0.0074119666 0
0.010000015 -0.097689793 -0.0044814167 0
0.010000003 -0.09749525 -0.0014766761 0
0.0099999923 -0.097442307 0.0012243838 0
0.009999983 -0.097311243 0.0043173237 0
0.0099999728 -0.097597405 0.007507524 0
0.0096646873 -0.097391196 0.0096784746 0
-0.009608781 -0.094544604 -0.0098115187 0
-0.0099999709 -0.094475634 -0.0074722543 0
-0.0099999812 -0.094329841 -0.0045810034 0
-0.0099999923 -0.09454947 -0.0016781945 0
-0.010000003 -0.09462031 0.0013926331 0
-0.010000014 -0.094334476 0.0041974182 0
-0.010000029 -0.094481252 0.0076060263 0
-0.0097083878 -0.094666645 0.009785437 0
-0.0074248887 -0.094708003 -0.0099996803 0
-0.0075428644 -0.094369285 0.010000313 0
-0.0043689245 -0.094285995 -0.009999672 0
-0.0044599711 -0.094709128 0.010000325 0
-0.0013313548 -0.09450759 -0.0099996608 0
-0.0014000937 -0.094528653 0.010000334 0
0.0014292657 -0.094285481 -0.0099996533 0
0.0017726361 -0.094586842 0.010000347 0
0.0044342559 -0.094590575 -0.0099996394 0
0.0043666558 -0.094536461 0.010000356 0
0.0074545243 -0.09435036 -0.0099996291 0
0.0075014955 -0.094420016 0.010000365 0
0.0097823646 -0.094523676 -0.009755888 0
0.010000027 -0.094337791 -0.0076048574 0
0.010000015 -0.094577469 -0.0047246492 0
0.010000004 -0.094570234 -0.0014976419 0
0.0099999933 -0.094501868 0.0012694803 0
0.0099999812 -0.094566487 0.004483426 0
0.00999997 -0.094308116 0.0075910585 0
0.0098211113 -0.094467655 0.0095872842 0
-0.009815244 -0.091512866 -0.0096077081 0
-0.0099999718 -0.091533735 -0.0075442414 0
-0.009999983 -0.091299117 -0.0042782929 0
-0.0099999914 -0.091409899 -0.0015017859 0
-0.010000005 -0.09134116 0.0016766692 0
-0.010000014 -0.091377683 0.0044231974 0
-0.010000023 -0.091643885 0.0075615398 0
-0.0096860528 -0.091364689 0.0098490342 0
-0.0075714653 -0.091532536 -0.0099996934 0
-0.0073222117 -0.091557473 0.010000303 0
-0.0042866748 -0.09164115 -0.0099996813 0
-0.0044352105 -0.091395631 0.010000313 0
-0.0015382399 -0.091308892 -0.009999672 0
-0.001474756 -0.09131065 0.010000324 0
0.0014978617 -0.091560349 -0.0099996626 0
0.0016209322 -0.091346204 0.010000334 0
0.0044843554 -0.091244012 -0.0099996515 0
0.0043919091 -0.091572218 0.010000343 0
0.0075726626 -0.091456227 -0.0099996403 0
0.0074888645 -0.091426373 0.010000357 0
0.0098305084 -0.091792002 -0.0097640473 0
0.010000024 -0.091515712 -0.0074874042 0
0.010000017 -0.091510765 -0.0044426671 0
0.010000003 -0.091580622 -0.0013331705 0
0.0099999914 -0.091470659 0.0018097718 0
0.0099999839 -0.091422223 0.0042116768 0
0.0099999718 -0.091605991 0.0074796379 0
0.0097448751 -0.091800623 0.0096976077 0
-0.0097709764 -0.088503413 -0.0097473599 0
-0.0099999709 -0.088380545 -0.0074967197 0
-0.0099999849 -0.0885607 -0.0044350438 0
-0.0099999914 -0.088530958 -0.0015075358 0
-0.010000004 -0.088231057 0.0016652808 0
-0.010000014 -0.088483475 0.0044034156 0
-0.010000028 -0.088695273 0.0076542599 0
-0.0097378641 -0.088149816 0.0099361343 0
-0.0073959334 -0.08838743 -0.0099997027 0
-0.0075245276 -0.088449135 0.010000291 0
-0.0045610997 -0.088023998 -0.0099996971 0
-0.0041768644 -0.088463455 0.010000306 0
-0.0014783165 -0.088230357 -0.0099996869 0
-0.0013183906 -0.088547342 0.010000315 0
0.0018844495 -0.088391423 -0.0099996747 0
0.001486471 -0.088681765 0.010000324 0
0.004567985 -0.088572793 -0.0099996645 0
0.0041903905 -0.088501565 0.010000334 0
0.0072835893 -0.088441126 -0.0099996505 0
0.0073285145 -0.088488162 0.010000344 0
0.0097309202 -0.088432387 -0.0098186117 0
0.010000028 -0.088336825 -0.0075461417 0
0.010000017 -0.088494927 -0.0043173027 0
0.010000004 -0.08824864 -0.001425218 0
0.0099999914 -0.088327602 0.0015670318 0
0.0099999793 -0.088505298 0.0045061014 0
0.0099999718 -0.088284515 0.0073680156 0
0.0098678069 -0.08856383 0.0096709523 0
-0.0098466156 -0.085972227 -0.0097519476 0
-0.009999969 -0.085488781 -0.0075799958 0
-0.0099999858 -0.085437596 -0.0044620363 0
-0.0099999923 -0.085602507 -0.0014545673 0
-0.010000004 -0.085624471 0.001569345 0
-0.010000014 -0.085359916 0.0042880438 0
-0.010000024 -0.085660279 0.0075088209 0
-0.0097982669 -0.085290968 0.0097317398 0
-0.0077854679 -0.085726403 -0.0099997157 0
-0.0077045048 -0.085755549 0.010000281 0
-0.0044304635 -0.085509159 -0.0099997045 0
-0.0045125457 -0.08532732 0.010000292 0
-0.0013814282 -0.085687913 -0.0099996915 0
-0.0015336993 -0.085743785 0.010000302 0
0.0016178064 -0.085364543 -0.0099996822 0
0.0014635135 -0.085637286 0.010000315 0
0.0041866042 -0.085528687 -0.0099996766 0
0.004255652 -0.085435532 0.010000323 0
0.0074937176 -0.085547708 -0.0099996617 0
0.0074006114 -0.085656747 0.010000338 0
0.0097505348 -0.085570589 -0.0097293835 0
0.010000024 -0.085773773 -0.007443619 0
0.010000014 -0.085618682 -0.0042127464 0
0.010000004 -0.085394897 -0.0014664354 0
0.0099999961 -0.08535628 0.0012878517 0
0.0099999849 -0.085456006 0.0042641126 0
0.0099999718 -0.085376605 0.0075064846 0
0.0097251348 -0.085666262 0.0097242873 0
-0.009676761 -0.082362272 -0.0097778114 0
-0.0099999718 -0.082429014 -0.0073941443 0
-0.0099999812 -0.082392909 -0.0045885448 0
-0.0099999914 -0.082723811 -0.0015158106 0
-0.010000003 -0.082344048 0.0013825315 0
-0.010000016 -0.082364827 0.0046299524 0
-0.010000025 -0.082089491 0.0074561746 0
-0.0097056944 -0.082841426 0.0098101739 0
-0.0075036674 -0.082643859 -0.0099997288 0
-0.007226733 -0.082623474 0.010000272 0
-0.0047040866 -0.082557172 -0.0099997176 0
-0.0046620998 -0.082844593 0.010000284 0
-0.0016123165 -0.082360849 -0.0099997064 0
-0.0014481217 -0.082623973 0.010000293 0
0.0015844774 -0.08242923 -0.009999698 0
0.0014796508 -0.082615115 0.010000303 0
0.0044357595 -0.08269009 -0.0099996859 0
0.0046428558 -0.082468405 0.010000313 0
0.0073216115 -0.082512066 -0.009999672 0
0.0077086026 -0.082413189 0.010000324 0
0.0096934848 -0.08253257 -0.0098433318 0
0.010000024 -0.082778417 -0.0075674844 0
0.010000017 -0.082483023 -0.0046509425 0
0.010000004 -0.082370155 -0.0015151056 0
0.0099999923 -0.082357317 0.0015092313 0
0.0099999821 -0.082471758 0.0043935599 0
0.0099999728 -0.082604691 0.0072882408 0
0.0097898142 -0.082562983 0.0096803019 0
-0.0096544009 -0.079356827 -0.009829198 0
-0.009999969 -0.079535887 -0.0074484716 0
-0.0099999821 -0.07951194 -0.0043354449 0
-0.0099999942 -0.07947199 -0.0013822479 0
-0.010000005 -0.079180621 0.0014775558 0
-0.010000017 -0.07942573 0.0045368043 0
-0.010000026 -0.079470962 0.0074517494 0
-0.0097929491 -0.079318248 0.009744063 0
-0.0076873139 -0.079773575 -0.0099997371 0
-0.0074121887 -0.079370245 0.01000026 0
-0.0046330537 -0.079660311 -0.0099997269 0
-0.0043423004 -0.079212278 0.01000027 0
-0.0016240433 -0.079495601 -0.0099997157 0
-0.0012503536 -0.079466857 0.010000284 0
0.0016537438 -0.079321779 -0.0099997055 0
0.0016717677 -0.079349898 0.010000289 0
0.0044905781 -0.079747185 -0.0099996934 0
0.0047005317 -0.079742201 0.010000306 0
0.0074964059 -0.079506814 -0.0099996813 0
0.0074725896 -0.079264857 0.010000314 0
0.009703178 -0.07940276 -0.0097614815 0
0.010000029 -0.079459555 -0.0074593253 0
0.010000015 -0.079625048 -0.0045713629 0
0.010000003 -0.079717144 -0.0014260275 0
0.0099999942 -0.079577327 0.0013193212 0
0.009999983 -0.079351112 0.0043107271 0
0.00999997 -0.079406798 0.0076602288 0
0.0097251479 -0.079147249 0.0098243868 0
-0.0097162966 -0.076749228 -0.0096787168 0
-0.0099999709 -0.076474041 -0.0075759036 0
-0.0099999839 -0.076418795 -0.0043839612 0
-0.0099999951 -0.076611109 -0.0014468962 0
-0.010000003 -0.076600507 0.0013355491 0
-0.010000014 -0.076681487 0.004399911 0
-0.010000023 -0.076475613 0.0073313224 0
-0.0096576475 -0.07654196 0.009826459 0
-0.0073779426 -0.07657478 -0.0099997465 0
-0.0076220245 -0.076381676 0.010000247 0
-0.0043112827 -0.07701762 -0.0099997371 0
-0.0044562453 -0.076450139 0.010000258 0
-0.0014873169 -0.07644584 -0.009999726 0
-0.0014264702 -0.076552413 0.01000027 0
0.0012898319 -0.076746747 -0.0099997148 0
0.0016360371 -0.076489329 0.01000028 0
0.0043973774 -0.076417483 -0.0099997064 0
0.00483198 -0.076527558 0.010000293 0
0.0078039379 -0.07643044 -0.0099996962 0
0.0074030999 -0.076698028 0.010000302 0
0.0098040449 -0.076172121 -0.0097222198 0
0.010000027 -0.076725803 -0.0073902118 0
0.010000015 -0.076550543 -0.004628168 0
0.010000005 -0.076489165 -0.0016860077 0
0.0099999923 -0.076459363 0.0014061324 0
0.0099999839 -0.076680601 0.0043575838 0
0.00999997 -0.076274499 0.0077607678 0
0.0097793434 -0.076615639 0.0097643575 0
-0.0097840475 -0.073785186 -0.0097646452 0
-0.0099999718 -0.073068984 -0.0074126222 0
-0.0099999858 -0.07339412 -0.0042842994 0
-0.0099999933 -0.073534019 -0.0013133246 0
-0.010000004 -0.073307961 0.001536011 0
-0.010000013 -0.073256716 0.0041624871 0
-0.010000027 -0.073540501 0.0076589654 0
-0.0097895702 -0.073322877 0.0096675968 0
-0.0076267617 -0.073457293 -0.0099997586 0
-0.0074528321 -0.073418386 0.010000234 0
-0.0043352023 -0.073297456 -0.0099997474 0
-0.0045538908 -0.073487759 0.010000248 0
-0.0016929194 -0.073474713 -0.0099997371 0
-0.0016816693 -0.073593564 0.010000258 0
0.0013886373 -0.073709436 -0.0099997269 0
0.0014099788 -0.073464788 0.01000027 0
0.0043913117 -0.073805191 -0.0099997148 0
0.0045443727 -0.073422261 0.010000284 0
0.0073993043 -0.073531672 -0.0099997055 0
0.0072864583 -0.073619813 0.010000291 0
0.0097194547 -0.073388524 -0.0097155031 0
0.010000025 -0.073525362 -0.0073723732 0
0.010000015 -0.073609352 -0.0046050297 0
0.010000002 -0.073680229 -0.0015861954 0
0.0099999933 -0.073439941 0.0014318399 0
0.0099999849 -0.073546447 0.0044277762 0
0.00999997 -0.073524125 0.0075339051 0
0.0097201029 -0.073422663 0.0096567841 0
-0.0098754391 -0.070899107 -0.0095343152 0
-0.009999969 -0.070756085 -0.0074336366 0
-0.0099999812 -0.070490837 -0.0043033478 0
-0.0099999942 -0.07047715 -0.0014540961 0
-0.010000004 -0.070342422 0.0015035131 0
-0.010000016 -0.070688568 0.0046286853 0
-0.010000027 -0.070696704 0.007633891 0
-0.0097813215 -0.070893474 0.0097008077 0
-0.0075015593 -0.070460141 -0.0099997697 0
-0.0075875139 -0.070211627 0.010000226 0
-0.0043372437 -0.07038518 -0.0099997604 0
-0.0045644897 -0.070235096 0.010000234 0
-0.0014086146 -0.070421696 -0.0099997455 0
-0.0018477401 -0.070420943 0.010000248 0
0.0016592945 -0.070777893 -0.0099997353 0
0.0017219601 -0.070717633 0.010000261 0
0.0048032841 -0.070518121 -0.009999726 0
0.0044185459 -0.070682764 0.01000027 0
0.0075649195 -0.070294768 -0.0099997157 0
0.0076674623 -0.070428617 0.010000282 0
0.0096832514 -0.070324145 -0.0097423568 0
0.010000025 -0.070626236 -0.0074701565 0
0.010000015 -0.070581421 -0.0042713005 0
0.010000004 -0.070623107 -0.0014947136 0
0.0099999905 -0.070355989 0.0015605241 0
0.009999983 -0.07063558 0.0044519519 0
0.0099999737 -0.070210598 0.007318248 0
0.0097341035 -0.070496 0.0097877979 0
-0.0098005766 -0.067520566 -0.0096978145 0
-0.00999997 -0.067466609 -0.0075470787 0
-0.009999983 -0.067695692 -0.0042361338 0
-0.0099999914 -0.067351893 -0.0016465358 0
-0.010000004 -0.067455217 0.0014291372 0
-0.010000017 -0.067297041 0.004876039 0
-0.010000023 -0.067625336 0.0073519256 0
-0.0098070977 -0.067323126 0.0096564051 0
-0.0075982828 -0.067227975 -0.0099997846 0
-0.0076517388 -0.067460932 0.010000215 0
-0.0048101051 -0.06769906 -0.0099997744 0
-0.0044456315 -0.067667671 0.01000023 0
-0.0014928186 -0.067584679 -0.0099997586 0
-0.0016486261 -0.067404218 0.010000237 0
0.0014274927 -0.06739866 -0.0099997483 0
0.0013297359 -0.067583181 0.01000025 0
0.0047600479 -0.067564808 -0.009999739 0
0.0046363841 -0.067626961 0.01000026 0
0.0074084797 -0.067516543 -0.0099997269 0
0.0073507428 -0.067458935 0.010000272 0
0.0097423084 -0.067615941 -0.0097085265 0
0.010000026 -0.067376256 -0.0074280938 0
0.010000015 -0.067503847 -0.0043813013 0
0.010000003 -0.067445554 -0.0014028971 0
0.0099999914 -0.067631289 0.0015070477 0
0.0099999812 -0.067453608 0.0043912153 0
0.0099999737 -0.067414768 0.0076692384 0
0.0098547228 -0.06774234 0.009706595 0
-0.0096656242 -0.064513907 -0.0098113092 0
-0.0099999728 -0.064445429 -0.0075477096 0
-0.0099999821 -0.064478233 -0.004575748 0
-0.0099999923 -0.064559087 -0.0014593049 0
-0.010000004 -0.064634882 0.0014723688 0
-0.010000014 -0.064345516 0.0044412729 0
-0.010000025 -0.064573303 0.0074946564 0
-0.0098438077 -0.064503059 0.0096639935 0
-0.0075088353 -0.064429097 -0.009999793 0
-0.0077581522 -0.064585112 0.010000204 0
-0.0043294788 -0.06465368 -0.0099997791 0
-0.0042736419 -0.064200185 0.010000214 0
-0.0012938776 -0.064401478 -0.0099997697 0
-0.0016377103 -0.064333901 0.010000228 0
0.001424822 -0.064527169 -0.0099997595 0
0.0015708555 -0.064312182 0.010000237 0
0.0046355324 -0.064333431 -0.0099997502 0
0.0044733132 -0.064541012 0.010000247 0
0.0074894005 -0.064681172 -0.0099997362 0
0.0075003747 -0.064327806 0.010000259 0
0.0096687926 -0.064452425 -0.009837863 0
0.010000027 -0.064596198 -0.007698989 0
0.010000017 -0.064288557 -0.0044421875 0
0.010000004 -0.064627156 -0.0015735977 0
0.0099999942 -0.064510852 0.001410332 0
0.0099999849 -0.06474977 0.0044109332 0
0.0099999728 -0.06451828 0.0074999947 0
0.0098035438 -0.064667396 0.0096635204 0
-0.0096165016 -0.061512481 -0.0098297689 0
-0.0099999709 -0.061603043 -0.0074494747 0
-0.0099999839 -0.061658423 -0.0044789962 0
-0.0099999942 -0.061403055 -0.0015513726 0
-0.010000007 -0.061463922 0.0014370355 0
-0.010000017 -0.061815057 0.0046035759 0
-0.010000026 -0.061632451 0.0074511287 0
-0.0097932331 -0.061551742 0.0097725634 0
-0.0074179354 -0.061630942 -0.0099998014 0
-0.0076015866 -0.061475918 0.010000193 0
-0.0042469036 -0.061231453 -0.009999793 0
-0.0044777188 -0.061640605 0.010000207 0
-0.001651596 -0.061585303 -0.0099997791 0
-0.0015025411 -0.061464943 0.010000218 0
0.0016871389 -0.061478417 -0.0099997669 0
0.0014569601 -0.061266802 0.010000224 0
0.004337912 -0.06161667 -0.0099997604 0
0.0047840513 -0.061193123 0.010000236 0
0.0076443562 -0.06142443 -0.0099997483 0
0.0078003909 -0.061683632 0.01000025 0
0.0097589232 -0.061362021 -0.0097540878 0
0.010000029 -0.061690912 -0.0076256096 0
0.010000014 -0.06150439 -0.0042907353 0
0.010000005 -0.061399717 -0.001754752 0
0.0099999933 -0.06137285 0.0014461005 0
0.0099999839 -0.06143051 0.0045753838 0
0.0099999718 -0.061430987 0.0073290183 0
0.0098451423 -0.061142899 0.0097872224 0
-0.0097390478 -0.058512237 -0.0097551299 0
-0.0099999718 -0.058361121 -0.0073833498 0
-0.009999983 -0.058424216 -0.0044315537 0
-0.0099999942 -0.058649234 -0.0015515501 0
-0.010000002 -0.058474049 0.0013532427 0
-0.010000015 -0.058531165 0.0046996246 0
-0.010000024 -0.058263797 0.0075600888 0
-0.0097479643 -0.05821621 0.0096814111 0
-0.0073510595 -0.058719739 -0.0099998135 0
-0.0076073143 -0.058646493 0.010000182 0
-0.0043469933 -0.058597069 -0.0099998005 0
-0.0044830646 -0.058407467 0.010000193 0
-0.0015120098 -0.058358308 -0.0099997921 0
-0.0015370725 -0.058222678 0.010000205 0
0.0014188989 -0.058468491 -0.0099997809 0
0.0013588994 -0.058285452 0.010000215 0
0.0043317014 -0.058544669 -0.0099997688 0
0.0044907425 -0.058478609 0.010000224 0
0.0075937435 -0.058424152 -0.0099997567 0
0.0077146189 -0.058592975 0.010000238 0
0.0097222421 -0.058475737 -0.009728862 0
0.010000025 -0.058536109 -0.0073124547 0
0.010000015 -0.058361027 -0.004319998 0
0.010000005 -0.058661666 -0.0014394637 0
0.0099999914 -0.058278751 0.0015704375 0
0.0099999839 -0.058700822 0.004448317 0
0.0099999746 -0.058644805 0.0075309966 0
0.0098152226 -0.058476023 0.009840739 0
-0.0096671246 -0.055660084 -0.0097993789 0
-0.0099999746 -0.055539634 -0.0074261073 0
-0.0099999839 -0.055350393 -0.0045933593 0
-0.0099999933 -0.055463757 -0.0013275255 0
-0.010000008 -0.055642605 0.0019266895 0
-0.010000017 -0.0552908 0.0045459024 0
-0.010000027 -0.055709101 0.0078679621 0
-0.0097897248 -0.055358652 0.0097001307 0
-0.0076715657 -0.055479117 -0.0099998247 0
-0.0074810116 -0.055240635 0.01000017 0
-0.0044111409 -0.055676553 -0.0099998116 0
-0.0045786635 -0.055438031 0.010000182 0
-0.0016992599 -0.055516981 -0.0099998023 0
-0.0017209791 -0.055613652 0.010000192 0
0.0014718866 -0.055293825 -0.009999793 0
0.0014361977 -0.055208825 0.010000204 0
0.00456789 -0.055311885 -0.0099997837 0
0.0045396895 -0.055414371 0.010000214 0
0.0075763175 -0.055654213 -0.0099997744 0
0.0074999831 -0.05559855 0.010000224 0
0.0097904773 -0.055646032 -0.0097909123 0
0.010000027 -0.05555113 -0.0075309593 0
0.010000013 -0.055513635 -0.0044365684 0
0.010000004 -0.05559561 -0.0014125638 0
0.0099999951 -0.055251129 0.001406197 0
0.0099999793 -0.05555163 0.0046547814 0
0.0099999728 -0.055766329 0.007513307 0
0.0097122146 -0.055542365 0.0098587545 0
-0.0097540086 -0.052636981 -0.009718149 0
-0.0099999728 -0.052676998 -0.0076146238 0
-0.0099999812 -0.05231921 -0.0045722956 0
-0.0099999923 -0.052230321 -0.0014990597 0
-0.010000003 -0.052752238 0.0015055571 0
-0.010000014 -0.052347023 0.0043902169 0
-0.010000025 -0.052596711 0.0076625459 0
-0.0098628169 -0.052453022 0.0096329916 0
-0.007428912 -0.05265316 -0.0099998349 0
-0.007532381 -0.052562054 0.010000162 0
-0.0044855317 -0.052491136 -0.0099998247 0
-0.0044538327 -0.052238386 0.010000172 0
-0.0017379483 -0.052544098 -0.0099998154 0
-0.0013033263 -0.052290548 0.010000183 0
0.0014804407 -0.052571896 -0.0099998051 0
0.0014355546 -0.052382495 0.010000194 0
0.0044270791 -0.052617442 -0.0099997912 0
0.0046760207 -0.052305996 0.010000203 0
0.0074354289 -0.05264286 -0.00999978 0
0.00725597 -0.052583627 0.010000214 0
0.0097292252 -0.052594852 -0.0097897612 0
0.010000026 -0.052533887 -0.0075503201 0
0.010000016 -0.052302632 -0.0046243835 0
0.010000003 -0.052640133 -0.0015151895 0
0.0099999933 -0.052405182 0.0014627276 0
0.0099999821 -0.052605815 0.004619143 0
0.0099999728 -0.052430879 0.0077611534 0
0.0098896446 -0.052426469 0.0096575813 0
-0.0097393105 -0.049572885 -0.0096858554 0
-0.00999997 -0.049365282 -0.00740341 0
-0.009999983 -0.049204316 -0.0044590533 0
-0.0099999961 -0.049517147 -0.0013990396 0
-0.010000003 -0.049614143 0.0015164217 0
-0.010000016 -0.049863312 0.0042855605 0
-0.010000027 -0.049584933 0.0073194355 0
-0.0098483609 -0.049782295 0.0097236251 0
-0.0071662678 -0.049373623 -0.009999848 0
-0.0074705752 -0.049486618 0.010000151 0
-0.0043752412 -0.049548939 -0.0099998359 0
-0.0042377757 -0.049658772 0.010000162 0
-0.0017363797 -0.049547888 -0.0099998256 0
-0.0013533167 -0.049442388 0.010000175 0
0.001690166 -0.049693804 -0.0099998098 0
0.0016308937 -0.04951667 0.010000183 0
0.0045853076 -0.049610283 -0.0099998014 0
0.0044647693 -0.049471039 0.010000192 0
0.0073111663 -0.049360894 -0.0099997921 0
0.0077744233 -0.049599163 0.010000207 0
0.0097761238 -0.049498297 -0.0097080208 0
0.010000028 -0.049383949 -0.0075428858 0
0.010000013 -0.049499519 -0.0042392942 0
0.010000002 -0.049426593 -0.0013576481 0
0.0099999951 -0.049347922 0.0012509777 0
0.0099999821 -0.049355105 0.004453707 0
0.0099999709 -0.049467806 0.0074926512 0
0.0097143091 -0.049648285 0.0097577134 0
-0.0097768577 -0.04689936 -0.0097611826 0
-0.0099999737 -0.046384849 -0.0072708223 0
-0.009999983 -0.046529714 -0.0045840554 0
-0.0099999942 -0.046429038 -0.0014666551 0
-0.010000004 -0.046613034 0.0013347239 0
-0.010000013 -0.046669196 0.0043465537 0
-0.010000026 -0.046612121 0.0073977937 0
-0.0097577376 -0.04669597 0.0097089475 0
-0.0074091242 -0.04655553 -0.0099998564 0
-0.0072607179 -0.046475474 0.010000144 0
-0.004509028 -0.046376254 -0.0099998498 0
-0.0041875369 -0.046924524 0.010000153 0
-0.0015731906 -0.046565905 -0.009999834 0
-0.0016227736 -0.046586264 0.010000161 0
0.0015922594 -0.046590399 -0.0099998256 0
0.0016270743 -0.046724748 0.010000172 0
0.0046746535 -0.046499446 -0.0099998154 0
0.0042427639 -0.046450302 0.010000181 0
0.0077722487 -0.046675216 -0.0099998014 0
0.0073227184 -0.04663365 0.010000193 0
0.0097477399 -0.046415478 -0.0097186379 0
0.010000025 -0.046643008 -0.0074213627 0
0.010000014 -0.046620663 -0.004558112 0
0.010000002 -0.04638337 -0.0013764129 0
0.0099999914 -0.046321724 0.001740819 0
0.0099999802 -0.046433467 0.004532746 0
0.0099999737 -0.046494581 0.0074924193 0
0.0096632 -0.04655904 0.0098238122 0
-0.0098481141 -0.0436441 -0.0097493036 0
-0.0099999709 -0.043546814 -0.0073778685 0
-0.0099999821 -0.04340411 -0.0046409494 0
-0.0099999961 -0.043570992 -0.0011870486 0
-0.010000003 -0.043473408 0.0016382725 0
-0.010000014 -0.043451987 0.0042884639 0
-0.010000025 -0.043794628 0.00761302 0
-0.0098031294 -0.043526892 0.0097325519 0
-0.0077466383 -0.043352157 -0.0099998713 0
-0.0072745373 -0.043637965 0.010000134 0
-0.0044920072 -0.043497074 -0.0099998564 0
-0.0048838137 -0.043528672 0.010000139 0
-0.0015250779 -0.043887477 -0.0099998452 0
-0.0014158742 -0.04349621 0.010000152 0
0.0013170547 -0.043325737 -0.0099998368 0
0.0014013555 -0.043156117 0.010000159 0
0.0045414278 -0.043439455 -0.0099998228 0
0.0044900905 -0.043612879 0.010000172 0
0.0074662045 -0.043517739 -0.0099998135 0
0.0072776531 -0.043780692 0.010000184 0
0.0096533969 -0.043531917 -0.0098164305 0
0.010000026 -0.043410975 -0.007509423 0
0.010000014 -0.043255344 -0.0045774062 0
0.010000002 -0.043561611 -0.001597902 0
0.0099999942 -0.043621391 0.0014616465 0
0.0099999812 -0.043321829 0.004647986 0
0.0099999737 -0.043545309 0.0073589133 0
0.0097271912 -0.043868043 0.009833117 0
-0.0097629977 -0.040662259 -0.0097883344 0
-0.0099999728 -0.040395927 -0.0072559263 0
-0.0099999849 -0.040251508 -0.0042909924 0
-0.0099999933 -0.040774319 -0.0016510555 0
-0.010000002 -0.040619403 0.0014238522 0
-0.010000014 -0.040636364 0.0044201226 0
-0.010000029 -0.040598959 0.0077158916 0
-0.0097321793 -0.040527027 0.009751861 0
-0.0075879311 -0.040496405 -0.0099998787 0
-0.0075285477 -0.040521558 0.010000122 0
-0.0043261638 -0.040449105 -0.0099998675 0
-0.004298267 -0.040487036 0.010000132 0
-0.0013171022 -0.040602069 -0.0099998536 0
-0.0015553954 -0.040546101 0.01000014 0
0.0015469452 -0.040146645 -0.0099998461 0
0.0013972194 -0.040665358 0.01000015 0
0.0045064078 -0.040353429 -0.009999834 0
0.004854131 -0.040494476 0.010000164 0
0.0076605361 -0.040532265 -0.0099998238 0
0.0075410199 -0.040397074 0.010000171 0
0.0097420663 -0.04032572 -0.0097123291 0
0.010000025 -0.040669642 -0.0074100574 0
0.010000014 -0.04066018 -0.004307908 0
0.010000003 -0.040450338 -0.0014964676 0
0.0099999923 -0.0402776 0.0014388006 0
0.0099999821 -0.040334545 0.0044731363 0
0.0099999709 -0.040576011 0.007680241 0
0.0096676406 -0.040634356 0.0098142307 0
-0.0097245499 -0.037155703 -0.0097835138 0
-0.0099999709 -0.037531368 -0.0076304385 0
