# .PCD v0.7 - Point Cloud Data file format
VERSION 0.7
FIELDS x y z rgb
SIZE 4 4 4 4
TYPE F F F F
COUNT 1 1 1 1
WIDTH 1206
HEIGHT 1
VIEWPOINT 0 0 0 1 0 0 0
POINTS 1206
DATA ascii
0.028518034 -0.23999996 -0.0078681447 0
0.028644906 -0.23999991 -0.0047674589 0
0.028593039 -0.23999988 -0.0015895662 0
0.028742317 -0.23999992 0.0013282954 0
0.02858047 -0.23999991 0.0046130489 0
0.028396545 -0.23999985 0.0075228461 0
0.028527137 -0.23861726 0.0099063944 0
0.031490829 -0.23905291 -0.009830134 0
0.031609368 -0.23999995 -0.0076944539 0
0.031368211 -0.23999989 -0.0046361834 0
0.031912856 -0.23999998 -0.0014565239 0
0.031591598 -0.23999992 0.00162508 0
0.031692002 -0.23999989 0.0045347149 0
0.031520672 -0.23999983 0.0075883521 0
0.031506106 -0.23875703 0.0098674428 0
0.034301456 -0.23880307 -0.0098884618 0
0.034518361 -0.23999991 -0.0071849516 0
0.034360964 -0.23999991 -0.0047120471 0
0.034153104 -0.23999991 -0.0016514133 0
0.034419317 -0.23999992 0.0014592564 0
0.034555458 -0.23999986 0.0043742666 0
0.034656554 -0.23999991 0.0073161349 0
0.034411669 -0.2386732 0.009930416 0
0.037478816 -0.23890346 -0.0099300779 0
0.03774279 -0.23999989 -0.0074469671 0
0.037699986 -0.23999996 -0.0044676731 0
0.037211295 -0.23999989 -0.0014468286 0
0.037465274 -0.23999989 0.0010834829 0
0.037379913 -0.23999988 0.0045297993 0
0.037307069 -0.23999986 0.0073679471 0
0.037354194 -0.23894309 0.0098433327 0
0.040483985 -0.23888375 -0.0098969201 0
0.040540993 -0.23999992 -0.007711255 0
0.040522568 -0.23999989 -0.0043645427 0
0.040625848 -0.23999991 -0.0016602799 0
0.040358499 -0.23999988 0.0016745088 0
0.040546145 -0.23999991 0.004568004 0
0.04017761 -0.23999988 0.007457735 0
0.040611327 -0.23870578 0.0099456999 0
0.043456189 -0.23881182 -0.009882764 0
0.04353277 -0.23999996 -0.007416347 0
0.043455206 -0.23999988 -0.0044737817 0
0.043565713 -0.23999989 -0.0014911592 0
0.043287273 -0.23999988 0.0012752945 0
0.043447502 -0.23999986 0.0045615388 0
0.043592978 -0.23999985 0.0074370685 0
0.04349656 -0.23868467 0.0099065211 0
0.046442796 -0.23891133 -0.0099012712 0
0.046721105 -0.23999992 -0.0077987323 0
0.046476614 -0.23999988 -0.004573659 0
0.046557441 -0.23999989 -0.0016476277 0
0.046361089 -0.23999989 0.0013920621 0
0.046532284 -0.23999989 0.0047628833 0
0.046340629 -0.23999985 0.007436079 0
0.046616379 -0.23898274 0.0098433588 0
0.049670119 -0.2390279 -0.0098307626 0
0.049231037 -0.23999991 -0.0075893346 0
0.04950197 -0.23999992 -0.0043334421 0
0.049528867 -0.23999992 -0.0014045094 0
0.049445193 -0.23999989 0.0013090082 0
0.049239937 -0.23999989 0.0045015747 0
0.049213015 -0.23999986 0.0075037172 0
0.049495451 -0.23883782 0.0098738838 0
0.052563395 -0.23896383 -0.0098870825 0
0.052356083 -0.23999994 -0.0074821627 0
0.052613199 -0.23999995 -0.0044913129 0
0.052436415 -0.23999991 -0.0017323304 0
0.052383661 -0.23999991 0.0014822095 0
0.052500423 -0.23999991 0.0044680517 0
0.052675661 -0.23999986 0.0075334166 0
0.052386317 -0.23884156 0.0098865014 0
0.055741876 -0.23897199 -0.0098549388 0
0.055059697 -0.23999995 -0.0076370714 0
0.055520218 -0.23999991 -0.0044825412 0
0.05541762 -0.23999992 -0.0013814054 0
0.055632677 -0.23999988 0.0015636135 0
0.055509165 -0.23999986 0.0044208872 0
0.055622008 -0.23999985 0.0074983714 0
0.055254083 -0.23874642 0.0098941512 0
0.058352184 -0.23867725 -0.0098955324 0
0.058914263 -0.23963758 -0.0074628866 0
0.058999095 -0.23960993 -0.0044894465 0
0.058925308 -0.23948085 -0.0016419747 0
0.059110925 -0.23960057 0.0013175611 0
0.058810133 -0.2397221 0.0042237067 0
0.058740851 -0.23987651 0.0073796194 0
0.058592491 -0.23876311 0.0098578529 0
0.060000036 -0.23819937 -0.0096273161 0
0.059999995 -0.2385335 -0.0075391405 0
0.059999987 -0.23856759 -0.0044831685 0
0.059999976 -0.23846073 -0.0012277885 0
0.059999965 -0.23837392 0.0015992905 0
0.059999958 -0.23852889 0.0045001684 0
0.059999939 -0.23855859 0.0072537288 0
0.059999969 -0.23860393 0.0095400847 0
-0.0097555555 -0.23570597 -0.0097087184 0
-0.0099999681 -0.2354296 -0.0078430101 0
-0.0099999802 -0.23555821 -0.0046695387 0
-0.0099999914 -0.23559384 -0.0015426463 0
-0.010000004 -0.23528044 0.0016419197 0
-0.010000015 -0.23546071 0.0046600061 0
-0.010000022 -0.23560056 0.0074456134 0
-0.0097982548 -0.23580047 0.0097032422 0
-0.0073950053 -0.23574179 -0.0099991709 0
-0.0074865329 -0.23562193 0.010000823 0
-0.0042777965 -0.23550333 -0.0099991616 0
-0.0046115294 -0.23555338 0.010000833 0
-0.0014451118 -0.23554778 -0.0099991504 0
-0.0015806757 -0.23547694 0.010000843 0
0.0014881621 -0.23534788 -0.0099991383 0
0.0013318363 -0.23553635 0.010000855 0
0.0046237544 -0.23543878 -0.009999129 0
0.0043305662 -0.23561728 0.010000866 0
0.0076367981 -0.23546499 -0.0099991169 0
0.007494838 -0.23547298 0.010000874 0
0.010581953 -0.23566744 -0.0099991066 0
0.010519528 -0.23542528 0.010000889 0
0.013491368 -0.23524503 -0.0099990983 0
0.013329558 -0.23531793 0.010000898 0
0.016470641 -0.23559317 -0.0099990843 0
0.016598864 -0.23566723 0.010000912 0
0.019716008 -0.23524664 -0.0099990731 0
0.019316362 -0.23531991 0.010000919 0
0.022669615 -0.2355634 -0.0099990638 0
0.02243064 -0.23533954 0.01000093 0
0.025582988 -0.23564108 -0.0099990526 0
0.025478942 -0.23555882 0.01000094 0
0.028691331 -0.23549455 -0.0099990405 0
0.028402956 -0.23543784 0.010000954 0
0.031530742 -0.23548065 -0.0099990293 0
0.031697359 -0.23526272 0.010000963 0
0.034414329 -0.23545787 -0.0099990191 0
0.034268238 -0.23528929 0.010000972 0
0.037608694 -0.23540711 -0.0099990079 0
0.037556037 -0.2355814 0.010000985 0
0.040490441 -0.23556168 -0.0099989977 0
0.04075541 -0.23555896 0.010000996 0
0.043354265 -0.23537453 -0.0099989865 0
0.043196723 -0.23532285 0.010001005 0
0.046638701 -0.23558307 -0.0099989763 0
0.046497069 -0.23556226 0.010001019 0
0.049607832 -0.23553032 -0.0099989651 0
0.049368352 -0.23522611 0.010001026 0
0.05254085 -0.2354974 -0.0099989539 0
0.052392453 -0.23553191 0.01000104 0
0.055540439 -0.23547916 -0.0099989465 0
0.055494867 -0.23563501 0.01000105 0
0.058397632 -0.23568563 -0.0099826399 0
0.060000028 -0.23584767 -0.0078864321 0
0.060000017 -0.23521543 -0.004895892 0
0.060000006 -0.23551278 -0.0015761489 0
0.059999987 -0.23592897 0.0015592914 0
0.05999998 -0.2355247 0.0044481205 0
0.059999969 -0.23496115 0.0072688158 0
0.058371525 -0.23560822 0.010001061 0
0.06000004 -0.23513663 -0.0094811544 0
0.059999995 -0.23548311 -0.0074628862 0
0.059999984 -0.23535101 -0.004599784 0
0.059999973 -0.23577876 -0.0013521988 0
0.059999961 -0.23552366 0.0016044994 0
0.059999961 -0.23527172 0.0046480168 0
0.059999939 -0.23550135 0.0076846122 0
0.059999965 -0.2352908 0.0093920054 0
-0.0097018778 -0.23249367 -0.0098127862 0
-0.0099999718 -0.23248032 -0.0074687107 0
-0.0099999793 -0.23254468 -0.0045100152 0
-0.0099999933 -0.23241986 -0.0014377834 0
-0.010000003 -0.23253883 0.001519712 0
-0.010000012 -0.23235828 0.0043774 0
-0.010000024 -0.23268972 0.0075171767 0
-0.0097441152 -0.23262095 0.0097835669 0
-0.0074222982 -0.232682 -0.0099991821 0
-0.0077644656 -0.23258075 0.010000809 0
-0.0044768252 -0.23236929 -0.0099991728 0
-0.0043716049 -0.23251595 0.010000822 0
-0.0014278061 -0.23229186 -0.0099991607 0
-0.0014752479 -0.23271975 0.010000833 0
0.0016893495 -0.23257928 -0.0099991467 0
0.0014589959 -0.2324613 0.010000844 0
0.0044939411 -0.23267575 -0.0099991383 0
0.0044542067 -0.2324961 0.010000855 0
0.0075146193 -0.23243675 -0.0099991281 0
0.0072183185 -0.23247263 0.010000866 0
0.010559877 -0.23253234 -0.0099991169 0
0.010654013 -0.23267601 0.010000876 0
0.01342 -0.23275864 -0.0099991057 0
0.013391874 -0.23238946 0.010000885 0
0.016340753 -0.23242919 -0.0099990955 0
0.016495528 -0.23260462 0.010000898 0
0.019553877 -0.23268819 -0.0099990834 0
0.019594874 -0.2323987 0.010000911 0
0.022380419 -0.23249193 -0.009999074 0
0.022564752 -0.23244418 0.010000919 0
0.025645899 -0.23241226 -0.0099990629 0
0.025471546 -0.23238784 0.01000093 0
0.028987676 -0.23232514 -0.0099990517 0
0.02842165 -0.23267883 0.01000094 0
0.03139447 -0.23257592 -0.0099990405 0
0.031430718 -0.23250033 0.010000953 0
0.034386825 -0.23251106 -0.0099990293 0
0.034378193 -0.23238911 0.010000963 0
0.037643615 -0.2325161 -0.0099990191 0
0.03741052 -0.23249637 0.010000973 0
0.040501375 -0.23247242 -0.0099990088 0
0.040592838 -0.2325255 0.010000986 0
0.04346896 -0.23262449 -0.0099989967 0
0.043424938 -0.23249581 0.010000995 0
0.046236575 -0.23222499 -0.0099989893 0
0.046745703 -0.23227869 0.010001007 0
0.049553476 -0.23258057 -0.0099989744 0
0.049329691 -0.2326431 0.010001017 0
0.052257091 -0.23239237 -0.009998966 0
0.052359659 -0.23234852 0.010001029 0
0.055375412 -0.23260421 -0.0099989548 0
0.055593248 -0.23267132 0.010001039 0
0.058734454 -0.23262565 -0.0099748634 0
0.060000021 -0.23330306 -0.0068854955 0
0.060000014 -0.23240286 -0.0042260783 0
0.059999999 -0.23242991 -0.0013657606 0
0.059999995 -0.23250414 0.0016760677 0
0.059999984 -0.23285408 0.0039393026 0
0.059999973 -0.23235561 0.0072924206 0
0.058466394 -0.23240706 0.0099827461 0
0.060000036 -0.23305379 -0.0094552189 0
0.059999987 -0.23264007 -0.0074553783 0
0.060000006 -0.23270003 -0.0044647576 0
0.059999976 -0.23235562 -0.0014776303 0
0.059999973 -0.2320824 0.0015921546 0
0.059999954 -0.23241965 0.0044551161 0
0.059999947 -0.23258902 0.0076273712 0
0.059999965 -0.23252878 0.0096124224 0
-0.0096818916 -0.23045528 -0.0095668118 0
-0.0096994694 -0.23033647 -0.007649058 0
-0.0096688056 -0.23030578 -0.0045655863 0
-0.0096943863 -0.23032224 -0.0014870497 0
-0.0097667156 -0.230444 0.0015129426 0
-0.0097591039 -0.23042668 0.0044234847 0
-0.0098007135 -0.23044173 0.0075526424 0
-0.0095070843 -0.23038933 0.0096862121 0
-0.0075934646 -0.23039882 -0.0096921641 0
-0.0075259772 -0.23019992 -0.0075288443 0
-0.0076030795 -0.2301999 -0.0042010956 0
-0.0076615522 -0.23017271 -0.0013602793 0
-0.0074469768 -0.23019992 0.0016892724 0
-0.0075717457 -0.2301999 0.0046276548 0
-0.0074633854 -0.23019986 0.0075293859 0
-0.0074766348 -0.23036247 0.0096876174 0
-0.0043054465 -0.23036779 -0.0097155692 0
-0.0044937786 -0.23019992 -0.0074794688 0
-0.0051752063 -0.22922188 -0.0052290484 0
-0.005999994 -0.22907822 -0.0013627264 0
-0.0060000033 -0.22915426 0.0013502501 0
-0.0060000154 -0.22939371 0.0046870005 0
-0.0044382042 -0.22980383 0.0069488068 0
-0.0048114699 -0.23044789 0.0096800867 0
-0.001437008 -0.23026592 -0.0095825614 0
-0.0013438116 -0.23019995 -0.0074458336 0
-0.0014921468 -0.22906113 -0.0059991749 0
-0.0014199819 -0.22981846 0.006969532 0
-0.0016116572 -0.23032364 0.0096668387 0
0.0015386909 -0.23033002 -0.0096655916 0
0.0015799723 -0.23017253 -0.0073729716 0
0.0016967088 -0.22918196 -0.0059991637 0
0.0026729035 -0.22840409 0.0060008364 0
0.0014294958 -0.22977398 0.0068490389 0
0.001707839 -0.23029818 0.0096117537 0
0.0043774513 -0.23048314 -0.0098253395 0
0.0044621825 -0.23013225 -0.0074008978 0
0.0043926337 -0.22908631 -0.0059242337 0
0.0060000061 -0.22847301 -0.0018504077 0
0.0047603818 -0.22939906 0.0060008471 0
0.0045832591 -0.22973403 0.0068631037 0
0.0043527121 -0.23043844 0.0097876163 0
0.0076008863 -0.23037997 -0.0097694173 0
0.0073025865 -0.23019996 -0.0076059746 0
0.0068001328 -0.22991879 -0.0046626772 0
0.0068507651 -0.22978161 -0.0016702085 0
0.006911865 -0.22974275 0.0014976126 0
0.006953002 -0.22966872 0.0043039382 0
0.0075080204 -0.2301999 0.0074947109 0
0.0077922335 -0.23046869 0.0098492596 0
0.01040538 -0.23037146 -0.0096960748 0
0.010571294 -0.23019993 -0.0075769229 0
0.010739203 -0.23019993 -0.0045608431 0
0.010507733 -0.2301999 -0.0013097484 0
0.010477519 -0.2301999 0.0013843999 0
0.010423005 -0.2301999 0.0045611798 0
0.010431441 -0.23019987 0.0074111433 0
0.010595091 -0.23033527 0.0096688932 0
0.013545443 -0.23035628 -0.0097135678 0
0.01353954 -0.23019993 -0.0076127197 0
0.01349928 -0.23019992 -0.004233609 0
0.013665804 -0.2301999 -0.0015584783 0
0.013353299 -0.2301999 0.0016260974 0
0.013475991 -0.2301999 0.0043401122 0
0.013600439 -0.23019989 0.007524339 0
0.013661628 -0.23037577 0.0097690094 0
0.016427893 -0.23042695 -0.009820994 0
0.016530233 -0.23019993 -0.0073595294 0
0.01631712 -0.23019987 -0.0044777701 0
0.016533403 -0.2301999 -0.0015137051 0
0.016530594 -0.2301999 0.0014766769 0
0.016413234 -0.23019989 0.0044703423 0
0.01637245 -0.23019986 0.0075034928 0
0.016698664 -0.23043793 0.0097693931 0
0.019611381 -0.23040757 -0.0096837515 0
0.01954161 -0.23019993 -0.0074762064 0
0.019498585 -0.23019993 -0.0044869282 0
0.019722901 -0.23019992 -0.0016994644 0
0.019679029 -0.23019992 0.0010341529 0
0.019397104 -0.23019989 0.0046399063 0
0.019565353 -0.23019987 0.0074205408 0
0.019485993 -0.23040843 0.0098389182 0
0.022604847 -0.23037514 -0.0097781755 0
0.02250115 -0.23019992 -0.007526678 0
0.022274626 -0.23019993 -0.0043274304 0
0.022430589 -0.2301999 -0.001413773 0
0.022356041 -0.2301999 0.0013458173 0
0.022465482 -0.2301999 0.0044856621 0
0.022718972 -0.23019986 0.0073847729 0
0.022379184 -0.23037322 0.0097490139 0
0.025448471 -0.23046207 -0.0097604711 0
0.025485149 -0.23019993 -0.0072837151 0
0.025430473 -0.2301999 -0.0043373364 0
0.025659662 -0.2301999 -0.0013677208 0
0.025606904 -0.2301999 0.0012514608 0
0.025651215 -0.2301999 0.0044878866 0
0.025445607 -0.23019986 0.007361969 0
0.025661314 -0.23041144 0.0097623058 0
0.028404741 -0.23037048 -0.0098122424 0
0.028398786 -0.23019993 -0.0074910228 0
0.028428178 -0.2301999 -0.0044837622 0
0.028359713 -0.23019992 -0.0014598719 0
0.028724464 -0.23019989 0.0015435703 0
0.028414547 -0.23019989 0.0044082259 0
0.028529277 -0.23019987 0.0077247 0
0.028557379 -0.23030053 0.0096929567 0
0.031410575 -0.23037386 -0.0097087026 0
0.031475473 -0.23019992 -0.0075628795 0
0.031460833 -0.23019993 -0.0041488088 0
0.031403117 -0.23019989 -0.0014666908 0
0.031434342 -0.23019992 0.00149277 0
0.031740841 -0.23019989 0.0046636676 0
0.031612143 -0.23019987 0.0074627004 0
0.031741288 -0.23032597 0.0096728932 0
0.034319539 -0.23033851 -0.0097078001 0
0.034194414 -0.23019993 -0.0074001527 0
0.034345485 -0.23019993 -0.0044299369 0
0.034219574 -0.23019989 -0.0013043763 0
0.034625039 -0.2301999 0.0015275825 0
0.034233276 -0.23019987 0.0043743835 0
0.034261178 -0.23019987 0.0074983267 0
0.034346566 -0.23035246 0.0097810952 0
0.037658028 -0.2304346 -0.0097820051 0
0.037260775 -0.23019993 -0.0075306189 0
0.03751881 -0.23019992 -0.0043854774 0
0.037600197 -0.2301999 -0.0014121224 0
0.037434231 -0.23019989 0.0015880776 0
0.037648372 -0.23019989 0.0046493942 0
0.037474159 -0.23019989 0.0076546296 0
0.037196219 -0.23035178 0.0097462703 0
0.040593274 -0.23038465 -0.0097979847 0
0.04041886 -0.23019992 -0.0075201592 0
0.0403946 -0.23019992 -0.0045716967 0
0.040393371 -0.2301999 -0.0017293476 0
0.040533777 -0.23019989 0.00140334 0
0.040571794 -0.23019987 0.0044272454 0
0.040423803 -0.23019989 0.0076869568 0
0.040385209 -0.23030232 0.0096232891 0
0.04387537 -0.23040587 -0.009811922 0
0.043486319 -0.23019996 -0.0076103895 0
0.043727979 -0.23019992 -0.0044613886 0
0.043525819 -0.2301999 -0.0013835427 0
0.043491967 -0.23019989 0.0016361019 0
0.043609511 -0.23019989 0.0043732175 0
0.043583822 -0.23019987 0.0075028283 0
0.043317255 -0.23035997 0.0097212205 0
0.046338048 -0.23035079 -0.0097358618 0
0.046397638 -0.23019993 -0.0074823317 0
0.046422597 -0.23019992 -0.0044390014 0
0.046514995 -0.2301999 -0.0014824382 0
0.046482734 -0.2301999 0.0015439555 0
0.046440318 -0.23019989 0.0045002266 0
0.046487954 -0.23019989 0.0075945668 0
0.046300307 -0.23040858 0.009800246 0
0.049939856 -0.22992444 -0.0097443508 0
0.049429193 -0.22958617 -0.0072691441 0
0.049530767 -0.22968385 -0.0044064932 0
0.049548194 -0.22971013 -0.0015081296 0
0.049501136 -0.22956985 0.0014975566 0
0.049494807 -0.22966512 0.0045607993 0
0.049536951 -0.2296323 0.0075407242 0
0.049785804 -0.22982363 0.0097976895 0
0.052361414 -0.22925751 -0.0099989781 0
0.052560952 -0.22943908 0.010001019 0
0.055410802 -0.22943923 -0.009998966 0
0.055422578 -0.22949597 0.010001029 0
0.058457255 -0.22962287 -0.0099483216 0
0.060000028 -0.22966465 -0.0075386977 0
0.060000002 -0.22922638 -0.0041620461 0
0.060000002 -0.2294043 -0.00078770943 0
0.059999991 -0.2295116 0.0011851109 0
0.05999998 -0.22931553 0.0038364576 0
0.059999973 -0.23010966 0.0077024391 0
0.058454409 -0.22952591 0.0099719698 0
0.060000032 -0.22916308 -0.0093826288 0
0.059999991 -0.22954726 -0.0075976532 0
0.059999995 -0.22944599 -0.0044930596 0
0.059999984 -0.2292532 -0.0012666414 0
0.059999969 -0.22930644 0.0013551129 0
0.059999947 -0.22971384 0.0046848757 0
0.059999947 -0.22933318 0.0076117245 0
0.059999973 -0.22950011 0.0095802527 0
-0.0059999828 -0.22624491 -0.0049464246 0
-0.0052615157 -0.22639811 -0.0054249885 0
-0.0059999935 -0.22664732 -0.0014735315 0
-0.0060000061 -0.22659069 0.0016110068 0
-0.0060000173 -0.22662394 0.0046206196 0
-0.0045759818 -0.22639757 0.0060008015 0
-0.001598316 -0.22649381 -0.0059991861 0
-0.0014223239 -0.22651266 0.0060008131 0
0.0021218993 -0.22627001 -0.005999174 0
0.0016888729 -0.22633544 -0.0059991735 0
0.0011779394 -0.22667593 0.0060008233 0
0.0046275449 -0.22660913 -0.0059991633 0
0.0046099206 -0.22629395 -0.0059717786 0
0.0052198698 -0.22709349 0.006000841 0
0.0044663739 -0.2265462 0.0060008378 0
0.0060000182 -0.22629336 -0.0045870971 0
0.0060000052 -0.22639374 -0.0015046676 0
0.0059999959 -0.2265802 0.0015350854 0
0.0059999838 -0.22642103 0.0046884161 0
0.05026301 -0.22652367 -0.0097683407 0
0.050000008 -0.22678381 -0.0074325865 0
0.049999993 -0.22668248 -0.0044806469 0
0.049999982 -0.22633657 -0.0013143809 0
0.049999978 -0.22641487 0.0014258903 0
0.049999967 -0.22641966 0.0046316977 0
0.049999952 -0.22646491 0.0075848573 0
0.050322119 -0.22639644 0.0097358208 0
0.052432165 -0.22651468 -0.0099989874 0
0.052546278 -0.22654194 0.010001007 0
0.055545378 -0.22666159 -0.0099989763 0
0.055120021 -0.22641295 0.010001015 0
0.058761854 -0.22643726 -0.0099847922 0
0.060000021 -0.22629963 -0.0070168357 0
0.060000017 -0.22653636 -0.0044254893 0
0.06000001 -0.22646371 -0.0016116018 0
0.059999991 -0.22641397 0.0020545975 0
0.059999987 -0.22646433 0.0044800388 0
0.059999976 -0.22635457 0.0074596805 0
0.058537617 -0.22672755 0.0099758087 0
0.060000032 -0.22650796 -0.0093484875 0
0.059999991 -0.22662827 -0.0074458276 0
0.059999987 -0.22644688 -0.0042890068 0
0.059999991 -0.22640483 -0.001322688 0
0.059999976 -0.22640173 0.0012661857 0
0.059999954 -0.22664171 0.0044214088 0
0.059999939 -0.22668938 0.0075854035 0
0.059999965 -0.2261769 0.0093634743 0
-0.0059999847 -0.2247479 -0.0043414868 0
-0.0059999912 -0.22290911 -0.0025361951 0
-0.0051952996 -0.22356366 -0.0052715656 0
-0.0059999963 -0.22350031 -0.0013512403 0
-0.0060000047 -0.22346121 0.0012813346 0
-0.006000015 -0.22345167 0.0045465585 0
-0.0044871713 -0.22368167 0.0060007926 0
-0.0015474616 -0.22340968 -0.0059991968 0
-0.0013938888 -0.22332858 0.0060008038 0
0.0024244052 -0.22347389 -0.0059991828 0
0.0013531252 -0.22346437 -0.0059991856 0
0.0018607947 -0.22434169 0.0060008182 0
0.0013610234 -0.22357529 0.0060008145 0
0.0039720014 -0.22455136 -0.005999173 0
0.0044199666 -0.22367397 -0.0059145098 0
0.0060000084 -0.22365165 -0.0024546534 0
0.0036998678 -0.22436924 0.0060008252 0
0.0045728418 -0.22368555 0.0060008271 0
0.0060000154 -0.22350745 -0.0045661055 0
0.0060000042 -0.22352125 -0.0015948878 0
0.0059999931 -0.22355285 0.0015716279 0
0.005999981 -0.22338578 0.0047598048 0
0.050231099 -0.22334522 -0.0097205676 0
0.050000004 -0.22352259 -0.0073784888 0
0.049999997 -0.22343229 -0.0045039873 0
0.04999999 -0.22337218 -0.0016707606 0
0.049999967 -0.22327718 0.0015566536 0
0.04999996 -0.22363472 0.0044924179 0
0.049999956 -0.22359605 0.0074779266 0
0.050285619 -0.22361472 0.0097853132 0
0.05245861 -0.22371154 -0.0099989967 0
0.052531917 -0.22370596 0.010000996 0
0.055733629 -0.22348249 -0.0099989846 0
0.05566648 -0.2234692 0.010001008 0
0.05867226 -0.22341505 -0.00992251 0
0.060000028 -0.22352335 -0.0072171995 0
0.060000021 -0.22364494 -0.0050721564 0
0.059999995 -0.22381781 -0.0014294391 0
0.059999991 -0.2230984 0.0016137889 0
0.059999984 -0.22364663 0.0043322942 0
0.059999973 -0.22317979 0.007272969 0
0.058943573 -0.22353841 0.0098982714 0
0.060000021 -0.22399376 -0.0094147809 0
0.059999991 -0.22350444 -0.0075714504 0
0.059999987 -0.22336967 -0.0045321616 0
0.059999976 -0.22347325 -0.0015341651 0
0.059999965 -0.22335079 0.0014723827 0
0.059999954 -0.2233901 0.0044747125 0
0.059999947 -0.22346786 0.0074897497 0
0.059999973 -0.22350843 0.0095437719 0
-0.0059999814 -0.22031738 -0.0052388692 0
-0.0059999917 -0.22042011 -0.0024169553 0
-0.0052596889 -0.22047122 -0.005243592 0
-0.0059999926 -0.22040316 -0.0016904243 0
-0.0060000052 -0.220479 0.0015952995 0
-0.006000015 -0.22056417 0.0045184107 0
-0.0045656315 -0.22059317 0.0060007828 0
-0.0016449303 -0.22060806 -0.0059992075 0
-0.0016956078 -0.22036287 0.0060007903 0
0.0014551624 -0.22059679 -0.0059991963 0
0.002190605 -0.22091769 0.006000807 0
0.0013960078 -0.22051431 0.0060008029 0
0.0051965923 -0.2196812 -0.0059991865 0
0.0048951665 -0.22035161 -0.0059075691 0
0.0060000094 -0.22003055 -0.0026558693 0
0.0045308308 -0.22074087 0.006000814 0
0.0060000154 -0.22040343 -0.0044261329 0
0.0060000066 -0.2204612 -0.0014772183 0
0.0059999926 -0.2201923 0.0016078026 0
0.0059999856 -0.22040588 0.0044263401 0
0.050219338 -0.22031255 -0.009771022 0
0.050000001 -0.22056593 -0.0075002443 0
0.049999986 -0.22060391 -0.0045826468 0
0.049999986 -0.22039136 -0.0017499576 0
0.049999967 -0.22041544 0.0016477744 0
0.049999963 -0.22058001 0.0042522303 0
0.049999952 -0.22052169 0.0076651219 0
0.050254181 -0.22036988 0.0097667882 0
0.0527208 -0.22037454 -0.0099990079 0
0.052803833 -0.22062172 0.010000987 0
0.055660341 -0.22055925 -0.0099989986 0
0.055500798 -0.22046372 0.010000995 0
0.058649726 -0.2204843 -0.009936518 0
0.060000025 -0.21974652 -0.0078369956 0
0.060000014 -0.22045344 -0.0043758107 0
0.060000002 -0.22086525 -0.0012879253 0
0.059999991 -0.22028375 0.0017006464 0
0.059999987 -0.22066727 0.0039149909 0
0.059999976 -0.22057189 0.0070824339 0
0.058861688 -0.22058731 0.0099283019 0
0.060000036 -0.22063431 -0.0094594853 0
0.059999995 -0.22047116 -0.0075919507 0
0.05999998 -0.22035104 -0.0043719648 0
0.059999984 -0.22092268 -0.0015249015 0
0.059999973 -0.22054023 0.0016525243 0
0.059999954 -0.22044401 0.0047594151 0
0.05999995 -0.22074425 0.0073173186 0
0.059999969 -0.22082496 0.009351111 0
-0.0059999865 -0.2168992 -0.0039019249 0
-0.0059999903 -0.21757706 -0.0027795944 0
-0.0051194471 -0.21748883 -0.0053599798 0
-0.0059999954 -0.21727912 -0.0015643383 0
-0.006000007 -0.21750602 0.0014327815 0
-0.0060000164 -0.21762091 0.0044672815 0
-0.0046360013 -0.21753664 0.0060007707 0
-0.0014299976 -0.21725273 -0.0059992173 0
-0.0014027738 -0.21772955 0.0060007856 0
0.0019651102 -0.21727692 -0.005999207 0
0.0017217958 -0.21753609 -0.0059992084 0
0.002561657 -0.21751367 0.0060007963 0
0.0014688348 -0.21729818 0.0060007931 0
0.0052382494 -0.21746434 -0.005999194 0
0.0045257146 -0.21751137 -0.0059318845 0
0.0060000084 -0.21722201 -0.0024499288 0
0.0048249573 -0.21746442 0.0060008047 0
0.0045524547 -0.2172908 0.0060008015 0
0.006000015 -0.21762273 -0.0045217173 0
0.0060000019 -0.21756956 -0.0010353189 0
0.0059999926 -0.21765898 0.0016582987 0
0.0059999833 -0.21737736 0.0045731701 0
0.050226919 -0.2173305 -0.0097554056 0
0.050000016 -0.21724989 -0.0075010126 0
0.049999993 -0.21750592 -0.0045159804 0
0.049999978 -0.21736084 -0.0012603865 0
0.049999975 -0.21737348 0.001538866 0
0.049999967 -0.21762568 0.0044585122 0
0.049999952 -0.21734773 0.0074920356 0
0.050222166 -0.21732593 0.0097304368 0
0.052644592 -0.21766864 -0.0099990191 0
0.052517295 -0.21750037 0.010000973 0
0.055330679 -0.21746621 -0.0099990088 0
0.055274297 -0.21751441 0.010000983 0
0.058554888 -0.21750197 -0.009957199 0
0.060000025 -0.21777327 -0.0072566806 0
0.060000021 -0.21725997 -0.0050076125 0
0.060000006 -0.21785277 -0.0013278875 0
0.059999991 -0.21737762 0.0014270151 0
0.059999984 -0.21730058 0.0043540723 0
0.059999969 -0.21756169 0.0070194723 0
0.058583722 -0.21750398 0.0099742403 0
0.06000004 -0.21725492 -0.0095577035 0
0.059999999 -0.21761185 -0.0073308391 0
0.06000001 -0.2173326 -0.0044049211 0
0.059999973 -0.21737856 -0.0014889368 0
0.059999973 -0.21759264 0.0016835993 0
0.059999984 -0.21746379 0.0044598477 0
0.059999939 -0.2174602 0.0075181648 0
0.059999969 -0.21736182 0.009361363 0
-0.0059999852 -0.21576408 -0.0042644436 0
-0.0059999935 -0.21427159 -0.0018821137 0
-0.0049929931 -0.21460617 -0.0055846269 0
-0.0059999935 -0.21449199 -0.0015123269 0
-0.0060000042 -0.21451594 0.0014816964 0
-0.0060000145 -0.21453893 0.0044321041 0
-0.0044758189 -0.21459484 0.0060007591 0
-0.001482181 -0.21448229 -0.0059992298 0
-0.0014759903 -0.21454401 0.0060007703 0
0.0018857751 -0.21383509 -0.0059992196 0
0.0016333465 -0.21458405 -0.0059992159 0
0.0020670646 -0.21468674 0.0060007842 0
0.0013252327 -0.21457267 0.00600078 0
0.0042159189 -0.21512716 -0.0059992066 0
0.0045554908 -0.21456468 -0.0059578116 0
0.0047413157 -0.21348454 0.0060007898 0
0.004376811 -0.21473129 0.0060007921 0
0.0060000145 -0.21448085 -0.0043293652 0
0.006000008 -0.21433333 -0.0014174165 0
0.0059999912 -0.21464045 0.0018888547 0
0.0059999828 -0.21450165 0.0045528077 0
0.050329227 -0.21435116 -0.0097646285 0
0.050000004 -0.21454638 -0.0075205276 0
0.049999993 -0.21448533 -0.0046008383 0
0.049999978 -0.21448687 -0.0014511558 0
0.049999975 -0.21444854 0.0013161794 0
0.04999996 -0.21453756 0.0047491584 0
0.049999952 -0.21450838 0.0076033361 0
0.050175674 -0.21430236 0.0097381379 0
0.052370638 -0.21472369 -0.0099990284 0
0.052591305 -0.21447298 0.010000963 0
0.055545501 -0.21456057 -0.0099990182 0
0.055517036 -0.21443036 0.010000973 0
0.058543686 -0.21449026 -0.0099388445 0
0.060000028 -0.21460804 -0.007082093 0
0.060000017 -0.21464376 -0.0045334231 0
0.060000002 -0.21460322 -0.0011524456 0
0.059999991 -0.21489643 0.001549616 0
0.059999973 -0.21458432 0.0044384012 0
0.059999969 -0.21473481 0.0079267751 0
0.058739007 -0.21441485 0.0099497382 0
0.060000036 -0.21409918 -0.0094787478 0
0.060000006 -0.21450745 -0.0074202023 0
0.059999999 -0.21457843 -0.0047492469 0
0.05999998 -0.21419628 -0.0015516683 0
0.059999976 -0.21455951 0.0012735103 0
0.059999958 -0.21453938 0.0045966418 0
0.059999943 -0.21442209 0.0075508156 0
0.059999969 -0.21486695 0.0094379075 0
-0.0059999833 -0.21237563 -0.0046967715 0
-0.0059999935 -0.21190958 -0.0018946158 0
-0.0052140262 -0.21153431 -0.005255505 0
-0.0059999963 -0.21143386 -0.0015727327 0
-0.0060000056 -0.21149161 0.0013854679 0
-0.0060000145 -0.21165735 0.00447314 0
-0.0046359049 -0.21149346 0.0060007484 0
-0.0013056672 -0.21148443 -0.0059992392 0
-0.0015538932 -0.21122922 0.0060007591 0
0.0014033284 -0.2117824 -0.0059992289 0
0.0015485184 -0.21151203 -0.0059992285 0
0.0028857479 -0.21014291 0.0060007707 0
0.0015131544 -0.21151331 0.0060007703 0
0.0047850562 -0.21138294 -0.0059992182 0
0.00445385 -0.21136735 -0.0058855726 0
0.0060000098 -0.21233131 -0.002752827 0
0.0047261319 -0.21246918 0.0060007861 0
0.004491786 -0.21136016 0.00600078 0
0.006000014 -0.2115487 -0.0042022881 0
0.0060000038 -0.21162906 -0.0014570557 0
0.005999994 -0.21152891 0.0013774931 0
0.0059999838 -0.21175079 0.0044136485 0
0.050265145 -0.21146995 -0.0097630881 0
0.050000004 -0.21132071 -0.0073759775 0
0.050000001 -0.21145478 -0.0044997525 0
0.049999986 -0.21144614 -0.0013440055 0
0.049999975 -0.21134679 0.0015594596 0
0.04999996 -0.21142283 0.004565713 0
0.049999945 -0.211574 0.0075885495 0
0.050238747 -0.2115411 0.0096787829 0
0.05247267 -0.2114215 -0.0099990414 0
0.05261087 -0.21156399 0.010000952 0
0.055371646 -0.21156409 -0.0099990303 0
0.055811349 -0.21157773 0.010000966 0
0.058536422 -0.21143138 -0.0099702077 0
0.060000021 -0.21173447 -0.0075154384 0
0.060000017 -0.21173662 -0.0050361035 0
0.060000006 -0.21121377 -0.0013698749 0
0.059999991 -0.21141872 0.0015507826 0
0.05999998 -0.21187741 0.0043956172 0
0.059999973 -0.21138655 0.0074075139 0
0.058417566 -0.21142825 0.0099827973 0
0.060000036 -0.21141346 -0.0094507942 0
0.059999999 -0.21177949 -0.0076057082 0
0.059999987 -0.21160261 -0.0046144216 0
0.059999973 -0.21165942 -0.0013717809 0
0.059999969 -0.21162926 0.0015228266 0
0.059999965 -0.21141829 0.0045128441 0
0.059999943 -0.21170963 0.007440222 0
0.059999965 -0.21111378 0.0095522003 0
-0.005999987 -0.20803262 -0.0037903828 0
-0.0052555203 -0.20854639 -0.005045346 0
-0.0059999935 -0.2085124 -0.0013929134 0
-0.0060000061 -0.20853901 0.0015224563 0
-0.006000015 -0.20826855 0.0044666333 0
-0.0046943957 -0.20839193 0.0060007363 0
-0.0013125027 -0.20842408 -0.0059992517 0
-0.001634695 -0.20845094 0.0060007507 0
0.0016582964 -0.20866083 -0.0059992392 0
0.0015640514 -0.20849212 -0.005999241 0
0.0022358529 -0.20870246 0.0060007628 0
0.0016585998 -0.20856009 0.0060007595 0
0.0051462804 -0.20837618 -0.0059992275 0
0.0044893357 -0.2085636 -0.0058865119 0
0.0060000089 -0.20814939 -0.0025402808 0
0.0047529805 -0.20883755 0.0060007726 0
0.0045408793 -0.20857637 0.0060007707 0
0.006000015 -0.20851602 -0.0041695177 0
0.0060000056 -0.20857912 -0.0014820574 0
0.005999994 -0.20847622 0.0012929778 0
0.0059999833 -0.20833874 0.0042217541 0
0.050198067 -0.20859222 -0.009671241 0
0.050000001 -0.20848222 -0.0074892491 0
0.049999993 -0.20854323 -0.0045132777 0
0.049999982 -0.20860846 -0.0013462451 0
0.049999971 -0.20864993 0.0016254422 0
0.049999967 -0.20859556 0.0045035132 0
0.049999956 -0.20830446 0.0076832543 0
0.050281934 -0.20863487 0.0097257588 0
0.052473266 -0.20840234 -0.0099990517 0
0.052610382 -0.20827971 0.010000941 0
0.055312406 -0.20846149 -0.0099990414 0
0.055536341 -0.20864563 0.010000953 0
0.058839221 -0.20839714 -0.0099582411 0
0.060000025 -0.20843744 -0.0077013788 0
0.060000002 -0.20834114 -0.0043381546 0
0.060000002 -0.20815895 -0.0013958943 0
0.059999991 -0.20834212 0.0018268817 0
0.05999998 -0.20861815 0.0048019262 0
0.059999965 -0.20874263 0.0073354235 0
0.05873603 -0.20830938 0.0099392794 0
0.06000004 -0.20855378 -0.009634831 0
0.060000002 -0.20833237 -0.0073643816 0
0.059999987 -0.20842022 -0.0044139004 0
0.059999973 -0.20850542 -0.0014314037 0
0.059999965 -0.20852478 0.0014011136 0
0.059999958 -0.20831203 0.0046388758 0
0.059999947 -0.20852572 0.0073671723 0
0.059999969 -0.20814843 0.0094698174 0
-0.0059999931 -0.20696123 -0.0020861288 0
-0.0051145847 -0.20560479 -0.0054341769 0
-0.0059999935 -0.20583004 -0.0014120303 0
-0.0060000038 -0.20546603 0.0013727583 0
-0.006000015 -0.2054847 0.0044907839 0
-0.0045167496 -0.20519127 0.0060007251 0
-0.0015376037 -0.20542131 -0.0059992615 0
-0.0013664407 -0.20566851 0.0060007381 0
0.0026594829 -0.20498019 -0.0059992489 0
0.0014668556 -0.20587692 -0.0059992489 0
0.0022561683 -0.20548917 0.0060007516 0
0.0016331635 -0.20528029 0.0060007479 0
0.0042508352 -0.20640774 -0.0059992378 0
0.0043327822 -0.20557949 -0.0059710168 0
0.0060000094 -0.20560336 -0.0025719104 0
0.0050667077 -0.20570309 0.0060007628 0
0.0045803166 -0.20552135 0.0060007595 0
0.006000015 -0.20552532 -0.0044143237 0
0.0060000047 -0.20548916 -0.0014088819 0
0.0059999963 -0.20572452 0.0014021292 0
0.0059999819 -0.20535162 0.0045991582 0
0.050258845 -0.2054313 -0.0097537087 0
0.050000004 -0.205716 -0.0073166606 0
0.04999999 -0.20559409 -0.0043154666 0
0.049999986 -0.20568752 -0.0014663943 0
0.049999971 -0.2056493 0.0016680986 0
0.049999956 -0.20542969 0.0047344114 0
0.049999956 -0.20537433 0.0071313139 0
0.050300192 -0.20564206 0.0098307421 0
0.052594762 -0.20569557 -0.0099990619 0
0.052546475 -0.205746 0.010000933 0
0.055562891 -0.20563799 -0.0099990517 0
0.055678252 -0.20562333 0.010000943 0
0.058658682 -0.20556472 -0.0099542104 0
0.060000028 -0.20537214 -0.0075291563 0
0.06000001 -0.20559612 -0.0040849457 0
0.060000006 -0.20544122 -0.0017051019 0
0.059999999 -0.2053124 0.0014953417 0
0.059999984 -0.20586827 0.004392663 0
0.059999973 -0.2055434 0.008068623 0
0.058447849 -0.20544821 0.0099504655 0
0.060000036 -0.20538269 -0.0095844408 0
0.059999999 -0.20556661 -0.0071862172 0
0.060000002 -0.20543556 -0.0043096584 0
0.059999973 -0.20554247 -0.0013838719 0
0.059999973 -0.20557502 0.0015268038 0
0.059999958 -0.20565078 0.004770902 0
0.059999947 -0.20539503 0.0077038151 0
0.059999973 -0.20533139 0.0094149113 0
-0.0059999861 -0.20300831 -0.0040349592 0
-0.0059999935 -0.20126021 -0.0019353045 0
-0.0051535345 -0.20240088 -0.0052009001 0
-0.005999994 -0.20264645 -0.0014747112 0
-0.0060000042 -0.20214565 0.0014974247 0
-0.0060000154 -0.20245503 0.0044158064 0
-0.0046130088 -0.20251852 0.0060007148 0
-0.0015643946 -0.20251784 -0.0059992741 0
-0.0013908925 -0.20261209 0.0060007297 0
0.0022623653 -0.20245719 -0.0059992592 0
0.0017422324 -0.20255154 -0.0059992587 0
0.0020795588 -0.20284237 0.0060007414 0
0.0015693449 -0.20266953 0.0060007381 0
0.0053811627 -0.20275797 -0.0059992471 0
0.0046455855 -0.20250268 -0.0059054759 0
0.0060000089 -0.20230249 -0.002562793 0
0.0045077964 -0.2020324 0.0060007479 0
0.004591506 -0.20261043 0.0060007488 0
0.0060000159 -0.20245379 -0.0045153634 0
0.0060000033 -0.20237957 -0.0012738979 0
0.0059999982 -0.20244648 0.0013480932 0
0.0059999814 -0.20249864 0.0046263649 0
0.050278459 -0.20268852 -0.0097721182 0
0.050000004 -0.2023377 -0.0076684058 0
0.049999993 -0.20269172 -0.0045994329 0
0.049999982 -0.20258266 -0.0014045549 0
0.049999971 -0.20264688 0.0015108212 0
0.049999963 -0.2025508 0.0043901647 0
0.049999952 -0.2024051 0.0073982193 0
0.050279129 -0.20243111 0.0097970059 0
0.052551009 -0.20250922 -0.009999075 0
0.052623335 -0.2023813 0.010000921 0
0.055704251 -0.20257978 -0.0099990629 0
0.055578209 -0.20230833 0.010000931 0
0.058683645 -0.20265983 -0.0099706063 0
0.060000025 -0.20244934 -0.0073513254 0
0.060000017 -0.20193148 -0.0048185652 0
0.060000006 -0.2024813 -0.0018692794 0
0.059999991 -0.20270203 0.0016151278 0
0.059999984 -0.20282173 0.0046544368 0
0.059999973 -0.20233002 0.0074812695 0
0.058687557 -0.20243463 0.009946363 0
0.060000028 -0.20260252 -0.0095200567 0
0.059999995 -0.20243961 -0.0074086133 0
0.059999987 -0.20241866 -0.0045294426 0
0.059999976 -0.20270713 -0.0015637531 0
0.059999965 -0.20249748 0.0018346491 0
0.059999965 -0.20250897 0.0044420864 0
0.059999939 -0.20244247 0.0075137392 0
0.059999969 -0.20242035 0.0094353044 0
-0.0059999884 -0.20038645 -0.0033406045 0
-0.005999994 -0.20017207 -0.0017943616 0
-0.0052149836 -0.19945559 -0.0052939639 0
-0.0059999949 -0.19970649 -0.0014100177 0
-0.006000008 -0.19960913 0.0015158552 0
-0.0060000173 -0.19947696 0.0046633398 0
-0.0044621401 -0.19954196 0.006000706 0
-0.0011841495 -0.19954816 -0.0059992806 0
-0.0013966704 -0.1995829 0.0060007181 0
0.0011473893 -0.1982168 -0.0059992787 0
0.0014127755 -0.19974081 -0.0059992732 0
0.0023005728 -0.19942175 0.0060007297 0
0.0015123389 -0.19920102 0.0060007256 0
0.0047631017 -0.20013398 -0.0059992587 0
0.0045829713 -0.19959232 -0.0059724008 0
0.006000007 -0.20061153 -0.0020570415 0
0.0031603531 -0.20022298 0.0060007363 0
0.0044451659 -0.19954687 0.0060007372 0
0.006000015 -0.19936247 -0.0045525287 0
0.0060000052 -0.1994307 -0.0014606189 0
0.0059999935 -0.19931011 0.0014148446 0
0.0059999833 -0.19958001 0.0046300082 0
0.050233029 -0.19980724 -0.0096880877 0
0.050000004 -0.19961061 -0.0075115003 0
0.049999997 -0.1994874 -0.0044923411 0
0.049999982 -0.19934869 -0.0014850845 0
0.049999971 -0.19929624 0.0017398074 0
0.04999996 -0.19933203 0.0045621227 0
0.049999956 -0.19949128 0.0075144172 0
0.050242998 -0.19918139 0.0096843857 0
0.05242461 -0.19961113 -0.0099990852 0
0.052435242 -0.19959387 0.01000091 0
0.055428743 -0.19952475 -0.0099990722 0
0.055288643 -0.19945866 0.010000919 0
0.058550913 -0.19927514 -0.0099811964 0
0.060000025 -0.20000933 -0.0076908232 0
0.060000014 -0.19957162 -0.0040498888 0
0.059999991 -0.19914496 -0.001425568 0
0.059999995 -0.19963397 0.001581799 0
0.059999987 -0.19919571 0.0041156816 0
0.059999973 -0.19971663 0.0074269506 0
0.058610115 -0.19932581 0.009944668 0
0.060000028 -0.19931599 -0.009651524 0
0.059999995 -0.19921133 -0.0073669311 0
0.059999999 -0.19948865 -0.0043679145 0
0.059999973 -0.19951148 -0.0013941064 0
0.059999969 -0.19959514 0.0015263866 0
0.059999954 -0.19936445 0.0043683522 0
0.059999943 -0.19940503 0.0077212076 0
0.059999969 -0.19919817 0.0094912192 0
-0.0059999824 -0.19722782 -0.0050472105 0
-0.0059999945 -0.19662797 -0.0016371739 0
-0.0052359132 -0.19641235 -0.0053455611 0
-0.0059999963 -0.19673902 -0.0015948862 0
-0.0060000061 -0.19647767 0.0016495596 0
-0.0060000145 -0.19638684 0.0045085805 0
-0.0044769798 -0.19637842 0.0060006934 0
-0.0016480633 -0.19659273 -0.005999296 0
-0.0014932594 -0.19657391 0.0060007065 0
0.0018267689 -0.19614682 -0.0059992839 0
0.001257558 -0.19640984 -0.0059992829 0
0.0018285905 -0.1965021 0.0060007176 0
0.0047398913 -0.19752367 -0.005999268 0
0.0045630867 -0.19631338 -0.0059992718 0
0.0060000098 -0.1970295 -0.0028791209 0
0.0043237633 -0.19635828 0.006000726 0
0.0044559226 -0.19658163 0.0060007265 0
0.006000014 -0.19654852 -0.0043613035 0
0.0060000042 -0.19645278 -0.001535716 0
0.0059999954 -0.19660868 0.0013725079 0
0.0059999819 -0.19659559 0.0045643314 0
0.050234664 -0.19694127 -0.0097629465 0
0.050000012 -0.19658677 -0.0076983478 0
0.049999997 -0.19655114 -0.0046914076 0
0.04999999 -0.19668241 -0.0015947169 0
0.049999967 -0.19654174 0.0016606299 0
0.04999996 -0.19652107 0.0044934005 0
0.049999949 -0.19674513 0.0075581451 0
0.050244309 -0.19634683 0.0098569291 0
0.052376956 -0.19647963 -0.0099990955 0
0.052645523 -0.1964336 0.010000899 0
0.055306792 -0.19649886 -0.0099990861 0
0.055523038 -0.19656906 0.01000091 0
0.058672141 -0.1962225 -0.0099622523 0
0.060000025 -0.19635054 -0.0073729306 0
0.060000017 -0.19648923 -0.0047750468 0
0.06000001 -0.19648264 -0.0017520541 0
0.059999995 -0.19623269 0.001206131 0
0.059999987 -0.1968478 0.0045432462 0
0.059999973 -0.19633633 0.007320303 0
0.058615685 -0.19661304 0.0099646309 0
0.060000036 -0.19665098 -0.0094111245 0
0.059999999 -0.19668999 -0.0073849554 0
0.059999987 -0.19651607 -0.0043514464 0
0.059999973 -0.19658358 -0.0013450641 0
0.059999969 -0.19649255 0.0019087458 0
0.059999958 -0.19655502 0.0042911111 0
0.059999935 -0.19646262 0.007718245 0
0.059999965 -0.19620438 0.0095721614 0
-0.0059999824 -0.19423227 -0.005045461 0
-0.005999994 -0.19338597 -0.0017361462 0
-0.0053205732 -0.19323324 -0.0051085935 0
-0.0059999949 -0.19360009 -0.00145451 0
-0.0060000075 -0.1934593 0.0016434035 0
-0.0060000145 -0.1933845 0.0043856031 0
-0.0044499249 -0.1934329 0.0060006846 0
-0.001242893 -0.19359554 -0.0059993034 0
-0.0017037122 -0.19352756 0.0060006944 0
0.0015146361 -0.19314398 -0.0059992941 0
0.0022892703 -0.19268341 0.0060007055 0
0.0014569832 -0.19356015 0.0060007046 0
0.0052211289 -0.19327919 -0.0059992815 0
0.0047348505 -0.19319645 -0.0058992123 0
0.0039515006 -0.1939726 0.0060007167 0
0.0044364962 -0.19382744 0.0060007167 0
0.0060000173 -0.19350621 -0.0046817469 0
0.0060000047 -0.19356695 -0.0015552628 0
0.0059999945 -0.19323826 0.0016111551 0
0.0059999838 -0.19368254 0.0046011 0
0.050244726 -0.19345985 -0.0097950622 0
0.050000004 -0.19338296 -0.0075247744 0
0.049999997 -0.19322707 -0.0045453571 0
0.049999978 -0.19348362 -0.0013247665 0
0.049999971 -0.1935003 0.0016178192 0
0.049999963 -0.19350263 0.0045845388 0
0.049999945 -0.19345689 0.0078283269 0
0.05016546 -0.1935408 0.0097043766 0
0.052474011 -0.19357654 -0.0099991076 0
0.052516818 -0.19333011 0.010000886 0
0.055552103 -0.19354251 -0.0099990945 0
0.055957347 -0.19342978 0.010000903 0
0.058381803 -0.19363005 -0.009986327 0
0.060000025 -0.19368823 -0.0071826782 0
0.060000014 -0.19342557 -0.0044665015 0
0.060000002 -0.19339816 -0.0014412667 0
0.059999995 -0.1935385 0.0017318079 0
0.059999984 -0.19378431 0.0046119434 0
0.059999973 -0.19318955 0.0070928028 0
0.058538362 -0.19343656 0.0099691544 0
0.060000032 -0.19404303 -0.0093801012 0
0.059999999 -0.19335215 -0.0074594957 0
0.059999995 -0.19349864 -0.0047314432 0
0.05999998 -0.19336252 -0.001305484 0
0.059999973 -0.19344127 0.0012886653 0
0.059999965 -0.19354416 0.0044201729 0
0.059999947 -0.19345079 0.0076798503 0
0.059999969 -0.19365375 0.0094626648 0
-0.0059999852 -0.19070162 -0.0042770393 0
-0.0059999931 -0.19006537 -0.0020958574 0
-0.0052925711 -0.190496 -0.0051718419 0
-0.0059999931 -0.19038573 -0.0015364997 0
-0.0060000042 -0.19070317 0.0014220284 0
-0.0060000154 -0.19062997 0.0044378107 0
-0.0045685535 -0.19053128 0.0060006725 0
-0.0017702377 -0.19047099 -0.0059993165 0
-0.0016604211 -0.19067317 0.0060006841 0
0.0023010809 -0.18945013 -0.0059993062 0
0.0015312314 -0.19041052 -0.0059993034 0
0.0026916696 -0.19044378 0.0060006985 0
0.0016281611 -0.1903573 0.0060006948 0
0.0049812449 -0.18992469 -0.005999295 0
0.0046487362 -0.19067514 -0.0058450717 0
0.0060000098 -0.18974257 -0.0028097618 0
0.0049361098 -0.18996947 0.0060007055 0
0.0043700011 -0.1906728 0.0060007046 0
0.006000015 -0.19028345 -0.0045427857 0
0.0060000038 -0.19046302 -0.0011714636 0
0.0059999963 -0.19055292 0.001467563 0
0.0059999838 -0.19037949 0.0045342008 0
0.040654197 -0.18988098 -0.0096431961 0
0.040687289 -0.19001228 -0.0073535182 0
0.040490903 -0.18990161 -0.0046775951 0
0.040546462 -0.18998957 -0.0013546458 0
0.04069072 -0.18999508 0.0012719798 0
0.040799674 -0.19003707 0.004699633 0
0.04080629 -0.19001414 0.0077292742 0
0.04097423 -0.18985745 0.0097970413 0
0.04360709 -0.18976335 -0.009813576 0
0.04363066 -0.19019996 -0.0075842501 0
0.043227293 -0.19019997 -0.0046083042 0
0.043523747 -0.19019993 -0.0018296937 0
0.043208733 -0.19019996 0.0015489251 0
0.043426096 -0.19019996 0.0043184836 0
0.043448497 -0.1901999 0.0074206293 0
0.04382823 -0.18990648 0.009662387 0
0.046454739 -0.18990487 -0.0096852547 0
0.04631412 -0.1902 -0.0072825518 0
0.0465842 -0.19019993 -0.0044485005 0
0.046393428 -0.19019994 -0.0014461253 0
0.046730157 -0.19019994 0.0015390263 0
0.046544824 -0.19019993 0.0043233084 0
0.046364911 -0.19019991 0.0072904374 0
0.04672616 -0.19001538 0.0097785685 0
0.049606126 -0.19028725 -0.0097972797 0
0.049513306 -0.19053912 -0.0078117745 0
0.049560204 -0.19069859 -0.0045970655 0
0.049446717 -0.19059439 -0.0014090679 0
0.049560476 -0.19063711 0.0013720382 0
0.049420394 -0.19056749 0.0045667947 0
0.04947139 -0.19064194 0.0074488963 0
0.049677473 -0.19025932 0.0098711979 0
0.052470487 -0.19045044 -0.009999116 0
0.052509837 -0.19054884 0.010000877 0
0.055425305 -0.19062454 -0.0099991057 0
0.055638846 -0.19017616 0.010000886 0
0.058546234 -0.19053932 -0.0099670338 0
0.060000025 -0.19032967 -0.0072983988 0
0.060000014 -0.19036579 -0.0044076177 0
0.060000002 -0.19097431 -0.0014366633 0
0.059999984 -0.19035381 0.0013424199 0
0.059999984 -0.19070131 0.0042551178 0
0.059999969 -0.19057365 0.0080290316 0
0.058634177 -0.19048549 0.0099591902 0
0.060000036 -0.19063614 -0.009474122 0
0.059999999 -0.19056639 -0.0076125343 0
0.059999984 -0.19031703 -0.0045545623 0
0.059999984 -0.1904705 -0.0013769693 0
0.059999965 -0.19035499 0.0017119471 0
0.059999958 -0.19050612 0.0046263309 0
0.059999943 -0.19043581 0.0076194452 0
0.059999969 -0.19023781 0.0094771944 0
-0.0059999875 -0.18752013 -0.0036031129 0
-0.0059999959 -0.18734363 -0.0013237107 0
-0.0053107841 -0.18747963 -0.0053107934 0
-0.0059999959 -0.18746786 -0.0012941542 0
-0.0060000052 -0.18719512 0.0017508712 0
-0.0060000164 -0.18730722 0.0046054372 0
-0.0044574654 -0.18737437 0.0060006608 0
-1.1090706e-05 -0.18841791 -0.0059993183 0
-0.0016081956 -0.18768337 -0.0059993248 0
-0.0016556499 -0.18772551 0.006000672 0
0.0010960746 -0.18763919 -0.0059993151 0
0.0024988686 -0.18780558 0.0060006883 0
0.0015277506 -0.18754561 0.0060006869 0
0.0045718802 -0.18812197 -0.005999303 0
0.0047363997 -0.18750405 -0.0059228335 0
0.006000008 -0.18734579 -0.002255199 0
0.0050445739 -0.18701933 0.0060006953 0
0.004404441 -0.18762438 0.0060006953 0
0.0060000145 -0.18750794 -0.0043657925 0
0.0060000038 -0.18765052 -0.0013668276 0
0.0059999945 -0.18750934 0.0013479705 0
0.0059999828 -0.18751171 0.0046408088 0
0.040687013 -0.18756296 -0.0098759802 0
0.040000014 -0.18722531 -0.0074308901 0
0.040000003 -0.18763414 -0.0043608947 0
0.039999992 -0.18752258 -0.0015552083 0
0.03999998 -0.18743946 0.0016284557 0
0.039999966 -0.18737416 0.0047313739 0
0.039999962 -0.18740228 0.0074457014 0
0.040666018 -0.18743922 0.009843396 0
0.04337899 -0.18755938 -0.0099991607 0
0.043495551 -0.18743411 0.010000833 0
0.046577081 -0.18751137 -0.0099991495 0
0.046477742 -0.18737251 0.010000844 0
0.049614489 -0.18753578 -0.0099991392 0
0.049348194 -0.18739165 0.010000854 0
0.052447319 -0.18751012 -0.0099991271 0
0.052648108 -0.18742068 0.010000865 0
0.055596083 -0.18733488 -0.0099991178 0
0.055709906 -0.18751934 0.010000877 0
0.058622696 -0.18751416 -0.0099838832 0
0.060000025 -0.18725348 -0.0071180584 0
0.060000017 -0.18744257 -0.0043711411 0
0.060000002 -0.18742768 -0.0013918721 0
0.059999999 -0.1879573 0.0013949295 0
0.059999984 -0.18768871 0.0051732436 0
0.059999973 -0.18705052 0.0070953625 0
0.058360163 -0.18743463 0.0099831922 0
0.060000032 -0.18802764 -0.0093074879 0
0.059999999 -0.18766651 -0.007582509 0
0.059999984 -0.18734041 -0.0042361347 0
0.059999973 -0.18737862 -0.0012471642 0
0.059999965 -0.18742216 0.0015506215 0
0.059999954 -0.18739587 0.0047743223 0
0.059999943 -0.18750395 0.0074998499 0
0.059999969 -0.18721281 0.0093902135 0
-0.0059999838 -0.18394808 -0.0045793266 0
-0.0051356875 -0.1844933 -0.005249694 0
-0.005999994 -0.18442857 -0.0017098612 0
-0.006000007 -0.18439992 0.0015117628 0
-0.006000015 -0.18444671 0.0045315223 0
-0.0044178655 -0.18434814 0.0060006501 0
-0.001691848 -0.1846738 -0.0059993379 0
-0.0014023536 -0.18467724 0.0060006659 0
0.0014920661 -0.18500727 -0.0059993253 0
0.0016318565 -0.18442175 -0.0059993262 0
0.0023006455 -0.18506604 0.0060006781 0
0.0014059189 -0.18446748 0.0060006715 0
0.0033082103 -0.1842951 -0.0059993211 0
0.0048129242 -0.18463977 -0.0058651869 0
0.006000008 -0.18365359 -0.0023052325 0
0.0033697854 -0.1846641 0.0060006808 0
0.0043787751 -0.18453774 0.0060006827 0
0.006000015 -0.18437414 -0.0044381847 0
0.006000007 -0.18456486 -0.0014949522 0
0.0059999949 -0.18430755 0.0013841545 0
0.0059999838 -0.18461655 0.0043857181 0
0.040632226 -0.18478215 -0.0098135164 0
0.04000001 -0.18461162 -0.0073101586 0
0.04000001 -0.18456864 -0.0043744617 0
0.039999999 -0.18444538 -0.0017443844 0
0.039999984 -0.18449607 0.0012277503 0
0.039999966 -0.1844212 0.0046422263 0
0.039999962 -0.18463559 0.0073886737 0
0.040637799 -0.18461333 0.009854666 0
0.043346483 -0.18450889 -0.0099991718 0
0.043545712 -0.18447562 0.010000821 0
0.046363901 -0.184513 -0.0099991616 0
0.046246123 -0.18443972 0.010000832 0
0.049593702 -0.18449602 -0.0099991485 0
0.049515765 -0.18470868 0.010000844 0
0.052468751 -0.18486735 -0.0099991364 0
0.052470628 -0.1845284 0.010000855 0
0.055613685 -0.18443193 -0.0099991271 0
0.055381957 -0.18457979 0.010000864 0
0.058372866 -0.18445437 -0.0099855764 0
0.060000028 -0.18428381 -0.0068170698 0
0.060000014 -0.18478236 -0.0042042881 0
0.06000001 -0.18428758 -0.0020851449 0
0.059999995 -0.1846247 0.0014208717 0
0.059999984 -0.18485908 0.0039526396 0
0.059999969 -0.18470642 0.0074314997 0
0.058534924 -0.18455906 0.0099737197 0
0.060000032 -0.18476468 -0.0094481502 0
0.059999995 -0.18454324 -0.007417941 0
0.059999987 -0.18441512 -0.0046899994 0
0.05999998 -0.1846312 -0.0012856523 0
0.059999969 -0.18427162 0.0013188261 0
0.059999965 -0.1848228 0.0044834553 0
0.059999958 -0.18464687 0.0077474192 0
0.059999958 -0.18442522 0.0093914727 0
-0.0059999903 -0.18215337 -0.0027724633 0
-0.0051632659 -0.18135557 -0.0053047747 0
-0.005999994 -0.18130785 -0.0012898351 0
-0.0060000089 -0.18145311 0.0017425688 0
-0.006000015 -0.18172903 0.0045582806 0
-0.0044907234 -0.18156204 0.0060006394 0
-0.0015764276 -0.18150711 -0.0059993467 0
-0.0016024695 -0.18117324 0.0060006506 0
0.0026764043 -0.1812375 -0.0059993346 0
0.0013415175 -0.18143046 -0.0059993374 0
0.0027510396 -0.18034925 0.0060006622 0
0.0013917048 -0.18149702 0.0060006622 0
0.0041986187 -0.18056601 -0.0059993314 0
0.004331083 -0.18154532 -0.0059993258 0
0.0060000066 -0.18006897 -0.0019378227 0
0.0054562669 -0.18082608 0.0060006739 0
0.004452968 -0.18140733 0.0060006715 0
0.0060000145 -0.18129762 -0.0043223635 0
0.0060000042 -0.18176347 -0.0015407505 0
