# .PCD v0.7 - Point Cloud Data file format
VERSION 0.7
FIELDS x y z rgb
SIZE 4 4 4 4
TYPE F F F F
COUNT 1 1 1 1
WIDTH 1186
HEIGHT 1
VIEWPOINT 0 0 0 1 0 0 0
POINTS 1186
DATA ascii
0.034349438 -0.25895983 -0.0015198387 0
0.034587923 -0.25895557 0.0016087057 0
0.034425471 -0.2587963 0.0048073069 0
0.037481964 -0.25874865 -0.0047075986 0
0.037582707 -0.25886416 -0.0015559493 0
0.037465051 -0.25887579 0.0016067685 0
0.037528977 -0.25873557 0.0048380545 0
0.040534645 -0.258463 -0.0046376763 0
0.040594239 -0.25851411 -0.0014830515 0
0.040577583 -0.25851628 0.0015363875 0
0.040451728 -0.25848684 0.0048938864 0
0.0428533 -0.25815448 -0.0044192336 0
0.042843141 -0.25816754 -0.0014154636 0
0.042962685 -0.25814319 0.0013130024 0
0.042869449 -0.25815335 0.0046685669 0
0.014679107 -0.25517401 -0.0044086119 0
0.014636666 -0.25515538 -0.0014418967 0
0.014619222 -0.25514737 0.0019974103 0
0.014697543 -0.25518209 0.0046729399 0
0.016619952 -0.2557539 -0.0048248852 0
0.016490903 -0.2558783 -0.0014516577 0
0.016431348 -0.25585675 0.0013988195 0
0.016475961 -0.25575554 0.0047127772 0
0.019547973 -0.25641456 -0.0047820271 0
0.01951422 -0.25685552 -0.0015488716 0
0.019545557 -0.25686538 0.0013558528 0
0.019527899 -0.25642088 0.0048266239 0
0.022594739 -0.25704306 -0.004612742 0
0.022498144 -0.25764859 -0.0015526123 0
0.022516239 -0.25765258 0.0014999867 0
0.022437254 -0.25683948 0.0044865641 0
0.025405305 -0.2566826 -0.0042929733 0
0.025711536 -0.2555975 -0.0025692536 0
0.025414098 -0.25599924 0.0024092358 0
0.025323207 -0.25672105 0.0043392582 0
0.028530467 -0.25701603 -0.004147456 0
0.028489059 -0.25546291 -0.002470494 0
0.028823139 -0.25548989 0.0024471027 0
0.028386272 -0.25696135 0.0041076555 0
0.031427857 -0.25706631 -0.0039043147 0
0.031454783 -0.25553566 -0.0021900192 0
0.031522345 -0.25565174 0.0023133459 0
0.031488117 -0.2571913 0.0040413975 0
0.034302119 -0.25721928 -0.0039342986 0
0.03426788 -0.2557013 -0.0021465563 0
0.03449893 -0.25578028 0.0022395768 0
0.034526143 -0.25726154 0.0039911503 0
0.037596494 -0.25727999 -0.0040596826 0
0.037596565 -0.25581005 -0.0022431756 0
0.037362937 -0.25574145 0.0021687394 0
0.037555214 -0.2571654 0.0039153895 0
0.040428348 -0.25709611 -0.0041677589 0
0.040672217 -0.25561473 -0.0023128316 0
0.040383406 -0.25550723 0.002132494 0
0.040618382 -0.25708786 0.0041912035 0
0.043825563 -0.25713041 -0.0045488379 0
0.043907665 -0.2567257 -0.0020217772 0
0.043903142 -0.25654459 0.0019536193 0
0.043848302 -0.25712088 0.0044580884 0
0.046592072 -0.25681931 -0.0045349263 0
0.046407297 -0.25721502 -0.0016236712 0
0.046403054 -0.25720072 0.0015980279 0
0.046433069 -0.25683212 0.0045665852 0
0.049432859 -0.25616395 -0.0046539279 0
0.049581006 -0.25649861 -0.0014488858 0
0.049482204 -0.25652838 0.001582233 0
0.049456879 -0.25621662 0.004752886 0
0.052246023 -0.25546253 -0.0047564427 0
0.052262325 -0.25553724 -0.001531928 0
0.052256744 -0.25553966 0.0017843593 0
0.052119497 -0.25552493 0.0047040745 0
0.0087093441 -0.2521688 -0.0046534962 0
0.0086978795 -0.25217161 -0.0013656605 0
0.0086902948 -0.25216708 0.0014656248 0
0.0087548196 -0.25216883 0.0045059458 0
0.010568182 -0.25301218 -0.0046020676 0
0.010554391 -0.25322488 -0.0015194939 0
0.010360859 -0.2531243 0.0015966506 0
0.010510122 -0.25295258 0.0048307972 0
0.01349115 -0.2538259 -0.004743265 0
0.013145464 -0.25446716 -0.0015093242 0
0.013073614 -0.25443399 0.0015147353 0
0.013391277 -0.25372118 0.0046732705 0
0.016470501 -0.25362864 -0.0040640454 0
0.017183894 -0.25234652 -0.0027368509 0
0.017201785 -0.25236073 0.0027434835 0
0.016406605 -0.25366256 0.0041179517 0
0.019368593 -0.25428417 -0.0036800143 0
0.019727562 -0.25285062 -0.0022661448 0
0.019630035 -0.25272542 0.0021908379 0
0.019220136 -0.25433004 0.003768041 0
0.021833144 -0.25471437 -0.0033071733 0
0.022604188 -0.25331852 -0.0017653937 0
0.022633471 -0.25334784 0.0017852016 0
0.021983111 -0.25478455 0.0033223315 0
0.02542026 -0.25371292 -0.0013235152 0
0.025242809 -0.25367105 0.0013319065 0
0.028503865 -0.25408942 -0.0010170293 0
0.028337158 -0.2540462 0.0010049206 0
0.031617515 -0.25433674 -0.00082797359 0
0.031466201 -0.25427133 0.00077475735 0
0.034570578 -0.25443923 -0.0006583574 0
0.034372207 -0.25434271 0.00056172058 0
0.037531618 -0.25447947 -0.00062199362 0
0.037683811 -0.25444639 0.00058146793 0
0.040564619 -0.25435606 -0.00067634485 0
0.040455658 -0.25441021 0.00073352025 0
0.043484487 -0.25421363 -0.0010129249 0
0.043598019 -0.25419086 0.0010095102 0
0.04777192 -0.25489432 -0.003187042 0
0.046624932 -0.25376284 -0.001276513 0
0.046607517 -0.25384223 0.0013805886 0
0.04765993 -0.25494859 0.0032159293 0
0.050042391 -0.25447202 -0.0034818086 0
0.049494296 -0.2532208 -0.0015668839 0
0.049466234 -0.25321853 0.0015537387 0
0.049681552 -0.25458273 0.0034922645 0
0.052709244 -0.25419313 -0.004307983 0
0.052648991 -0.2530086 -0.0019523514 0
0.052511688 -0.25299373 0.0021120992 0
0.052758243 -0.25424656 0.0043517528 0
0.055482838 -0.2535089 -0.0047170138 0
0.055439755 -0.25394642 -0.0016519411 0
0.055570252 -0.25382084 0.0016052346 0
0.055512153 -0.25355896 0.0046121539 0
0.057484306 -0.25238195 -0.0047606663 0
0.057520576 -0.25241518 -0.00115592 0
0.057479195 -0.25245169 0.0014332058 0
0.057442665 -0.25241515 0.0049560559 0
0.0050128079 -0.24970125 -0.0048075109 0
0.0049605635 -0.24981251 -0.0014436566 0
0.0049245763 -0.24978507 0.0016843413 0
0.0049766051 -0.24971975 0.0046459883 0
0.0074281907 -0.25064915 -0.0048313621 0
0.0072348025 -0.25128764 -0.0014613305 0
0.0072106337 -0.25127307 0.0014407404 0
0.0073631983 -0.25064614 0.0048915227 0
0.010444215 -0.25058728 -0.0041133184 0
0.011462789 -0.24931513 -0.0027689652 0
0.011192957 -0.24923526 0.0028306548 0
0.010342826 -0.25061259 0.0041783489 0
0.013072978 -0.25126958 -0.0034634327 0
0.013753561 -0.25010791 -0.0023139191 0
0.013770261 -0.25006056 0.0022762953 0
0.013171042 -0.25139478 0.0035120819 0
0.01638782 -0.25052834 -0.0015653924 0
0.016481262 -0.25044629 0.0014640354 0
0.015182479 -0.25185859 0.0031055629 0
0.019222436 -0.25100219 -0.00085650932 0
0.019374736 -0.25095326 0.00076269044 0
0.02201538 -0.25157034 -0.00035923583 0
0.022144882 -0.25159362 0.00033835828 0
0.050555207 -0.25187498 -0.00017233923 0
0.05038932 -0.25188139 9.5724237e-05 0
0.052578472 -0.2514869 -0.00071468315 0
0.05278907 -0.25138891 0.00072182174 0
0.056230325 -0.25140139 -0.0036591559 0
0.05537311 -0.25034925 -0.001663859 0
0.055412989 -0.25023997 0.0015860311 0
0.056439385 -0.2513659 0.0038277225 0
0.058635183 -0.25060803 -0.004656177 0
0.058814041 -0.25087538 -0.0015733136 0
0.058749743 -0.25092322 0.0017974237 0
0.058610257 -0.25073797 0.0045749312 0
0.060591098 -0.24960212 -0.0048199622 0
0.060684383 -0.2496205 -0.0016471407 0
0.060641427 -0.24965838 0.0015782383 0
0.060682952 -0.24952242 0.0047227358 0
0.00167385 -0.24709386 -0.0048553022 0
0.0014491022 -0.24712521 -0.0015216575 0
0.0015654919 -0.24721521 0.0014973043 0
0.001639533 -0.24700193 0.0047485786 0
0.0043707504 -0.24774797 -0.0047124294 0
0.0034530999 -0.24867788 -0.0015464943 0
0.0034444106 -0.24867134 0.0014763651 0
0.0043748529 -0.2475868 0.0045991428 0
0.0072751488 -0.24800873 -0.0037683295 0
0.0081465794 -0.24667645 -0.0025231536 0
0.0083213737 -0.24675389 0.0024895417 0
0.0072619081 -0.24785441 0.0036808366 0
0.0099354601 -0.24879588 -0.0030573846 0
0.010606606 -0.24749766 -0.001886875 0
0.010629689 -0.24753362 0.0018979778 0
0.0095288362 -0.24869779 0.0031645384 0
0.013435447 -0.24785742 -0.00085592386 0
0.013169394 -0.24761097 0.00080422586 0
0.015719473 -0.24855155 -0.00031247712 0
0.015817005 -0.24862315 0.00032081897 0
0.056472156 -0.24860354 -0.00084138912 0
0.056387115 -0.24858451 0.00073877518 0
0.059433538 -0.24862973 -0.0037332969 0
0.058522865 -0.2474587 -0.0016028719 0
0.058609113 -0.24733813 0.00156827 0
0.059461858 -0.24837045 0.0034823003 0
0.061731853 -0.24767232 -0.0045239972 0
0.061982628 -0.24777304 -0.0017762898 0
0.061807964 -0.24783018 0.0018104502 0
0.061613038 -0.24771658 0.0045533977 0
0.063534029 -0.24650338 -0.0046417471 0
0.063527584 -0.24658273 -0.0014832841 0
0.06356106 -0.24654453 0.0014769286 0
0.06346862 -0.24656326 0.0047931042 0
-0.0030189722 -0.2430131 -0.0039433278 0
-0.0030283735 -0.24300422 -0.0021897214 0
-0.0030059852 -0.24302535 0.0023025514 0
-0.0030137692 -0.24301799 0.0051341639 0
-0.0013492415 -0.24435994 -0.0047944174 0
-0.0014806173 -0.24446477 -0.0014029318 0
-0.0016363792 -0.24431778 0.0014355932 0
-0.0012931818 -0.24432795 0.0048045535 0
0.0013733682 -0.24460243 -0.0045225741 0
3.9875315e-05 -0.2458996 -0.0004530662 0
9.4123301e-05 -0.2459508 0.0017793959 0
0.0014462853 -0.24464598 0.0045733759 0
0.0040446343 -0.24502113 -0.0035148235 0
0.0051202555 -0.2441317 -0.0024945613 0
0.0049487818 -0.2440138 0.0025193919 0
0.0039923978 -0.24522291 0.0036471931 0
0.0060286177 -0.24587257 -0.0030281667 0
0.0075379829 -0.24459462 -0.0015411443 0
0.00752379 -0.24450822 0.0014956853 0
0.010020136 -0.24501735 -0.00059253664 0
0.0098280702 -0.24490392 0.00061666273 0
0.012215744 -0.2459098 -8.7098e-05 0
0.059479062 -0.24544059 -0.00053225295 0
0.059557114 -0.24539113 0.00057603157 0
0.062503107 -0.24523835 -0.0036143968 0
0.061333187 -0.24447304 -0.0016282718 0
0.061314724 -0.24436675 0.0015204703 0
0.062446188 -0.24529985 0.0036286663 0
0.064604521 -0.2446385 -0.0045790169 0
0.064841621 -0.24474873 -0.0017343697 0
0.06500455 -0.2447564 0.0015622895 0
0.064686105 -0.24460015 0.0046452093 0
0.066287041 -0.24340603 -0.00457425 0
0.066315971 -0.24338298 -0.0014749095 0
0.066302054 -0.24339885 0.0018047139 0
0.066368379 -0.24327555 0.0047996421 0
-0.0044290842 -0.24113174 -0.0046467134 0
-0.0046274476 -0.24092901 -0.0016280523 0
-0.0044738026 -0.24112007 0.0016144438 0
-0.0044510509 -0.2411212 0.0046004201 0
-0.001548049 -0.24133694 -0.0042709289 0
-0.0015610271 -0.24020001 -0.0014849247 0
-0.0013996143 -0.24020003 0.0013409313 0
-0.001411986 -0.24132872 0.0042557549 0
0.0011303943 -0.24189803 -0.00333362 0
0.0015057254 -0.24052677 -0.0017904 0
0.0017908431 -0.24068406 0.0016896251 0
0.00095056061 -0.24203306 0.0034968471 0
0.0044221887 -0.24120021 -0.0012284254 0
0.0043015261 -0.24147253 0.0014437237 0
0.0069767213 -0.24211653 -0.0004852057 0
0.006792658 -0.24198201 0.00051261263 0
0.062329091 -0.24220815 -0.00057987322 0
0.062287483 -0.24233906 0.00066451664 0
0.06539169 -0.2419264 -0.0037252051 0
0.064118773 -0.24133126 -0.0017727782 0
0.064210638 -0.2412134 0.0017770423 0
0.065366 -0.24207437 0.0038171033 0
0.06718047 -0.24143302 -0.00466771 0
0.067674413 -0.24138837 -0.0015523746 0
0.067705922 -0.24134111 0.0016665049 0
0.067266203 -0.24139519 0.0047121635 0
-0.0060000168 -0.23892479 0.0045562391 0
-0.0051931362 -0.23844141 -0.0048124851 0
-0.0059999931 -0.23837517 -0.0015751421 0
-0.0060000052 -0.23813684 0.0017795772 0
-0.005106092 -0.23854512 0.0049693235 0
-0.0015062172 -0.23842913 -0.0037522574 0
-0.0016343597 -0.23862469 0.0038180307 0
0.0015978492 -0.23841363 -0.0022002107 0
0.0015634559 -0.23843914 0.0022191368 0
0.004449782 -0.23866166 -0.00077609852 0
0.0046521286 -0.23853615 0.00067554961 0
0.0060000001 -0.23903371 -1.598147e-05 0
0.065175161 -0.23870307 -0.00087546109 0
0.065260492 -0.23888992 0.0011223278 0
0.068177082 -0.23881234 -0.0042985361 0
0.067087963 -0.23831253 -0.0019330365 0
0.067254081 -0.23837626 0.0019927963 0
0.068154417 -0.23887333 0.0042058453 0
0.069689326 -0.2380176 -0.0047610542 0
0.069713853 -0.23832925 -0.0016903953 0
0.069706932 -0.23833965 0.0013997911 0
0.069677964 -0.23819651 0.0046485867 0
-0.0060000154 -0.23534299 0.0041367165 0
-0.0051718839 -0.23557088 -0.0047240057 0
-0.0059999977 -0.23542558 -0.0012581111 0
-0.0060000061 -0.23560011 0.0015715176 0
-0.0052102627 -0.23546804 0.0049267802 0
-0.0016183349 -0.2353268 -0.0038083293 0
-0.0015934029 -0.23543215 0.0037975411 0
0.0016498254 -0.23567483 -0.0021742324 0
0.0016012165 -0.23536292 0.0022002459 0
0.0044615204 -0.2355586 -0.00077344762 0
0.0043857377 -0.23560826 0.00081150793 0
0.0060000005 -0.23540825 -6.5425273e-05 0
0.0060000001 -0.23462939 3.0350928e-05 0
0.065921128 -0.23688096 -0.00030195151 0
0.068671197 -0.23650758 -0.0032955254 0
0.067665644 -0.23569241 -0.0014842357 0
0.067668207 -0.23564164 0.0014434431 0
0.068811879 -0.23621796 0.0032297601 0
0.070679754 -0.23555322 -0.004513877 0
0.071082979 -0.23552847 -0.001442339 0
0.071129508 -0.23561683 0.0014568774 0
0.070763774 -0.23549832 0.0044651092 0
0.072048932 -0.23405831 -0.004431637 0
0.072029464 -0.23409778 -0.00079834583 0
0.072044991 -0.2340662 0.002377758 0
0.072034158 -0.2340882 0.0044699516 0
-0.0060000075 -0.23245786 0.0019400768 0
-0.0060000173 -0.233108 0.0046243439 0
-0.0052249557 -0.23252417 -0.004926723 0
-0.0059999945 -0.23265831 -0.0012763563 0
-0.0060000066 -0.23245102 0.0013527652 0
-0.005208964 -0.2326884 0.0049645072 0
-0.0017655264 -0.23262262 -0.0038819343 0
-0.0012646023 -0.2325877 0.003633132 0
0.001447003 -0.23279847 -0.0022756548 0
0.001543793 -0.23241082 0.0022289464 0
0.0043827896 -0.23243776 -0.00083326839 0
0.004514575 -0.23254924 0.0007694597 0
0.0060000005 -0.23160785 -0.00016356831 0
0.0060000001 -0.23197904 0.00017894272 0
0.068448596 -0.2330299 -0.0006683825 0
0.068642415 -0.23286101 0.0008048478 0
0.071161978 -0.23276679 -0.0040260628 0
0.069781028 -0.23241644 -0.002005467 0
0.069773883 -0.23238383 0.001957491 0
0.071237773 -0.2327183 0.0040775826 0
0.072748274 -0.23232628 -0.0047402526 0
0.072808541 -0.23251598 -0.0013722937 0
0.072823882 -0.23248474 0.0015780507 0
0.072754502 -0.23232064 0.0047838707 0
-0.0060000094 -0.22933295 0.002408393 0
-0.0060000154 -0.23049729 0.0040531568 0
-0.0049450984 -0.22954321 -0.0048877639 0
-0.0059999963 -0.22962804 -0.0013761451 0
-0.0060000047 -0.2294949 0.0014093874 0
-0.0051639695 -0.22932076 0.0049207653 0
-0.0014820286 -0.22949812 -0.0037401957 0
-0.0015453348 -0.22944257 0.0037734853 0
0.0014393154 -0.22961859 -0.00227951 0
0.0014015507 -0.22965233 0.0023000573 0
0.0046127136 -0.22934398 -0.00075334398 0
0.0044557895 -0.22959279 0.00079182792 0
0.006000001 -0.22937059 -0.00018673875 0
0.0060000001 -0.22966674 0.00016012401 0
0.068994105 -0.23095196 2.7009553e-05 0
0.071672775 -0.2304042 -0.0031617654 0
0.070681423 -0.22948557 -0.0013040033 0
0.070664287 -0.22945891 0.0012608939 0
0.071667232 -0.23060659 0.003278699 0
0.073685952 -0.22946781 -0.0045975377 0
0.074026547 -0.22956528 -0.0015720972 0
0.07399822 -0.22943477 0.0017414953 0
0.073656172 -0.22947158 0.0046253605 0
-0.0060000098 -0.22718719 0.0025458822 0
-0.0060000177 -0.22724438 0.0047526462 0
-0.0052875397 -0.22651613 -0.0049137729 0
-0.0059999945 -0.22655678 -0.0011442067 0
-0.0060000056 -0.22640038 0.0012731629 0
-0.0051962645 -0.22662513 0.0048675146 0
-0.0015617149 -0.22664766 -0.0037800493 0
-0.001660019 -0.22643077 0.0038308157 0
0.0016925914 -0.22656441 -0.0021528821 0
0.0014475702 -0.22643407 0.0022770353 0
0.0044548032 -0.22639799 -0.00083994219 0
0.0045958762 -0.22667633 0.00079799187 0
0.0060000014 -0.22653413 -0.00026607915 0
0.0059999996 -0.22665566 0.00011131428 0
0.071460024 -0.2266832 -0.00089903863 0
0.071366042 -0.22676161 0.00081422314 0
0.07418438 -0.22680165 -0.004411764 0
0.073294662 -0.22671379 -0.0019019155 0
0.073178135 -0.22671562 0.0020696837 0
0.074130952 -0.22677335 0.0043155174 0
0.075381495 -0.22593826 -0.0046555852 0
0.075352423 -0.2261752 -0.0015320778 0
0.075439043 -0.22592898 0.0016465695 0
0.075385436 -0.2259834 0.0047358363 0
-0.0060000098 -0.2240552 0.0025305974 0
-0.0060000187 -0.22280352 0.0050179888 0
-0.0053330469 -0.2235872 -0.0049483343 0
-0.0059999949 -0.22337064 -0.0012332666 0
-0.0060000061 -0.22361681 0.0016651988 0
-0.005206516 -0.22354521 0.0050176787 0
-0.0013035042 -0.22369429 -0.003650954 0
-0.0014762793 -0.22338448 0.003738936 0
0.0014726234 -0.22353542 -0.0022628782 0
0.0014606182 -0.22346605 0.0022705011 0
0.0043585324 -0.22364427 -0.0009412028 0
0.0046909684 -0.22360484 0.00079379819 0
0.0060000014 -0.22329476 -0.00031963584 0
0.0059999996 -0.22356336 0.0002775951 0
0.071866997 -0.22413121 -0.00023824807 0
0.071801513 -0.22443202 0.00029596844 0
0.074475795 -0.22388804 -0.0036986703 0
0.073198304 -0.22328913 -0.001666109 0
0.073119298 -0.22332615 0.0015807805 0
0.074498214 -0.22373818 0.0036693914 0
0.075976856 -0.22341384 -0.0047478965 0
0.076255001 -0.22352262 -0.0016982269 0
0.076270103 -0.22347787 0.0015232412 0
0.07601738 -0.22339548 0.0048242575 0
-0.0060000103 -0.22057514 0.002738893 0
-0.0052067731 -0.22039115 -0.0049615051 0
-0.0059999954 -0.22058493 -0.0016628316 0
-0.0060000033 -0.22044009 0.0014771685 0
-0.0052069756 -0.2205357 0.0049001463 0
-0.0015280986 -0.22055449 -0.003763264 0
-0.0015243839 -0.22055835 0.0037629786 0
0.0016007473 -0.22041479 -0.0021988268 0
0.0016543401 -0.22063078 0.0021736308 0
0.0045546442 -0.22042474 -0.00086530205 0
0.0046094372 -0.22041897 0.00086992787 0
0.0060000019 -0.22025958 -0.00035975495 0
0.0059999987 -0.21987781 0.00047183028 0
0.074913561 -0.22128025 -0.0032978756 0
0.073763058 -0.22037983 -0.0013899591 0
0.073850363 -0.22047509 0.0015480492 0
0.074862428 -0.22118016 0.0031995282 0
0.076468214 -0.22057919 -0.0045260829 0
0.076960422 -0.22044712 -0.0015558574 0
0.076975629 -0.22048347 0.0015677972 0
0.076507866 -0.22042605 0.0046177697 0
-0.0060000098 -0.21718898 0.0025343448 0
-0.0060000164 -0.21698235 0.0043926323 0
-0.0052374061 -0.2173669 -0.0047725788 0
-0.0059999949 -0.21746469 -0.0014269906 0
-0.0060000056 -0.21764562 0.0017336643 0
-0.0051095285 -0.2174737 0.0048982836 0
-0.001350919 -0.2174881 -0.0036746834 0
-0.0015658801 -0.21743362 0.003783714 0
0.0015768199 -0.217397 -0.002210801 0
0.0012935416 -0.2174076 0.0023540163 0
0.0043708766 -0.21741976 -0.0010136514 0
0.0045007886 -0.21749255 0.00096979516 0
0.0060000024 -0.21810611 -0.00044907629 0
0.0059999991 -0.21749847 0.00037510452 0
0.074225776 -0.2175713 -0.0011685297 0
0.074160323 -0.21757886 0.001082764 0
0.077030115 -0.21747652 -0.0044401097 0
0.076956443 -0.21750337 -0.0017120256 0
0.077058323 -0.21738543 0.001791361 0
0.077033944 -0.2174966 0.0044046054 0
-0.0060000108 -0.2142428 0.002817594 0
-0.0060000168 -0.21334793 0.0044487203 0
-0.0052140239 -0.21428363 -0.0049534757 0
-0.0059999959 -0.21435161 -0.0015571772 0
-0.0060000056 -0.21470104 0.0014933301 0
-0.0052589299 -0.21443363 0.0049763671 0
-0.0015485557 -0.21446723 -0.0037735137 0
-0.001754066 -0.21453218 0.003877796 0
0.0016522557 -0.21459654 -0.0021730931 0
0.0013866698 -0.2145303 0.0023074422 0
0.0046477583 -0.21455294 -0.0010317856 0
0.004357107 -0.21436548 0.0010509297 0
0.006000001 -0.21450928 -0.00038379064 0
0.0059999982 -0.21467829 0.00052580651 0
0.074508853 -0.21443832 -0.00075618213 0
0.074461065 -0.21449018 0.00070253992 0
0.077040829 -0.21469964 -0.0043511549 0
0.07555718 -0.21437767 -0.0021405041 0
0.075700723 -0.21453662 0.0021659248 0
0.076986715 -0.21465759 0.0043468694 0
0.078141481 -0.21444729 -0.0045790519 0
0.078142457 -0.21447556 -0.0015726789 0
0.078141063 -0.21448939 0.0015076293 0
0.078143895 -0.21440978 0.0044528088 0
-0.0060000094 -0.21010144 0.0024862597 0
-0.0052183014 -0.21151945 -0.0049011367 0
-0.0059999921 -0.2113266 -0.0017608849 0
-0.0060000056 -0.21175508 0.0014004929 0
-0.0050841584 -0.21147242 0.0050177677 0
-0.0015911587 -0.21159467 -0.0037948259 0
-0.0015584024 -0.2112565 0.003779954 0
0.0014288892 -0.21158402 -0.0022847888 0
0.0012462512 -0.21144108 0.00237764 0
0.0044597648 -0.21167822 -0.0010365434 0
0.004441706 -0.21150763 0.0011080899 0
0.0060000024 -0.21117821 -0.00046296432 0
0.0059999987 -0.21143532 0.00057598238 0
0.074619941 -0.21165793 -0.00047406109 0
0.074633732 -0.21149851 0.00047624155 0
0.077155076 -0.21152702 -0.0041315942 0
0.075659052 -0.21149492 -0.0019511846 0
0.075709552 -0.21140014 0.002027089 0
0.07718721 -0.21149336 0.0041886461 0
0.078370623 -0.21148422 -0.0047740983 0
0.078454696 -0.21135314 -0.0014192035 0
0.078444861 -0.21145117 0.0014861994 0
0.078400359 -0.21134476 0.0049150405 0
-0.0060000089 -0.20736291 0.0023028983 0
-0.006000015 -0.20922068 0.0039900732 0
-0.0052940859 -0.20852374 -0.0048705731 0
-0.0059999963 -0.20861864 -0.001524212 0
-0.0060000047 -0.20829973 0.001297024 0
-0.0052405293 -0.20843445 0.0049281176 0
-0.0015466213 -0.20839666 -0.0037725684 0
-0.0013401065 -0.20852639 0.0036707965 0
0.0015530713 -0.20869599 -0.0022227073 0
0.0014639548 -0.20840824 0.0022687784 0
0.0045161261 -0.20841078 -0.0011261484 0
0.0045425617 -0.20842782 0.0011505939 0
0.0060000024 -0.20838889 -0.00048812485 0
0.0059999987 -0.20848267 0.00060921744 0
0.074784756 -0.20828809 -0.00041569784 0
0.07477849 -0.20863813 0.00040869956 0
0.077241994 -0.20848398 -0.0040124808 0
0.075801887 -0.20842336 -0.0019056074 0
0.075820997 -0.2085982 0.0019371393 0
0.077294417 -0.20856537 0.0040918696 0
0.078532979 -0.20851684 -0.0047287089 0
0.07859987 -0.20862536 -0.0014005186 0
0.078599609 -0.20848784 0.0016702268 0
0.078514211 -0.20862822 0.0047350167 0
-0.0060000098 -0.20414872 0.002628667 0
-0.0060000168 -0.20601924 0.004535953 0
-0.0051748282 -0.20557187 -0.0048624161 0
-0.0059999963 -0.20533471 -0.0016279755 0
-0.0060000075 -0.20538379 0.0014026546 0
-0.0049024164 -0.20542111 0.0049530151 0
-0.0015927125 -0.20555612 -0.0037956247 0
-0.0014807981 -0.20543064 0.0037411305 0
0.0014801795 -0.20547432 -0.0022591655 0
0.0015430825 -0.20543459 0.0022292046 0
0.0044121896 -0.20561951 -0.0012533751 0
0.0046316767 -0.20551637 0.0012372183 0
0.0060000024 -0.20552298 -0.00055894762 0
0.0059999973 -0.20549703 0.00059825502 0
0.074705608 -0.20551087 -0.00029983616 0
0.074716896 -0.20547731 0.00031873447 0
0.077315435 -0.20555688 -0.0041190973 0
0.075822532 -0.20556882 -0.001934377 0
0.075685389 -0.20566027 0.0017358635 0
0.077285774 -0.20553881 0.0040777777 0
0.078526929 -0.2054145 -0.0048174001 0
0.078599967 -0.20546132 -0.0014340086 0
0.078599952 -0.20558973 0.0013368581 0
0.078516468 -0.20548058 0.004850951 0
-0.0060000131 -0.20241557 0.003432679 0
-0.0052068671 -0.2025906 -0.0048464355 0
-0.005999994 -0.20258324 -0.00158718 0
-0.0060000061 -0.20232973 0.0017000849 0
-0.0052186814 -0.20261602 0.0048427032 0
-0.0014611174 -0.20250735 -0.0037298379 0
-0.0017447961 -0.20257321 0.0038731177 0
0.0015084738 -0.20237833 -0.0022450294 0
0.0014951288 -0.20246682 0.0022531697 0
0.0043616286 -0.20236844 -0.0013482169 0
0.0045937467 -0.20246613 0.0013070427 0
0.0060000019 -0.20253295 -0.00062898616 0
0.0059999973 -0.20263189 0.00069252844 0
0.074668646 -0.2024091 -0.00051300245 0
0.074672088 -0.20229226 0.00053328229 0
0.077121191 -0.2023468 -0.0040890542 0
0.075678229 -0.2024036 -0.0019834621 0
0.075720452 -0.20266287 0.001992807 0
0.077184111 -0.20248456 0.0041488479 0
0.078408428 -0.2024539 -0.0047050351 0
0.078463003 -0.20255582 -0.0015139291 0
0.078466572 -0.20258889 0.0015919511 0
0.078417443 -0.20255513 0.0047034975 0
-0.0060000084 -0.19980077 0.0022109619 0
-0.0060000173 -0.19997881 0.0046531521 0
-0.0052396678 -0.19949885 -0.0048451666 0
-0.0059999931 -0.19962794 -0.0014775401 0
-0.0060000042 -0.19956167 0.0016032404 0
-0.0051755728 -0.19952479 0.0050721844 0
-0.0015605271 -0.1994337 -0.003779554 0
-0.0015073321 -0.19933367 0.0037543753 0
0.0013979587 -0.19942544 -0.0023002978 0
0.0014257068 -0.19952731 0.0022878698 0
0.0045509133 -0.19932412 -0.0014254824 0
0.0047755898 -0.19959468 0.0014294874 0
0.0060000042 -0.19899841 -0.00099173794 0
0.0059999963 -0.19961157 0.00086973648 0
0.074445672 -0.19945912 -0.00066232495 0
0.074546084 -0.19945458 0.00080445164 0
0.077174358 -0.1995194 -0.0045861141 0
0.075583518 -0.19943427 -0.002307754 0
0.075471431 -0.19970119 0.0020919605 0
0.077081919 -0.19931968 0.0044759121 0
0.078144319 -0.19948 -0.0046559516 0
0.078161418 -0.19958714 -0.001618757 0
0.078147054 -0.1994462 0.0014772803 0
0.078152515 -0.19960295 0.0046404246 0
-0.0052756355 -0.1967341 -0.0048027844 0
-0.0059999935 -0.19640173 -0.0013973441 0
-0.0060000042 -0.19642101 0.0013356017 0
-0.0052787922 -0.19649786 0.0047782287 0
-0.001385839 -0.19648543 -0.0036922204 0
-0.0015207098 -0.19650041 0.0037610545 0
0.0015800489 -0.19660604 -0.002209262 0
0.0013975204 -0.19677871 0.0023019533 0
0.0042489721 -0.19647385 -0.001520563 0
0.0044091651 -0.1965021 0.0015411942 0
0.0060000028 -0.19648182 -0.00098173763 0
0.0059999959 -0.1962986 0.00088028959 0
0.074212156 -0.19635816 -0.0011353397 0
0.074227735 -0.19628899 0.0011580121 0
0.077188976 -0.19654863 -0.0045498717 0
0.077054411 -0.19657873 -0.0018859238 0
0.077122748 -0.19654344 0.001834132 0
0.077081062 -0.19649681 0.0043797521 0
-0.0060000103 -0.19378844 0.0027076895 0
-0.005291258 -0.19341691 -0.0049706488 0
-0.0059999931 -0.19343127 -0.0014927405 0
-0.0060000075 -0.19340248 0.001550381 0
-0.0053126803 -0.19330703 0.0048074629 0
-0.001568684 -0.19351999 -0.003783654 0
-0.0014351584 -0.19350931 0.0037182674 0
0.00153881 -0.19334283 -0.0022354512 0
0.0015196177 -0.19362698 0.0022484562 0
0.0046125893 -0.19340049 -0.0016126176 0
0.0045674969 -0.19336875 0.0016287161 0
0.0060000019 -0.19343942 -0.00076968805 0
0.0059999959 -0.19322976 0.00090078451 0
0.074813515 -0.19253939 -0.0031319971 0
0.07379733 -0.19346161 -0.001436893 0
0.073907368 -0.19344532 0.0015878754 0
0.07483986 -0.19240287 0.0032172273 0
0.076574504 -0.19355488 -0.0047062705 0
0.077012673 -0.19351162 -0.001569273 0
0.076992929 -0.19359462 0.0015833469 0
0.07656204 -0.19347012 0.0045352043 0
-0.0060000173 -0.19113703 0.004674444 0
-0.0050100791 -0.19055051 -0.0048322114 0
-0.0059999926 -0.19040067 -0.0016187214 0
-0.0060000042 -0.19060199 0.0011654743 0
-0.0051380107 -0.19048758 0.0048692971 0
-0.0016177205 -0.19048601 -0.0038081829 0
-0.0014653238 -0.19064875 0.00373334 0
0.0015203313 -0.19046171 -0.002268001 0
0.0016882657 -0.19060414 0.0021777735 0
0.0044187335 -0.19037679 -0.0017512598 0
0.0046699606 -0.19038524 0.0017564757 0
0.0060000028 -0.19050823 -0.0010567063 0
0.0059999959 -0.19026875 0.00089503947 0
0.071838237 -0.18960138 -0.00026406362 0
0.071810126 -0.18951528 0.00026788548 0
0.074484728 -0.19018938 -0.0036398326 0
0.073124148 -0.19051929 -0.0016396627 0
0.073110156 -0.19063051 0.0015997774 0
0.074439965 -0.19031802 0.0035581365 0
0.075991318 -0.19070843 -0.0046942527 0
0.076267928 -0.19041508 -0.0015400209 0
0.07625562 -0.19037616 0.001433959 0
0.076075956 -0.19054635 0.0047066538 0
-0.0060000136 -0.18733661 0.0036461321 0
-0.0052047498 -0.18758461 -0.0048743398 0
-0.0059999935 -0.18725224 -0.0014408067 0
-0.0060000042 -0.18744564 0.0014887057 0
-0.0051925089 -0.1876279 0.0047350232 0
-0.0014628306 -0.18751946 -0.0037307478 0
-0.0015259894 -0.18758313 0.0037636613 0
0.0015542984 -0.18747897 -0.0022699188 0
0.0013767224 -0.18758208 0.0023419466 0
0.0045756008 -0.18768641 -0.0018505453 0
0.0044682138 -0.18758968 0.0018502832 0
0.0060000028 -0.18731166 -0.0010581962 0
0.0059999963 -0.18766819 0.00081146666 0
0.071600392 -0.18729237 -0.00099551736 0
0.071471706 -0.187107 0.00091600779 0
0.07406871 -0.18720733 -0.0042662709 0
0.072930351 -0.18755487 -0.0020439439 0
0.072945289 -0.1874591 0.0020824827 0
0.074125849 -0.18722361 0.00423851 0
0.075419404 -0.18785927 -0.0047510266 0
0.075442418 -0.18780093 -0.0015271779 0
0.075403944 -0.1876792 0.0016179965 0
0.07533928 -0.18767445 0.0047136764 0
-0.0060000177 -0.1857149 0.0047507025 0
-0.0050501376 -0.18453375 -0.0048078131 0
-0.0059999949 -0.18479335 -0.0015972289 0
-0.0060000038 -0.18446298 0.0014284292 0
-0.0051924395 -0.18458377 0.0048303064 0
-0.0015772125 -0.18435711 -0.0037879513 0
-0.0017184339 -0.18455374 0.0038598722 0
0.0015120339 -0.18462761 -0.0023101326 0
0.0012839644 -0.18456441 0.0024130167 0
0.0046112542 -0.18453868 -0.0019167677 0
0.0045063305 -0.18456112 0.0019420848 0
0.0060000019 -0.18436465 -0.00092918967 0
0.0059999959 -0.18445608 0.00095432531 0
0.070862249 -0.1844669 -0.0013920077 0
0.070789486 -0.18437089 0.0013237483 0
0.073825844 -0.18527181 -0.0040500243 0
0.073924735 -0.18454508 -0.0017154105 0
0.073926419 -0.18452223 0.0016088501 0
0.07360322 -0.18507965 0.0038309442 0
-0.0060000164 -0.1810049 0.0043767178 0
-0.0051640747 -0.18133102 -0.0048554358 0
-0.0059999926 -0.18157642 -0.0015457644 0
-0.0060000033 -0.18155426 0.0014430648 0
-0.0052799722 -0.18151987 0.0049947561 0
-0.0015227317 -0.18146396 -0.0037607225 0
-0.0012744946 -0.18143952 0.0036378927 0
0.0016609065 -0.18160363 -0.002306141 0
0.0013722843 -0.18147658 0.0024028285 0
0.0046863896 -0.18163109 -0.0020020481 0
0.0046619368 -0.18167919 0.0020407382 0
0.0060000033 -0.18163307 -0.0011328555 0
0.0059999954 -0.18149211 0.0010333172 0
0.070829965 -0.18240677 -0.00052929454 0
0.070790358 -0.18234444 0.00045678651 0
0.072968706 -0.18229726 -0.0009461416 0
0.072968848 -0.18223928 0.00083918031 0
-0.0051496895 -0.17864197 -0.0048420681 0
-0.0059999949 -0.17837609 -0.0015172284 0
-0.0060000047 -0.17836517 0.0016373328 0
-0.0049999696 -0.17858087 0.0049979459 0
-0.0014930877 -0.17850551 -0.0037459102 0
-0.0014589434 -0.17831476 0.0037301048 0
0.0013477488 -0.17855105 -0.0024449886 0
0.0013367663 -0.17842023 0.0024550906 0
0.0046746773 -0.17853557 -0.0021731718 0
0.0043778811 -0.17842458 0.0021784075 0
0.0060000033 -0.17864233 -0.0011190929 0
0.0059999954 -0.17835104 0.00097720895 0
-0.0060000056 -0.17566746 0.0013673396 0
-0.0060000177 -0.17470251 0.0047539291 0
-0.0051319962 -0.17546092 -0.0050063375 0
-0.0059999945 -0.17535026 -0.0013849947 0
-0.0060000066 -0.17559628 0.0014204319 0
-0.005087737 -0.17541045 0.0049209907 0
-0.00164416 -0.17577001 -0.0038214563 0
-0.0015680715 -0.17557633 0.0037846589 0
0.0014878197 -0.175482 -0.002470331 0
0.0015688922 -0.17555055 0.0024495607 0
0.0046790089 -0.17542751 -0.0022388778 0
0.004423602 -0.17554551 0.0022388157 0
0.0060000033 -0.17531195 -0.0012591463 0
0.0059999945 -0.17523919 0.0010226028 0
-0.006000007 -0.17275912 0.001789214 0
-0.0060000159 -0.1723022 0.0042068386 0
-0.0052336878 -0.17247117 -0.0050720256 0
-0.005999994 -0.17233431 -0.0013883141 0
-0.006000007 -0.17263806 0.001426584 0
-0.0052134567 -0.17253716 0.0049034711 0
-0.0013573779 -0.17238726 -0.0036780767 0
-0.001406585 -0.17258134 0.003703905 0
0.0015319412 -0.17255956 -0.002496609 0
0.0014503631 -0.17261568 0.0025401406 0
0.0043797991 -0.17253558 -0.0022702888 0
0.0045035807 -0.17260045 0.0023837031 0
0.0060000028 -0.17233764 -0.0011207046 0
0.0059999935 -0.17268281 0.0013640348 0
-0.006000008 -0.16850606 0.0021155432 0
-0.0060000168 -0.16990136 0.0045482558 0
-0.0053224349 -0.16943602 -0.0049311011 0
-0.0059999931 -0.16963099 -0.0015789774 0
-0.0060000052 -0.16970514 0.0013873056 0
-0.0049232095 -0.16947302 0.0049050199 0
-0.0014402367 -0.16956514 -0.0037195173 0
-0.0014999617 -0.16940084 0.003750582 0
0.0014726649 -0.16945067 -0.0025902982 0
0.001478612 -0.16932544 0.0025703805 0
0.004631192 -0.16950424 -0.0024573773 0
0.0043435385 -0.16957842 0.0024514718 0
0.0060000033 -0.16962023 -0.0012797816 0
0.0059999949 -0.16948788 0.001070158 0
-0.0060000122 -0.16587061 0.003260415 0
-0.0050183847 -0.16667715 -0.0050323932 0
-0.0059999945 -0.16646679 -0.0013641127 0
-0.0060000047 -0.16629095 0.0016399599 0
-0.0050537013 -0.1664591 0.0049737422 0
-0.001486072 -0.16661415 -0.0037424455 0
-0.0015780275 -0.16635419 0.0037896037 0
0.0013902516 -0.16667792 -0.0026589022 0
0.0013151376 -0.16661809 0.00267467 0
0.0045392066 -0.16642585 -0.0026001169 0
0.0046319668 -0.1663218 0.0026050205 0
0.0060000038 -0.16664775 -0.0014362457 0
0.0059999931 -0.16633908 0.0015514095 0
-0.0054018022 -0.16343775 -0.0048455005 0
-0.005999994 -0.16351771 -0.0017019447 0
-0.006000007 -0.16364643 0.0013501731 0
-0.005156124 -0.16356854 0.0049515213 0
-0.0016415161 -0.16348729 -0.0038201793 0
-0.0014102968 -0.1634056 0.0037057283 0
0.0012563674 -0.16332628 -0.0027552766 0
0.0015774979 -0.16350882 0.0027382148 0
0.0045508151 -0.16330053 -0.0027103038 0
0.0047084917 -0.16338268 0.0026729393 0
0.0060000047 -0.163449 -0.0013951829 0
0.0059999931 -0.16325018 0.0013878293 0
-0.006000008 -0.16059814 0.002064551 0
-0.0053241728 -0.16050145 -0.0049042981 0
-0.005999994 -0.16054484 -0.0012406211 0
-0.0060000042 -0.16035186 0.0015837448 0
-0.0052204239 -0.16031814 0.0049939035 0
-0.001674628 -0.16065094 -0.0038367459 0
-0.0015319302 -0.16056387 0.0037665335 0
0.0016813878 -0.1604103 -0.0028231803 0
0.0018221195 -0.16052847 0.0028207081 0
0.0043180683 -0.16049995 -0.0027372576 0
0.0043723029 -0.16044022 0.0028123388 0
0.0060000028 -0.16044223 -0.0012665802 0
0.0059999935 -0.16049059 0.0014707725 0
-0.0051085865 -0.15755592 -0.0048550796 0
-0.0059999921 -0.15734094 -0.0014956637 0
-0.0060000056 -0.15744288 0.0015532954 0
-0.0051529938 -0.15754201 0.004762209 0
-0.0014913526 -0.15764417 -0.0037451172 0
-0.0013241949 -0.15764038 0.003662657 0
0.0015828522 -0.15740173 -0.0029193494 0
0.0014447487 -0.15774986 0.0029117691 0
0.0044620754 -0.15732946 -0.0029208211 0
0.004449374 -0.15750842 0.0028473702 0
0.0060000042 -0.15734088 -0.0015544582 0
0.0059999935 -0.15768059 0.0013789349 0
-0.0059999963 -0.15495273 -0.001189666 0
-0.005286274 -0.1544856 -0.0048147128 0
-0.005999994 -0.15461978 -0.001497122 0
-0.0060000047 -0.15457666 0.001461791 0
-0.0052501755 -0.15446907 0.0049022567 0
-0.0016262538 -0.15470812 -0.0038125801 0
-0.0013950021 -0.1544584 0.0036992012 0
0.0017815703 -0.15366559 -0.0030500044 0
0.0011703669 -0.15561876 -0.0029811461 0
0.0020417175 -0.15551908 0.0029857964 0
0.0014386461 -0.15410452 0.0030356555 0
0.0045314897 -0.15410925 -0.0030343528 0
0.0043197474 -0.15553163 -0.0029842064 0
0.0040562386 -0.1556242 0.0029820984 0
0.0044211228 -0.15385754 0.003044372 0
0.0060000108 -0.15353204 -0.0030223667 0
0.0060000056 -0.15454535 -0.001548189 0
0.0059999949 -0.15437372 0.0013153624 0
0.0059999893 -0.15310742 0.0030216987 0
-0.0059999912 -0.15254509 -0.0025740413 0
-0.0050178771 -0.15162948 -0.0048317448 0
-0.0059999968 -0.15151642 -0.0012551377 0
-0.0060000047 -0.15173082 0.0016201064 0
-0.0051588798 -0.15155476 0.0050111986 0
-0.0014789407 -0.15170117 -0.003747005 0
-0.001262527 -0.15132734 0.0036466224 0
0.0013153786 -0.15157567 -0.003123688 0
0.0013128446 -0.1515587 0.0031253928 0
0.0047188131 -0.15119302 -0.0031371671 0
0.0059999931 -0.15174793 0.0018115342 0
0.0046445495 -0.15151201 0.0031270518 0
0.0060000112 -0.15189266 -0.0030615903 0
0.0060000042 -0.15143032 -0.0013175821 0
0.0059999935 -0.15153606 0.0014766966 0
0.0059999889 -0.15259354 0.0030504817 0
-0.0059999926 -0.14939173 -0.0021279124 0
-0.005233624 -0.14844792 -0.0049089035 0
-0.0059999959 -0.14844871 -0.0013064073 0
-0.0060000056 -0.14834909 0.0013543061 0
-0.0052043083 -0.14845322 0.0049815373 0
-0.0016173967 -0.14849782 -0.0038146006 0
-0.0016882032 -0.14861189 0.0038572911 0
0.0015701584 -0.14866595 -0.0032262739 0
0.001723123 -0.14874041 0.0032247368 0
0.0043744766 -0.1484393 -0.003234254 0
0.004526474 -0.14855155 0.0032314041 0
0.0060000112 -0.14827082 -0.0031179474 0
0.0060000047 -0.14841202 -0.0014520806 0
0.0059999931 -0.14851935 0.0015006725 0
0.0059999893 -0.14769359 0.0031243982 0
-0.0059999861 -0.14671822 -0.0039787251 0
-0.0052611358 -0.14531115 -0.0050031664 0
-0.0059999949 -0.14544545 -0.0014553175 0
-0.0060000042 -0.14544001 0.0014714586 0
-0.0052370424 -0.14558747 0.0049595968 0
-0.0014035752 -0.14559895 -0.0037425852 0
-0.0013355376 -0.14544787 0.0037061367 0
0.00152282 -0.14555833 -0.0033358375 0
0.0013845956 -0.14536907 0.0033435724 0
0.0047343634 -0.14559102 -0.0033346731 0
0.0046195774 -0.14543509 0.0033412557 0
0.0060000122 -0.14538659 -0.0031574154 0
0.0060000038 -0.14543928 -0.0013826176 0
0.0059999968 -0.14529328 0.0016206478 0
0.0059999889 -0.14541461 0.0031603277 0
-0.0060000038 -0.1438043 0.00085399591 0
-0.0052073165 -0.1424112 -0.0049372744 0
-0.0059999949 -0.14268582 -0.0014173063 0
-0.0060000056 -0.14256833 0.001453513 0
-0.005106424 -0.14246263 0.0049331272 0
-0.0013253693 -0.14254986 -0.0037325514 0
-0.0013680113 -0.14277093 0.0037650911 0
0.001554264 -0.14266603 -0.0034378085 0
0.0016773728 -0.14260466 0.003441016 0
0.004474103 -0.14272618 -0.0034356774 0
0.0059999949 -0.14200646 0.0012790798 0
0.0046528899 -0.14255174 0.0034384865 0
0.0060000122 -0.14235264 -0.0032562995 0
0.0060000066 -0.14258011 -0.0013696179 0
0.0059999963 -0.14289269 0.0017069656 0
0.0059999889 -0.14296302 0.0032476387 0
-0.0059999833 -0.13923292 -0.0047124233 0
-0.0059999959 -0.13940451 -0.0012329952 0
-0.0052841329 -0.13958609 -0.0049380483 0
-0.0059999954 -0.13932182 -0.0012786012 0
-0.0060000038 -0.13943984 0.0014318345 0
-0.0050030095 -0.13955443 0.0047993879 0
-0.001556282 -0.13966487 -0.0038556987 0
-0.0013502244 -0.13958934 0.0038055261 0
0.0014261518 -0.13954471 -0.003547855 0
0.0015266457 -0.13932166 0.0035567374 0
0.0044705365 -0.13944271 -0.0035514405 0
0.0044929702 -0.13954085 0.0035490212 0
0.0060000122 -0.13989401 -0.0032114042 0
0.0060000033 -0.13944393 -0.0013410893 0
0.0059999931 -0.13949791 0.0015902261 0
0.0059999889 -0.13927419 0.0032804348 0
-0.0059999954 -0.13608313 -0.001401734 0
-0.0051882067 -0.1365734 -0.0049586226 0
-0.005999994 -0.13643683 -0.0013156526 0
-0.0060000047 -0.13654408 0.0015585929 0
-0.0051736999 -0.13659981 0.0049697929 0
-0.0015112374 -0.13645864 -0.0038966588 0
-0.0014622823 -0.1365786 0.0038653612 0
0.0016994542 -0.13664176 -0.0036502015 0
0.0014869997 -0.13642301 0.0036589119 0
0.0045210286 -0.13633586 -0.003660976 0
0.0044803186 -0.13644384 0.0036581899 0
0.0060000126 -0.13663162 -0.0033386298 0
0.0060000042 -0.13654839 -0.0013956111 0
0.005999994 -0.13665216 0.0013056985 0
0.0059999884 -0.13685551 0.003366424 0
-0.0059999931 -0.13231876 -0.0021179817 0
-0.005137417 -0.13353151 -0.0049283821 0
-0.0059999945 -0.13347681 -0.0013867269 0
-0.0060000042 -0.13360485 0.0015904425 0
-0.0054478049 -0.13353796 0.0048434888 0
-0.0015095011 -0.13369967 -0.0039260271 0
-0.0016030831 -0.13347705 0.0039947461 0
0.0014301026 -0.13358797 -0.0037578689 0
0.0015664008 -0.13336506 0.0037667011 0
0.0046311109 -0.13355139 -0.0037591464 0
0.0045505576 -0.13343203 0.003764353 0
0.0060000126 -0.13306932 -0.0033210323 0
0.0060000056 -0.13346705 -0.0014550587 0
0.0059999949 -0.13346805 0.001507157 0
0.0059999879 -0.13339844 0.0034169743 0
-0.0059999824 -0.13069975 -0.0049688467 0
-0.0052432492 -0.1305054 -0.0049644378 0
-0.0059999935 -0.13044842 -0.0013855174 0
-0.0060000042 -0.13075893 0.0014240131 0
-0.005222525 -0.13060342 0.0047542588 0
-0.0015228443 -0.13044105 -0.004000498 0
-0.0015962843 -0.13057365 0.0040289829 0
0.0015372693 -0.13043919 -0.0038688821 0
0.0013762554 -0.13051262 0.0038672469 0
0.0044525145 -0.13072798 -0.0038586892 0
0.0045999307 -0.1303639 0.0038642425 0
0.0060000131 -0.1306864 -0.0034529092 0
0.0060000028 -0.13072316 -0.0011746384 0
0.0059999921 -0.13060334 0.0016991665 0
0.0059999879 -0.13082542 0.0032865598 0
-0.0059999856 -0.12738751 -0.004175181 0
-0.0052318149 -0.12760167 -0.0049533839 0
-0.0059999949 -0.12750427 -0.0012256294 0
-0.0060000052 -0.12762493 0.0016535219 0
-0.00520636 -0.12760669 0.0048616291 0
-0.0015162898 -0.12767483 -0.0040372596 0
-0.0014765342 -0.12736806 0.0040567419 0
0.0014106159 -0.1275484 -0.0039708004 0
0.0017740442 -0.12742382 0.0039761257 0
0.0046912786 -0.12751031 -0.0039721318 0
0.0047096601 -0.12737481 0.003977864 0
0.0060000126 -0.12779123 -0.0034606226 0
0.0060000047 -0.1275467 -0.0012425182 0
0.0059999935 -0.12743029 0.0014736468 0
0.005999987 -0.12745735 0.003481349 0
-0.0059999828 -0.12439924 -0.0048275217 0
-0.0051617813 -0.12446327 -0.0048054075 0
-0.0059999935 -0.12443548 -0.0013834039 0
-0.0060000066 -0.12439327 0.0014399984 0
-0.005188731 -0.12437563 0.0049566175 0
-0.0014045832 -0.12442724 -0.004124755 0
-0.0014731627 -0.12425687 0.0041470444 0
0.0014556975 -0.12436455 -0.0040830504 0
0.0012038163 -0.12463988 0.0040742555 0
0.0044451724 -0.124427 -0.0040808385 0
0.0044030198 -0.1246497 0.0040739202 0
0.0060000136 -0.12415425 -0.0035869817 0
0.0060000052 -0.12454466 -0.0017748411 0
0.0059999931 -0.1246427 0.0015934 0
0.005999987 -0.1244487 0.0036338579 0
-0.005999981 -0.12022258 -0.0053570899 0
-0.0059999926 -0.12234567 -0.0022161205 0
-0.0051385048 -0.12162835 -0.004953145 0
-0.0059999935 -0.12132077 -0.0016408035 0
-0.0060000042 -0.12164937 0.0013121895 0
-0.0050837267 -0.12139332 0.0047741965 0
-0.0013895667 -0.121476 -0.0042164256 0
-0.0016316456 -0.12160821 0.0042078034 0
0.0015867722 -0.12151642 -0.0041834661 0
0.0013850287 -0.12149397 0.0041851457 0
0.0043647331 -0.12150747 -0.0041837706 0
0.0045274887 -0.12151983 0.0041842456 0
0.0060000126 -0.12133104 -0.0035943647 0
0.0060000052 -0.12134778 -0.0013760397 0
0.0059999949 -0.12154886 0.001396033 0
0.0059999861 -0.12149298 0.0037229687 0
-0.005280816 -0.11852988 -0.0049188063 0
-0.0059999977 -0.11851361 -0.0013529058 0
-0.0060000033 -0.11871741 0.001327585 0
-0.0051161214 -0.11853039 0.0048958515 0
-0.001464755 -0.1184691 -0.0043080845 0
-0.0015504059 -0.11849902 0.004298429 0
0.0014766193 -0.11836258 -0.0042946581 0
0.0015940483 -0.11850742 0.0042904196 0
0.0045960294 -0.11828752 -0.0042972928 0
0.0046529002 -0.11838958 0.0042904867 0
0.0060000131 -0.11867298 -0.0036867762 0
0.0060000052 -0.11830043 -0.0017630522 0
0.0059999945 -0.11849055 0.0015534075 0
0.0059999861 -0.11875843 0.0036165493 0
-0.0059999838 -0.11487748 -0.0046546841 0
-0.0059999907 -0.11477797 -0.0026764763 0
-0.0051429579 -0.11563513 -0.0049452367 0
-0.0059999935 -0.11535968 -0.0012984804 0
-0.0060000047 -0.11556266 0.0015162884 0
-0.0051418515 -0.11551815 0.0049323062 0
-0.0013907026 -0.11544363 -0.0043982076 0
-0.0016635573 -0.11565345 0.0043960027 0
0.0014007237 -0.11548746 -0.0043960232 0
0.0013553989 -0.11536763 0.0044010929 0
0.0044720909 -0.11526371 -0.0044039022 0
0.0043337638 -0.11559302 0.0043858332 0
0.006000014 -0.11516601 -0.0036672752 0
0.0060000066 -0.1154466 -0.0016385729 0
0.0059999935 -0.11553035 0.0014853687 0
0.0059999856 -0.11572076 0.0037276463 0
-0.0059999833 -0.11322899 -0.0047356058 0
-0.0059999917 -0.11243512 -0.002380369 0
-0.0051300344 -0.11246972 -0.0048468173 0
-0.0059999949 -0.11227924 -0.0013125781 0
-0.006000008 -0.11253656 0.0014993394 0
-0.0053477255 -0.11263184 0.0049034888 0
-0.0013157943 -0.11243437 -0.0045036743 0
-0.0014618773 -0.11233556 0.0045079608 0
0.0017669231 -0.11249548 -0.0045015076 0
0.00126932 -0.11240672 0.004505462 0
0.0041907406 -0.11250892 -0.0045010252 0
0.0045088166 -0.1125698 0.0044997241 0
0.006000014 -0.1128638 -0.003831022 0
0.0060000047 -0.11269104 -0.0016163568 0
0.0059999959 -0.11237796 0.0014982871 0
0.0059999856 -0.11276966 0.00378722 0
-0.0059999865 -0.108078 -0.0038263274 0
-0.0051583848 -0.10963179 -0.0049190936 0
-0.005999994 -0.10931193 -0.0014348617 0
-0.0060000066 -0.10950975 0.0014378176 0
-0.0051801838 -0.10947405 0.0048688701 0
-0.0012719092 -0.10933334 -0.0046130051 0
-0.0016252086 -0.1094529 0.0046095704 0
0.0014436141 -0.10958668 -0.004604063 0
0.0014090748 -0.10944144 0.0046099862 0
0.004400989 -0.10938487 -0.0046111685 0
0.0045644208 -0.10942716 0.004585017 0
0.0060000117 -0.109465 -0.0036445668 0
0.0060000042 -0.10971156 -0.0015008375 0
0.0059999926 -0.10964425 0.0016919391 0
0.0059999852 -0.10965429 0.0038214712 0
-0.0059999893 -0.10547341 -0.0031347552 0
-0.0059999931 -0.10594587 -0.0020432533 0
-0.0053190957 -0.10648251 -0.0049175401 0
-0.0059999949 -0.10649604 -0.0015279445 0
-0.0060000066 -0.10632476 0.0014716177 0
-0.0051874095 -0.10657687 0.0049122479 0
-0.001282029 -0.106773 -0.004703274 0
-0.001509645 -0.10628639 0.0047211861 0
0.0015834519 -0.10666587 -0.0047070403 0
0.0015164352 -0.10661651 0.0047095632 0
0.0045275814 -0.10651863 -0.0047122198 0
0.0045154262 -0.10651098 0.0046496685 0
0.0060000131 -0.10648003 -0.0037937462 0
0.0060000061 -0.10664087 -0.0016722454 0
0.0059999973 -0.10667833 0.0014590002 0
0.0059999847 -0.10651174 0.0038913211 0
-0.005999987 -0.10470477 -0.0036966496 0
-0.0052240929 -0.10352903 -0.0049337139 0
-0.005999994 -0.10363991 -0.0016144809 0
-0.0060000052 -0.10348842 0.0013961946 0
-0.0052195033 -0.10357136 0.005004616 0
-0.0015172694 -0.10343119 -0.0048210951 0
-0.0014386449 -0.10369776 0.0048124348 0
0.0015630268 -0.10348304 -0.0048192539 0
0.0017358755 -0.10343009 0.0048218817 0
0.0043570893 -0.10359082 -0.0048154439 0
0.0044862758 -0.10338885 0.0047746655 0
0.0060000126 -0.10337362 -0.0037756108 0
0.0060000052 -0.10326064 -0.0017373565 0
0.0059999963 -0.10355755 0.0014758827 0
0.0059999842 -0.10348444 0.0039314958 0
-0.0059999852 -0.10105597 -0.0042153248 0
-0.0059999912 -0.09983027 -0.0025105884 0
-0.005405413 -0.10040782 -0.0049102758 0
-0.0059999945 -0.10067827 -0.0012170983 0
-0.0060000056 -0.10024229 0.0014467582 0
-0.0053433836 -0.10045788 0.0050734133 0
-0.0014430722 -0.10057271 -0.0049218731 0
-0.0015034894 -0.10010657 0.0049390192 0
0.0014567284 -0.1005298 -0.0049233763 0
0.0013848532 -0.10066068 0.0049194996 0
0.0044358023 -0.10059728 -0.0049209855 0
0.0045263437 -0.10051317 0.0048695547 0
0.006000014 -0.1004772 -0.0041338988 0
0.0060000052 -0.10021461 -0.0012337625 0
0.0059999949 -0.10027133 0.0015351821 0
0.0059999838 -0.10050646 0.0041500716 0
-0.0059999847 -0.096584238 -0.0043593948 0
-0.0050599235 -0.09735287 -0.0049931798 0
-0.005999994 -0.097283646 -0.001565485 0
-0.0060000042 -0.0974406 0.0013778544 0
-0.0052884645 -0.097529843 0.0049228785 0
-0.001729899 -0.097264163 -0.0050385208 0
-0.0015964644 -0.097786739 0.0050207917 0
0.0015292354 -0.097358659 -0.0050351787 0
0.0015607784 -0.097443864 0.0050328881 0
0.0045857527 -0.097588122 -0.0050270776 0
0.0044288887 -0.097600289 0.0049210624 0
0.0060000136 -0.097606704 -0.0040300475 0
0.0060000066 -0.097490512 -0.0017008438 0
0.0059999926 -0.097682081 0.0015982019 0
0.0059999842 -0.097416855 0.004005549 0
-0.0059999852 -0.09501943 -0.0042180428 0
-0.0059999921 -0.095430382 -0.0023601872 0
-0.0052191871 -0.094561286 -0.0047917711 0
-0.0059999945 -0.094436564 -0.0012517268 0
-0.0060000075 -0.094497778 0.0015423909 0
-0.0052833981 -0.094340466 0.0049395757 0
-0.0014668843 -0.094418794 -0.0051388368 0
-0.001493887 -0.094608493 0.0051328205 0
0.0015459702 -0.094588906 -0.0051328288 0
0.0014921392 -0.094480716 0.0051373364 0
0.0044132052 -0.094691291 -0.0051292088 0
0.0042806054 -0.09477292 0.0050949319 0
0.0060000136 -0.094375335 -0.00415903 0
0.0060000061 -0.09435802 -0.00158487 0
0.0059999945 -0.094464123 0.001105673 0
0.0059999838 -0.094290361 0.0042923698 0
-0.0059999884 -0.090849504 -0.0033170157 0
-0.0059999917 -0.091269679 -0.0023853136 0
-0.0051641981 -0.091454327 -0.0050016209 0
-0.0059999945 -0.091542348 -0.0015742752 0
-0.0060000042 -0.091433056 0.0015407723 0
-0.0051263515 -0.091460459 0.0049623703 0
-0.0015108951 -0.091498569 -0.005241795 0
-0.0016687702 -0.091331124 0.005248345 0
0.0014845695 -0.091417909 -0.0052446253 0
0.0014202598 -0.091487616 0.0052428399 0
0.0044615027 -0.091488741 -0.0052421186 0
0.0044636452 -0.091221474 0.0051845429 0
0.0060000136 -0.091705278 -0.0040842406 0
0.0060000033 -0.091184102 -0.0011385136 0
0.0059999954 -0.091506951 0.001404147 0
0.0059999838 -0.091560677 0.0040553869 0
-0.0059999824 -0.088906206 -0.0049849111 0
-0.0059999917 -0.088252485 -0.0024213635 0
-0.00520891 -0.088564731 -0.0050114887 0
-0.0059999954 -0.088197321 -0.0014062569 0
-0.0060000056 -0.088467292 0.0015447438 0
-0.0051605254 -0.088577762 0.0049850876 0
-0.0016564332 -0.088665321 -0.0053416835 0
-0.0011638323 -0.088471383 0.0053491504 0
0.0015330039 -0.088494785 -0.005347685 0
0.0014461458 -0.088715091 0.0053405692 0
0.0044113994 -0.088798165 -0.0053369789 0
0.0044544134 -0.088733599 0.0052851653 0
0.006000014 -0.08869794 -0.004197171 0
0.0060000052 -0.088684745 -0.0015902803 0
0.0059999959 -0.088658512 0.0012007643 0
0.0059999838 -0.088615 0.0041199191 0
-0.0059999852 -0.085717738 -0.0042335712 0
-0.0059999926 -0.086199917 -0.0021678994 0
-0.005356648 -0.085387968 -0.0051224893 0
-0.0059999954 -0.085617281 -0.0012868355 0
-0.0060000047 -0.085615531 0.001644791 0
-0.0051160837 -0.085494354 0.0051331362 0
-0.0013755283 -0.085731246 -0.0054451283 0
-0.0014075318 -0.085462593 0.0054552061 0
0.0016876053 -0.085370399 -0.005457839 0
0.001654856 -0.085583091 0.0054509696 0
0.0043611452 -0.08555112 -0.0054514571 0
0.0059999907 -0.085384704 0.0024005151 0
