# .PCD v0.7 - Point Cloud Data file format
VERSION 0.7
FIELDS x y z rgb
SIZE 4 4 4 4
TYPE F F F F
COUNT 1 1 1 1
WIDTH 1189
HEIGHT 1
VIEWPOINT 0 0 0 1 0 0 0
POINTS 1189
DATA ascii
0.013738381 -0.25857288 0.0060009849 0
0.017919354 -0.25832006 -0.0059990007 0
0.016598912 -0.25896886 -0.0048343795 0
0.016505901 -0.25909999 -0.0016382374 0
0.016610377 -0.25909996 0.0014427966 0
0.016531693 -0.25909996 0.0044700028 0
0.016536884 -0.25863415 0.0060009956 0
0.019490385 -0.25888684 -0.0048402059 0
0.019446578 -0.25909999 -0.0013892417 0
0.019507289 -0.25909999 0.0016534174 0
0.019571992 -0.25909317 0.0046383529 0
0.019071596 -0.25861135 0.0060010045 0
0.023700273 -0.25829521 -0.0059989798 0
0.022428062 -0.25888839 -0.0049456083 0
0.022434246 -0.25909996 -0.0014688767 0
0.022491533 -0.25909996 0.0015945577 0
0.022445848 -0.25909925 0.0044993088 0
0.022185821 -0.25856403 0.0060010152 0
0.024404135 -0.25877061 -0.0059989751 0
0.025448631 -0.2589106 -0.0049416856 0
0.025479684 -0.25909996 -0.0015039084 0
0.025683176 -0.25909999 0.0015500401 0
0.025485497 -0.25909993 0.004448167 0
0.025160566 -0.25856295 0.0060010264 0
0.028534969 -0.25897783 -0.0047447332 0
0.028461056 -0.25909996 -0.0014600313 0
0.028542567 -0.25909999 0.0015332969 0
0.028423205 -0.25909993 0.0044051167 0
0.02865494 -0.25856248 0.0060010389 0
0.032101203 -0.25858635 -0.0059989481 0
0.031368673 -0.25895199 -0.0050382772 0
0.031598266 -0.25909999 -0.0014995724 0
0.031505059 -0.25909996 0.0017412821 0
0.031518731 -0.2590985 0.0044486206 0
0.031406906 -0.25863451 0.0060010497 0
0.035085436 -0.25835973 -0.0059989383 0
0.034585398 -0.25895938 -0.0049330727 0
0.034631006 -0.25909999 -0.001380327 0
0.0344018 -0.25909996 0.0014475819 0
0.034553271 -0.25909445 0.0045346101 0
0.034551539 -0.25855392 0.0060010604 0
0.036356613 -0.25844234 -0.0059989332 0
0.037454277 -0.25882381 -0.0049440418 0
0.037530448 -0.25886992 -0.0014114686 0
0.037641067 -0.25887272 0.0014689113 0
0.037448484 -0.2589412 0.0043310924 0
0.036919069 -0.25848898 0.0060010692 0
-0.034358453 -0.25663361 -0.0048556291 0
-0.034449648 -0.25643104 -0.0015562224 0
-0.034534257 -0.2565982 0.0016170563 0
-0.034516443 -0.25662872 0.0045656618 0
-0.033711705 -0.25682071 0.0060008061 0
-0.031601269 -0.2565918 -0.0059991903 0
-0.030729072 -0.25783926 0.0060008215 0
-0.031407967 -0.25646558 0.0060008187 0
-0.028350068 -0.25589722 -0.0059991768 0
-0.028482266 -0.25663555 -0.0059991791 0
-0.028506715 -0.25631902 0.0060008299 0
-0.026908135 -0.25704363 -0.0059991674 0
-0.025568601 -0.2566444 -0.0059991684 0
-0.0265943 -0.25682682 0.0060008331 0
-0.025565073 -0.25646508 0.0060008401 0
-0.02328226 -0.25567836 -0.0059991591 0
-0.022402709 -0.25641292 -0.0059991572 0
-0.022649659 -0.25649148 0.0060008517 0
-0.020938572 -0.25513384 -0.005999153 0
-0.019541049 -0.2565363 -0.005999147 0
-0.019633936 -0.25656918 0.006000862 0
-0.016543955 -0.25518271 -0.0059991367 0
-0.016449902 -0.25648859 -0.0059991358 0
-0.017848868 -0.25731477 0.0060008662 0
-0.016479045 -0.2564857 0.0060008736 0
-0.014275955 -0.25633165 -0.0059991241 0
-0.013597275 -0.25644916 -0.0059991246 0
-0.013567334 -0.25645438 0.0060008848 0
-0.010864282 -0.25567868 -0.0059991139 0
-0.01043444 -0.25654778 -0.0059991144 0
-0.010410183 -0.25657845 0.006000896 0
-0.0087210713 -0.25534388 -0.0059991078 0
-0.0074738627 -0.25648743 -0.0059991032 0
-0.0084456 -0.25543505 0.0060008937 0
-0.0075583588 -0.25642902 0.0060009048 0
-0.0045400192 -0.25645649 -0.005999092 0
-0.0046404437 -0.2566818 0.0060009169 0
-0.0013187961 -0.25657564 -0.0059990808 0
-0.0013947043 -0.25656083 0.0060009281 0
0.001537563 -0.2564519 -0.0059990711 0
0.0016435194 -0.25640258 0.0060009374 0
0.0041996227 -0.25574699 -0.0059990594 0
0.0044011124 -0.25655192 -0.0059990608 0
0.004367487 -0.25648168 0.0060009491 0
0.0075365007 -0.25659057 -0.0059990482 0
0.0076544741 -0.25657779 0.0060009584 0
0.010533141 -0.25641468 -0.005999038 0
0.010583024 -0.25651824 0.0060009719 0
0.013384787 -0.25655636 -0.0059990273 0
0.013621472 -0.25650129 0.0060009821 0
0.017588135 -0.25745681 -0.0059990049 0
0.016562592 -0.25656798 -0.0059990161 0
0.017192734 -0.25726441 0.0060009933 0
0.016620902 -0.25662309 0.0060009933 0
0.01945639 -0.25662863 -0.0059990054 0
0.019647349 -0.25647148 0.006001004 0
0.023292912 -0.25715631 -0.0059989854 0
0.022450868 -0.25660297 -0.0059989933 0
0.022365132 -0.25653112 0.0060010143 0
0.026012598 -0.25736719 -0.0059989747 0
0.025505939 -0.2566458 -0.0059989835 0
0.025561232 -0.2566351 0.0060010268 0
0.02855223 -0.2567018 -0.0059989723 0
0.02874957 -0.25532758 0.0060010278 0
0.02842102 -0.2564466 0.0060010361 0
0.032226987 -0.25761113 -0.0059989509 0
0.031491764 -0.25669545 -0.0059989607 0
0.03222502 -0.25755164 0.0060010487 0
0.031414051 -0.25652352 0.0060010473 0
0.033955976 -0.25635394 -0.0059989495 0
0.034409367 -0.25640637 -0.00599895 0
0.035571236 -0.25620183 0.0060010562 0
0.03436695 -0.25658613 0.0060010576 0
0.037435494 -0.25640312 -0.0059989369 0
0.03781388 -0.25650823 -0.0051392624 0
0.038300026 -0.25634408 -0.0014685566 0
0.038300015 -0.25657132 0.0015496929 0
0.038293224 -0.25639978 0.0045414441 0
0.037165064 -0.25670213 0.0060010664 0
-0.033336215 -0.25426701 -0.0047137034 0
-0.033346057 -0.25424975 -0.0015021481 0
-0.033382874 -0.25432253 0.0016179733 0
-0.033436812 -0.25442904 0.0045383465 0
-0.03330579 -0.25456914 0.006000801 0
-0.031026669 -0.25438267 -0.0059991917 0
-0.031884506 -0.25317216 -0.0053738649 0
-0.032627303 -0.25282907 -0.0013784704 0
-0.032614406 -0.25280359 0.0014609072 0
-0.032615174 -0.25280505 0.0047721886 0
-0.031539783 -0.25372121 0.0060008089 0
-0.02860239 -0.25296029 -0.0059991884 0
-0.028416632 -0.25349414 -0.0058389939 0
-0.027047394 -0.25364491 -0.0017382831 0
-0.027036687 -0.25363785 0.0014007053 0
-0.027585205 -0.25380248 0.0044919932 0
-0.028328149 -0.25350618 0.0060008205 0
-0.026232995 -0.25374344 -0.0059991768 0
-0.025799125 -0.25351202 -0.0049229264 0
-0.025870377 -0.2534166 -0.001551637 0
-0.025844779 -0.25342199 0.001522194 0
-0.025905345 -0.25339973 0.0044886842 0
-0.025427053 -0.25406066 0.0060008261 0
-0.022392977 -0.25418124 -0.0059991614 0
-0.022453405 -0.25391874 -0.0051085441 0
-0.022513106 -0.25370014 -0.0015513955 0
-0.022568107 -0.25370011 0.0014200227 0
-0.022436494 -0.25370011 0.0046887393 0
-0.022565873 -0.25440922 0.0060008382 0
-0.019494336 -0.25430167 -0.0059991507 0
-0.019608703 -0.25389335 -0.0051258141 0
-0.019530525 -0.25370014 -0.0016817035 0
-0.019573661 -0.25370008 0.001548896 0
-0.019374629 -0.25370011 0.0046104123 0
-0.019386265 -0.25449431 0.0060008499 0
-0.016079746 -0.25434777 -0.0059991381 0
-0.016456181 -0.25388315 -0.0049103708 0
-0.016430367 -0.25370008 -0.0014809703 0
-0.016578082 -0.25370008 0.0014263222 0
-0.016460005 -0.25370389 0.004642495 0
-0.016569218 -0.25444803 0.0060008601 0
-0.014095807 -0.25487211 -0.0059991293 0
-0.013495828 -0.25383055 -0.0048409807 0
-0.013476037 -0.25370011 -0.0016004239 0
-0.013537307 -0.25370014 0.0016024468 0
-0.013509798 -0.25370499 0.0046043992 0
-0.013542294 -0.25429919 0.0060008704 0
-0.01050944 -0.25380906 -0.0047829016 0
-0.01061817 -0.25370014 -0.0013857029 0
-0.010498352 -0.25370014 0.0015388255 0
-0.010626958 -0.25371471 0.0046605947 0
-0.010724058 -0.25430754 0.0060008811 0
-0.0084875487 -0.25475791 -0.0059991092 0
-0.0073527526 -0.25387529 -0.0049699354 0
-0.0074319644 -0.25370014 -0.0016045017 0
-0.007424444 -0.25370008 0.0016194577 0
-0.0075353133 -0.25370166 0.0046689012 0
-0.0075839031 -0.25433019 0.0060008918 0
-0.004485779 -0.25391582 -0.0049848575 0
-0.0045509669 -0.25370011 -0.001542863 0
-0.0044081388 -0.25370008 0.0013485602 0
-0.0044875224 -0.25371253 0.0045291041 0
-0.0045600594 -0.2544319 0.0060009034 0
-0.0015518347 -0.25391015 -0.0048646745 0
-0.0015248629 -0.25370014 -0.0016777808 0
-0.0015114176 -0.25370014 0.0015865884 0
-0.0016412436 -0.25370008 0.0044480539 0
-0.0014985838 -0.25429091 0.0060009137 0
0.0015044956 -0.25394186 -0.0049026366 0
0.001416397 -0.25370008 -0.0015235958 0
0.0017094942 -0.25370011 0.0015658265 0
0.0013257716 -0.25370008 0.0043929401 0
0.0013393101 -0.25435984 0.0060009244 0
0.0046266504 -0.25390735 -0.0050382246 0
0.0045673768 -0.25370011 -0.001456902 0
0.0044958857 -0.25370011 0.0013941339 0
0.0046881079 -0.25370011 0.0044700671 0
0.0045079431 -0.25441089 0.006000936 0
0.0076326439 -0.25390416 -0.0050445991 0
0.0077082817 -0.25370011 -0.0014496946 0
0.007395043 -0.25370008 0.0015203563 0
0.0074329642 -0.25370011 0.0045856675 0
0.0076215491 -0.25438008 0.0060009472 0
0.010513632 -0.25388038 -0.0049395445 0
0.01049554 -0.25370011 -0.0015356544 0
0.010591866 -0.25370008 0.0013965311 0
0.010539413 -0.25370008 0.0046035079 0
0.01048658 -0.25429699 0.0060009579 0
0.013612797 -0.2539598 -0.0051560057 0
0.013487862 -0.25370011 -0.0016895048 0
0.013505691 -0.25370014 0.001536357 0
0.013356467 -0.25370008 0.0045136414 0
0.013668715 -0.25439999 0.006000971 0
0.016492536 -0.25385863 -0.0048295343 0
0.016444674 -0.25370014 -0.0014361187 0
0.01644616 -0.25370011 0.001437144 0
0.016370319 -0.25370005 0.0044044219 0
0.016297232 -0.25437748 0.0060009784 0
0.020358441 -0.25414339 -0.0059990068 0
0.019517424 -0.25384215 -0.0049028373 0
0.019458788 -0.25370011 -0.0015117764 0
0.019520171 -0.25370011 0.0015309239 0
0.019652667 -0.25372148 0.0046787965 0
0.019595662 -0.25442809 0.006000991 0
0.023129117 -0.25428954 -0.0059989961 0
0.022535857 -0.25388178 -0.004901689 0
0.02251335 -0.25370011 -0.0014343307 0
0.02253155 -0.25370011 0.0015887389 0
0.022563063 -0.25370711 0.004674104 0
0.022436643 -0.25429407 0.0060010003 0
0.025826374 -0.25379652 -0.0059989882 0
0.025400568 -0.25394216 -0.0050115855 0
0.025347177 -0.25370011 -0.0016744424 0
0.02540349 -0.25370014 0.001553592 0
0.025437212 -0.2537016 0.0044752602 0
0.025426276 -0.25437135 0.0060010115 0
0.028173905 -0.25426272 -0.0059989779 0
0.028587144 -0.25394553 -0.0050467327 0
0.028512875 -0.25370011 -0.0015750737 0
0.02835363 -0.25370011 0.0013893979 0
0.028425461 -0.25374043 0.004546341 0
0.028544979 -0.2542851 0.0060010226 0
0.031918626 -0.25367522 -0.0049085775 0
0.032002386 -0.25329903 -0.001536015 0
0.031906135 -0.25343263 0.0013390125 0
0.031939153 -0.25335678 0.0045167836 0
0.031364534 -0.25439143 0.0060010338 0
0.034264006 -0.25348759 -0.0059989588 0
0.03458564 -0.25343972 -0.0059989626 0
0.033822909 -0.25312713 0.0060010389 0
0.034539424 -0.25344232 0.0060010478 0
0.037230507 -0.25336292 -0.0059989486 0
0.037887231 -0.25356975 -0.0051808236 0
0.03830003 -0.25357786 -0.0014917754 0
0.038300019 -0.25335696 0.0013925981 0
0.038291171 -0.25365099 0.0046154829 0
0.037197459 -0.253472 0.0060010543 0
-0.030205727 -0.24930118 -0.0059992075 0
-0.0312433 -0.2505298 -0.0049017332 0
-0.031446587 -0.25049543 -0.0015258745 0
-0.031463619 -0.25052908 0.0014788673 0
-0.031383201 -0.25043997 0.004555102 0
-0.030753916 -0.25070658 0.0060007949 0
-0.027255869 -0.25128996 -0.0059991898 0
-0.028427711 -0.25043941 -0.005999201 0
-0.029880885 -0.24922328 0.0060007935 0
-0.028420694 -0.25046057 0.0060008089 0
-0.026164927 -0.24917597 -0.0059991931 0
-0.025461225 -0.25037244 -0.004959546 0
-0.025174849 -0.25053671 -0.0014316443 0
-0.025171153 -0.25055224 0.001558896 0
-0.025074221 -0.25041524 0.0045771664 0
-0.026099801 -0.25026357 0.0060008122 0
0.032902598 -0.25058183 -0.004412008 0
0.032900035 -0.2504501 -0.0016889423 0
0.032900009 -0.25052157 0.0013935679 0
0.032899991 -0.25057307 0.0044556465 0
0.032947615 -0.25007471 0.0060010245 0
0.034485653 -0.25052914 -0.0059989719 0
0.035141412 -0.24967223 0.0060010306 0
0.034588806 -0.25050342 0.0060010357 0
0.036994249 -0.25042638 -0.0059989598 0
0.037795976 -0.2504687 -0.0051146923 0
0.038300022 -0.2506597 -0.0013297311 0
0.038300015 -0.25044388 0.001573871 0
0.038300004 -0.25069928 0.0046043829 0
0.03699873 -0.2507703 0.0060010431 0
-0.030331733 -0.24831405 -0.0046775024 0
-0.030357303 -0.24834245 -0.0015361514 0
-0.03032401 -0.24827662 0.0015818027 0
-0.03033918 -0.24833769 0.004610552 0
-0.030265816 -0.24862866 0.0060007907 0
-0.029940763 -0.24853377 -0.0059992094 0
-0.028737113 -0.24720372 -0.0053703957 0
-0.029586785 -0.2468196 -0.0014718294 0
-0.029599885 -0.24684541 0.0016901696 0
-0.029514674 -0.24670862 0.0044926759 0
-0.028360488 -0.24748302 0.0060007973 0
-0.026125692 -0.24779619 -0.0059991982 0
-0.025516668 -0.24769399 -0.0058346926 0
-0.024067899 -0.24857989 -0.0011543283 0
-0.024099993 -0.24877898 0.0013436883 0
-0.024552844 -0.24855943 0.0050312351 0
-0.025484957 -0.24750116 0.0060008052 0
-0.023011705 -0.2470116 -0.0059991898 0
-0.023306902 -0.24740493 -0.0046708682 0
-0.023317277 -0.24748628 -0.0014723291 0
-0.023354473 -0.24746737 0.001406988 0
-0.023212934 -0.2474077 0.0045195017 0
-0.023528736 -0.2469119 0.006000808 0
0.03290255 -0.24735585 -0.0045252121 0
0.03290002 -0.24759166 -0.0016495935 0
0.032900028 -0.24745522 0.0014454112 0
0.032899976 -0.24742769 0.0046058116 0
0.034520585 -0.24749459 -0.0059989835 0
0.034629472 -0.24723287 0.0060010199 0
0.034564633 -0.247513 0.006001025 0
0.037815757 -0.24748963 -0.0051270849 0
0.038300034 -0.24756223 -0.0016128678 0
0.038300015 -0.24762309 0.001548404 0
0.038300008 -0.24759552 0.0044765621 0
0.037070476 -0.24749202 0.0060010338 0
-0.02826225 -0.24468759 -0.0049524838 0
-0.028420931 -0.24451524 -0.0014892595 0
-0.028390421 -0.24445485 0.0016148676 0
-0.028447466 -0.24456762 0.0044872207 0
-0.027903847 -0.24491063 0.0060007847 0
-0.024056496 -0.243976 -0.0059992042 0
-0.025525004 -0.24458832 -0.0059992117 0
-0.024725311 -0.24547482 0.0060007987 0
-0.025429698 -0.24450859 0.0060007963 0
-0.022947174 -0.24418981 -0.0059991996 0
-0.02210179 -0.24460068 -0.0051126597 0
-0.02180358 -0.24475779 -0.0012736104 0
-0.021793665 -0.24473709 0.0013687927 0
-0.021786585 -0.2450594 0.0044584675 0
-0.022858145 -0.24446979 0.0060008019 0
-0.020750569 -0.24343418 -0.0045176228 0
-0.020803999 -0.2434523 -0.001746146 0
-0.020772882 -0.24342734 0.001972178 0
-0.020749243 -0.24343511 0.0045944033 0
-0.020992948 -0.24358127 0.0060008061 0
0.03290204 -0.24454425 -0.0046369773 0
0.032900006 -0.24445319 -0.0014638575 0
0.032899998 -0.24455455 0.0016219948 0
0.032899987 -0.24439979 0.0044807061 0
0.032953974 -0.2446477 0.0060010049 0
0.034442678 -0.24449773 -0.0059989952 0
0.034509838 -0.24482436 0.0060010105 0
0.034574836 -0.24445985 0.0060010147 0
0.037878357 -0.2444012 -0.0051402738 0
0.038300026 -0.24444728 -0.0015169482 0
0.038300015 -0.24464999 0.0014701358 0
0.038300004 -0.24451299 0.0046141283 0
0.037148297 -0.24464278 0.0060010226 0
-0.027312003 -0.24234863 -0.0044140629 0
-0.027350863 -0.24240021 -0.0014157721 0
-0.027305039 -0.24230962 0.0012741201 0
-0.0273649 -0.24242792 0.0044935127 0
-0.027140114 -0.24262129 0.0060007805 0
-0.025691163 -0.24130027 -0.0055497736 0
-0.026510451 -0.24073911 -0.0015126922 0
-0.02657319 -0.24086307 0.0014447557 0
-0.026569642 -0.24085605 0.004579348 0
-0.025503902 -0.24171022 0.0060007861 0
-0.022062179 -0.24137737 -0.005999207 0
-0.022395905 -0.24133493 -0.0059992117 0
-0.021308647 -0.24274036 -0.00023903673 0
-0.021256682 -0.24252348 0.00018275043 0
-0.022534512 -0.2418818 0.006000794 0
-0.022708097 -0.24163097 0.0060007963 0
-0.019897334 -0.24034594 -0.0059992028 0
-0.019712411 -0.24138714 -0.004879945 0
-0.019817026 -0.24136826 -0.0013810204 0
-0.019769982 -0.24142638 0.0016190194 0
-0.019603735 -0.24155836 0.0045781913 0
-0.020152183 -0.24112782 0.0060007982 0
0.032903228 -0.24156167 -0.0046775294 0
0.032900032 -0.24153352 -0.0015257681 0
0.032899987 -0.24171039 0.0016699152 0
0.032900002 -0.24144071 0.0044661858 0
0.032933354 -0.24137513 0.0060009933 0
0.034443777 -0.24165015 -0.005999004 0
0.034501545 -0.2414721 0.0060010022 0
0.037744503 -0.24149342 -0.0051410561 0
0.03830003 -0.2415272 -0.0016078454 0
0.038300019 -0.24150415 0.0015114024 0
0.038300004 -0.24134439 0.0046031517 0
0.037036896 -0.24147907 0.0060010119 0
-0.025152728 -0.23848966 -0.0050875554 0
-0.02533203 -0.23840998 -0.0016048579 0
-0.025319688 -0.23838551 0.0015245166 0
-0.0255128 -0.23876718 0.0044848942 0
-0.024691179 -0.23853081 0.006000773 0
-0.023062179 -0.23944375 -0.0059992173 0
-0.02264251 -0.23841295 -0.0059992215 0
-0.022506716 -0.23851444 0.006000787 0
-0.018542472 -0.23896985 -0.0059992024 0
-0.019176643 -0.23876591 -0.0055693961 0
-0.01874223 -0.23896953 -0.0010195104 0
-0.018762816 -0.23899005 0.001067498 0
-0.01830685 -0.23932679 0.0047426522 0
-0.019612901 -0.2384243 0.0060007959 0
-0.017358705 -0.23786321 -0.0046781008 0
-0.017392511 -0.23777476 -0.0020447979 0
-0.017525082 -0.23801011 0.0020020742 0
-0.017425984 -0.23806375 0.0042885141 0
-0.017652782 -0.23778982 0.0060007973 0
0.032901045 -0.23852438 -0.0046523907 0
0.032900017 -0.23835692 -0.0013684039 0
0.032900024 -0.23854895 0.0014685103 0
0.032900006 -0.23855375 0.0044161147 0
0.032927446 -0.23913805 0.0060009849 0
0.034345761 -0.23847912 -0.005999017 0
0.034472678 -0.23872283 0.0060009891 0
0.037784602 -0.23851195 -0.0051517645 0
0.038300026 -0.23842746 -0.0015212955 0
0.038300019 -0.23834087 0.0015431005 0
0.0383 -0.23848966 0.0045377044 0
0.037338249 -0.23854181 0.0060009998 0
-0.024265893 -0.2363748 -0.0047655501 0
-0.024239955 -0.23625152 -0.0015172483 0
-0.024293184 -0.23635671 0.0015446413 0
-0.024313435 -0.23639664 0.0045806109 0
-0.02418193 -0.23645738 0.0060007689 0
-0.022980385 -0.23529574 -0.0053832582 0
-0.023583546 -0.23495407 -0.001428515 0
-0.023527415 -0.23484305 0.0014387573 0
-0.02360113 -0.23498879 0.0046402188 0
-0.02224963 -0.23554976 0.0060007744 0
-0.019536663 -0.23543434 -0.0059992233 0
-0.018286791 -0.23671913 -0.00021088909 0
-0.018331027 -0.23675907 0.00018847403 0
-0.019005032 -0.23592101 0.0060007847 0
-0.019403331 -0.23549241 0.0060007847 0
-0.016771348 -0.23600866 -0.0059992066 0
-0.016212856 -0.23533159 -0.0051229051 0
-0.016471509 -0.23539206 -0.0015262837 0
-0.016581567 -0.23543708 0.0013522406 0
-0.015811846 -0.23543431 0.0045121335 0
-0.016831551 -0.23528586 0.0060007921 0
-0.014959903 -0.23407784 -0.0049573313 0
-0.014931602 -0.23403206 -0.0026579944 0
-0.014938609 -0.23404333 0.002610327 0
-0.014974373 -0.23410113 0.003303231 0
0.032903489 -0.23545213 -0.0045858235 0
0.032900013 -0.23543827 -0.0016652512 0
0.032900009 -0.23548274 0.0014453956 0
0.032900009 -0.2353605 0.0043675033 0
0.034521114 -0.2346317 -0.0059990264 0
0.034701005 -0.23548664 -0.0059990259 0
0.034428865 -0.23566051 0.0060009821 0
0.037807308 -0.23555258 -0.0052542305 0
0.03830003 -0.23565124 -0.0013681011 0
0.038300019 -0.23548627 0.0014431247 0
0.038300008 -0.23538159 0.0045478703 0
0.037235346 -0.23579279 0.0060009905 0
-0.022222238 -0.23268081 -0.0049772002 0
-0.022332218 -0.23248085 -0.0014290957 0
-0.022292804 -0.23240289 0.0014842947 0
-0.022314643 -0.23244606 0.0043864036 0
-0.021777073 -0.23301142 0.0060007637 0
-0.019563537 -0.23256296 -0.0059992336 0
-0.019501759 -0.23203729 0.0060007689 0
-0.019446062 -0.23237716 0.0060007754 0
-0.017832138 -0.23341797 -0.0059992201 0
-0.016281154 -0.23245981 -0.005999221 0
-0.015851175 -0.23293141 -0.00072788814 0
-0.015590394 -0.23252948 0.00078661437 0
-0.015993778 -0.23202492 0.0060007819 0
-0.016657891 -0.23251317 0.0060007861 0
-0.013950404 -0.23228209 -0.0047091548 0
-0.014302198 -0.23224467 -0.0020357464 0
-0.014182183 -0.23232177 0.0022541715 0
-0.014110623 -0.23270503 0.0046047466 0
-0.014480852 -0.23218398 0.0060007866 0
0.032901138 -0.23233891 -0.0045653125 0
0.032900009 -0.23255379 -0.0014304592 0
0.032899987 -0.23242094 0.0015169068 0
0.032899998 -0.23229899 0.0046425983 0
0.032970391 -0.23357916 0.0060009649 0
0.035047587 -0.23173951 -0.0059990347 0
0.034482375 -0.23265292 -0.0059990371 0
0.035839379 -0.23144685 0.0060009672 0
0.034521118 -0.23257498 0.006000971 0
0.037847318 -0.23252979 -0.0051447963 0
0.038300026 -0.23238429 -0.0013874766 0
0.038300019 -0.23243096 0.0013854937 0
0.038288198 -0.23260653 0.0044857045 0
0.03718099 -0.23257308 0.0060009765 0
-0.021259636 -0.23040853 -0.0044691814 0
-0.021381786 -0.23060226 -0.0014570326 0
-0.021276269 -0.23039371 0.0015108981 0
-0.021326173 -0.23049225 0.0046018441 0
-0.021227056 -0.23061787 0.0060007581 0
-0.01976338 -0.22924471 -0.005401487 0
-0.020531092 -0.22892088 -0.0013763227 0
-0.020598682 -0.22905442 0.0014489269 0
-0.020527937 -0.22897661 0.0045600533 0
-0.019472135 -0.22964454 0.0060007633 0
-0.016828366 -0.2280564 -0.0059992359 0
-0.016433835 -0.22949609 -0.0059992317 0
-0.015286744 -0.23068048 -0.00015211284 0
-0.015260879 -0.23076306 0.00022137027 0
-0.017087769 -0.22808968 0.0060007633 0
-0.016421081 -0.22956076 0.0060007758 0
-0.013207576 -0.22976175 -0.0052672666 0
-0.013366775 -0.22954623 -0.0015166507 0
-0.013444208 -0.22945598 0.0013843001 0
-0.012566526 -0.23011 0.0045338664 0
-0.013489728 -0.22922592 0.0060007824 0
-0.01158817 -0.22862272 -0.0047059697 0
-0.011751071 -0.22844326 -0.0025658368 0
-0.011684953 -0.22824736 0.0025230153 0
-0.011639519 -0.22871095 0.0045834212 0
-0.011764714 -0.22833861 0.0060007842 0
0.032914091 -0.22862147 -0.0059990538 0
0.032901123 -0.22943932 -0.0045974725 0
0.03290002 -0.22943391 -0.0014499173 0
0.032899998 -0.22950986 0.0014034439 0
0.032899987 -0.22942178 0.0046000113 0
0.032969944 -0.22984166 0.0060009514 0
0.034927398 -0.23067516 -0.0059990389 0
0.034605253 -0.22952157 -0.0059990487 0
0.035812713 -0.23081422 0.0060009644 0
0.034511194 -0.22956476 0.0060009612 0
0.037818115 -0.22949646 -0.0049949866 0
0.038300022 -0.22969681 -0.0012678242 0
0.038300019 -0.22957079 0.0014867306 0
0.038288496 -0.22938251 0.0044688904 0
0.037119541 -0.22935133 0.0060009654 0
-0.019104134 -0.22654417 -0.0050573731 0
-0.019279748 -0.22644754 -0.0015035676 0
-0.019314513 -0.22651625 0.0014337793 0
-0.019197816 -0.22628556 0.0046929885 0
-0.018696083 -0.22702657 0.0060007535 0
-0.016710641 -0.2264435 -0.0059992457 0
-0.017515235 -0.2257935 0.0060007535 0
-0.016436441 -0.22651151 0.0060007628 0
-0.013359104 -0.22648719 -0.0059992331 0
-0.012681616 -0.22672713 -0.00075471675 0
-0.012661336 -0.22674203 0.00078408787 0
-0.013678769 -0.22742556 0.0060007735 0
-0.013441048 -0.22640479 0.0060007744 0
-0.010605733 -0.22647236 -0.0050522233 0
-0.011165497 -0.22633128 -0.002070324 0
-0.010942894 -0.2261862 0.0022209876 0
-0.010238661 -0.22642076 0.0045346743 0
-0.010888511 -0.22619732 0.0060007782 0
0.032903228 -0.22647759 -0.0044993316 0
0.032900013 -0.22654541 -0.0015814423 0
0.032900006 -0.22655919 0.0016773 0
0.032900002 -0.22639214 0.004582902 0
0.032961652 -0.22590737 0.006000937 0
0.033397026 -0.22569625 -0.0059990622 0
0.034425307 -0.22647251 -0.005999059 0
0.033724725 -0.22663251 0.0060009426 0
0.034609087 -0.22654572 0.0060009495 0
0.036278516 -0.22561678 -0.0059990524 0
0.037746802 -0.22656412 -0.0053053093 0
0.03830003 -0.22646767 -0.0014743836 0
0.038300015 -0.22660041 0.0014554177 0
0.038204193 -0.22672789 0.0047149942 0
0.03732942 -0.22655442 0.0060009556 0
-0.018245662 -0.22442999 -0.0046268892 0
-0.018284928 -0.2244813 -0.0014189882 0
-0.018281432 -0.2244744 0.0014337492 0
-0.01827665 -0.22446486 0.0045269881 0
-0.018096628 -0.22439243 0.0060007465 0
-0.01690075 -0.22333387 -0.0052893329 0
-0.017496381 -0.2229227 -0.0016203705 0
-0.017494073 -0.22291814 0.001509983 0
-0.017445618 -0.22282235 0.0042921794 0
-0.016267495 -0.22352001 0.0060007558 0
-0.014662833 -0.22359915 -0.0059992443 0
-0.013555412 -0.22343254 -0.0059992447 0
-0.012142072 -0.22464284 -0.00023848856 0
-0.012149293 -0.2246042 0.00021323033 0
-0.014665379 -0.22213928 0.0060007507 0
-0.013476588 -0.22358461 0.0060007642 0
-0.010178873 -0.22367676 -0.0056559443 0
-0.010449778 -0.22351491 -0.001359435 0
-0.010396017 -0.22351356 0.0014140743 0
-0.0091534583 -0.22468048 0.0042085713 0
-0.010466147 -0.22344127 0.0060007749 0
-0.0083715729 -0.22325423 -0.0046420852 0
-0.0086821038 -0.22262138 -0.0026744765 0
-0.0086044418 -0.22253357 0.0027092339 0
-0.0082314154 -0.22315043 0.0044087758 0
-0.0084346402 -0.2229035 0.0060007768 0
0.032905284 -0.2243557 -0.004678023 0
0.032900132 -0.22436206 -0.0015861011 0
0.032901064 -0.22446388 0.0014411145 0
0.032902561 -0.22422183 0.0044732937 0
0.034240302 -0.22449419 -0.0059990641 0
0.034579504 -0.2239335 -0.004938798 0
0.034541447 -0.22369978 -0.0016551124 0
0.034691945 -0.22369979 0.0013540282 0
0.034517352 -0.22370784 0.004433326 0
0.034458239 -0.22437134 0.0060009356 0
0.036802717 -0.22394891 -0.0059990566 0
0.03745158 -0.22403938 -0.0047916882 0
0.037415989 -0.22390532 -0.0015166235 0
0.037515603 -0.22390498 0.0015420476 0
0.037554443 -0.22388937 0.0046516838 0
0.037466649 -0.22446561 0.0060009472 0
-0.016075898 -0.22053412 -0.0049427273 0
-0.016263647 -0.22048627 -0.0015535731 0
-0.016220419 -0.22040071 0.0013914467 0
-0.01630144 -0.22062099 0.0046579493 0
-0.01569513 -0.22083689 0.0060007423 0
-0.012480603 -0.22179978 -0.0059992429 0
-0.013530861 -0.22041044 -0.0059992555 0
-0.014629547 -0.22067322 0.0060007451 0
-0.013205023 -0.2204957 0.0060007526 0
-0.011624381 -0.22002654 -0.0059992461 0
-0.010599588 -0.2203117 -0.0059992447 0
-0.0097324047 -0.22107455 -0.00084068923 0
-0.0097224023 -0.22081165 0.00071902241 0
-0.010355173 -0.22050516 0.0060007661 0
-0.007154597 -0.22044495 -0.0050797858 0
-0.0079971002 -0.22029684 -0.0021820012 0
-0.0080813039 -0.2202685 0.0020850082 0
-0.0067936694 -0.22064154 0.0043184496 0
-0.0077338782 -0.22052634 0.006000773 0
-0.0058097541 -0.2192854 -0.0051083495 0
-0.0058600749 -0.21933262 0.0045470428 0
-0.0058969907 -0.21916439 0.0060007721 0
-0.015394303 -0.21895359 -0.0059992638 0
-0.015219464 -0.21843483 -0.0043193093 0
-0.015211442 -0.21840654 -0.0015566053 0
-0.015210856 -0.21840537 0.0012831039 0
-0.015258593 -0.21849962 0.0045684371 0
-0.01521177 -0.218918 0.0060007377 0
-0.013528978 -0.21789519 -0.0059992606 0
-0.013874481 -0.2172724 -0.0053462842 0
-0.014502382 -0.21700503 -0.0013695885 0
-0.014512843 -0.21702568 0.0014044197 0
-0.014474079 -0.21702065 0.0046283775 0
-0.013350577 -0.21755122 0.0060007405 0
-0.011242795 -0.21712686 -0.005999255 0
-0.01049736 -0.21758167 -0.0059992559 0
-0.0091072666 -0.2185061 -0.00016477745 0
-0.0093194526 -0.21875347 7.9419202e-05 0
-0.011323972 -0.21822798 0.0060007484 0
-0.010352045 -0.21752445 0.0060007544 0
-0.0075753108 -0.21768825 -0.005928535 0
-0.007493915 -0.21760798 -0.0013231937 0
-0.0073246416 -0.21769556 0.0015383546 0
-0.0060547423 -0.21864845 0.0032909613 0
-0.0074091875 -0.21757914 0.0060007656 0
-0.0048839934 -0.21725571 -0.0048777852 0
-0.0056957137 -0.21668981 -0.0026562873 0
-0.005725421 -0.21677805 0.0026728313 0
-0.0048069526 -0.21732171 0.0044661579 0
-0.0051433705 -0.21705993 0.0060007651 0
-0.013325845 -0.21488661 -0.0059992708 0
-0.013114086 -0.21463791 -0.0049790167 0
-0.013217621 -0.21446577 -0.0014870395 0
-0.013280168 -0.21458927 0.0015821572 0
-0.01318655 -0.21445127 0.0044455398 0
-0.012665068 -0.21501629 0.0060007321 0
-0.010296897 -0.21484746 -0.0059992601 0
-0.010532784 -0.21456842 -0.0059992657 0
-0.010585944 -0.21434279 0.0060007419 0
-0.008780391 -0.21414857 -0.0059992569 0
-0.0075432919 -0.21445642 -0.005999255 0
-0.0067077242 -0.21495475 -0.00076541217 0
-0.0066384962 -0.21466851 0.00069116597 0
-0.0074099763 -0.21440554 0.0060007544 0
-0.0040218979 -0.21474186 -0.0049957605 0
-0.0050145932 -0.21422896 -0.0020908711 0
-0.0051745768 -0.21450706 0.0020733227 0
-0.0036924246 -0.21486686 0.0039492645 0
-0.0046899705 -0.21439581 0.0060007647 0
-0.0024764261 -0.21369116 -0.0050029443 0
-0.0024252757 -0.21363737 0.0048775515 0
-0.0026056671 -0.21358952 0.0060007642 0
-0.01223828 -0.21253006 -0.0045975009 0
-0.012239401 -0.21253227 -0.0014902754 0
-0.012240865 -0.2125351 0.0011036262 0
-0.012220922 -0.21251847 0.0044535822 0
-0.012255646 -0.21257684 0.0060007256 0
-0.011074331 -0.21249114 -0.0059992713 0
-0.010957946 -0.21130283 -0.0052732625 0
-0.011454593 -0.21098104 -0.001291248 0
-0.011503029 -0.21107674 0.0015668748 0
-0.011406753 -0.21096781 0.0044965581 0
-0.010132123 -0.21158746 0.0060007344 0
-0.0073596644 -0.2116309 -0.005999261 0
-0.0076151937 -0.21156628 -0.0059992662 0
-0.0062314714 -0.21271776 -0.00010855116 0
-0.0061866501 -0.21280609 0.0001996045 0
-0.0074029933 -0.21167837 0.0060007446 0
-0.0044425316 -0.21166195 -0.005872265 0
-0.0044234078 -0.2115622 -0.0013312986 0
-0.0041568913 -0.21146682 0.0015509755 0
-0.0030058208 -0.21264289 0.00329781 0
-0.0044178711 -0.21153623 0.006000754 0
-0.0016266886 -0.21132594 -0.0051274211 0
-0.0026569657 -0.21045096 -0.0025348109 0
-0.0025962512 -0.2104886 0.002616114 0
-0.0015120421 -0.21149786 0.0044429889 0
-0.001940881 -0.21129714 0.0060007605 0
-0.0099995825 -0.20858429 -0.004959323 0
-0.010142153 -0.20838699 -0.001637456 0
-0.010176159 -0.20845421 0.0014529964 0
-0.010188786 -0.20849797 0.0045697731 0
-0.0096645998 -0.20906384 0.0060007204 0
-0.0083807502 -0.20876522 -0.005999275 0
-0.0076242331 -0.2085558 -0.0059992773 0
-0.007981766 -0.20716293 0.0060007204 0
-0.0074038571 -0.20854692 0.0060007316 0
-0.0047676782 -0.20808931 -0.0059992643 0
-0.0044651884 -0.20846899 -0.0059992634 0
-0.0036343758 -0.20888942 -0.0007664265 0
-0.0037224595 -0.20877899 0.00062389404 0
-0.0045702821 -0.20854634 0.0060007428 0
-0.00086758489 -0.20991576 -0.0059992438 0
-0.0011169926 -0.20849083 -0.0050174985 0
-0.0021152282 -0.2085436 -0.0021104047 0
-0.0019473836 -0.20812492 0.0020676777 0
-0.00080710591 -0.20902951 0.0036661893 0
-0.0015254052 -0.20835924 0.0060007535 0
0.00072427694 -0.20809302 -0.0052112667 0
0.00071345753 -0.20813927 0.0048853396 0
0.00064514077 -0.2078463 0.0060007535 0
-0.0092336945 -0.20662048 -0.0045672646 0
-0.009193725 -0.20651244 -0.0015216974 0
-0.009186944 -0.206499 0.0016898167 0
-0.0092050377 -0.20653473 0.0044958638 0
-0.0092012985 -0.20682187 0.0060007153 0
-0.0075957212 -0.20579652 -0.0059992829 0
-0.0078836782 -0.20541966 -0.005272225 0
-0.0085215056 -0.20518383 -0.0014796787 0
-0.008419794 -0.20498276 0.0016099586 0
-0.0083772186 -0.20510396 0.0046165683 0
-0.0072512114 -0.20557709 0.0060007218 0
-0.0048341742 -0.20506293 -0.0059992759 0
-0.0043885466 -0.20553218 -0.0059992769 0
-0.0031185618 -0.20666759 -0.00015680607 0
-0.0030564924 -0.20668806 0.00023071782 0
-0.0043703835 -0.20549797 0.0060007325 0
-0.00060543529 -0.20647998 -0.0059992555 0
-0.0014129201 -0.2054494 -0.005896396 0
-0.0013354281 -0.20554836 -0.0013729945 0
-0.0013018847 -0.20559594 0.0014321242 0
-0.00026733821 -0.20672323 0.0041863243 0
-0.001433022 -0.20538026 0.0060007428 0
0.0011099135 -0.20505355 -0.0059992541 0
0.0016043871 -0.20544684 -0.0050197691 0
0.00028746412 -0.2047298 -0.0025812392 0
0.0002975761 -0.20473944 0.002597746 0
0.0015993732 -0.20556049 0.0043928232 0
0.0013404978 -0.20549069 0.0060007521 0
0.0032530921 -0.2040323 -0.0059992503 0
0.0030996802 -0.20463836 -0.0056288643 0
0.0032535547 -0.20449387 0.0055848183 0
0.0031546343 -0.20438291 0.0060007516 0
-0.0067885737 -0.20291199 -0.0059992909 0
-0.0070321728 -0.20252413 -0.0048006764 0
-0.0070844274 -0.20234342 -0.0014202783 0
-0.0071547609 -0.20248242 0.0015219705 0
-0.0072590723 -0.20271385 0.0043402831 0
-0.0066453214 -0.20294914 0.0060007097 0
-0.0055276132 -0.20347179 -0.0059992839 0
-0.0044765864 -0.20244488 -0.0059992881 0
-0.0042078267 -0.20219786 0.0060007162 0
-0.0043080952 -0.20250474 0.0060007218 0
-0.0024879915 -0.2029518 -0.0059992746 0
-0.0015534477 -0.20234823 -0.0059992769 0
-0.00076177198 -0.20278807 -0.00054846628 0
-0.00069252128 -0.20281582 0.00063322636 0
-0.0015631511 -0.2024554 0.0060007325 0
0.0018462741 -0.2026716 -0.0050461865 0
0.001060977 -0.20223428 -0.0020906616 0
0.00097747869 -0.20241715 0.0021013026 0
0.0023839748 -0.20271005 0.0037111081 0
0.001515353 -0.20237064 0.0060007409 0
0.0038469613 -0.20218003 -0.005279649 0
0.0039526178 -0.20226488 0.0050823106 0
0.003913688 -0.20218028 0.0060007442 0
-0.0061951969 -0.20058583 -0.0048337821 0
-0.0062086927 -0.20057568 -0.0016649901 0
-0.0061628884 -0.20052193 0.0015744524 0
-0.0062156878 -0.20062627 0.0043202406 0
-0.006166141 -0.20061125 0.0060007041 0
-0.004744784 -0.19982618 -0.0049673328 0
-0.0048654722 -0.19989793 -0.0015181208 0
-0.00477958 -0.19995631 0.0014073963 0
-0.0049411594 -0.19996399 0.0045547374 0
-0.0045883521 -0.19975443 0.0060007065 0
-0.0021583855 -0.20027868 -0.0059992834 0
-0.0015602517 -0.19993553 -0.0050527775 0
-0.0014575731 -0.20020989 -0.0015741441 0
-0.0015417082 -0.20020007 0.0014368746 0
-0.0014734882 -0.20020251 0.004626736 0
-0.001780919 -0.19958168 0.0060007158 0
0.0020239884 -0.19858591 -0.0059992741 0
0.0015598132 -0.19999975 -0.0051079406 0
0.0014290801 -0.20032705 -0.0017429941 0
0.0013796316 -0.20029454 0.0018200112 0
0.0013925025 -0.20018186 0.0042949719 0
0.0014995734 -0.19980197 0.0060007302 0
0.0050618947 -0.20062095 -0.0059992559 0
0.0043858327 -0.20005757 -0.0050649601 0
0.0045069987 -0.20020007 -0.0015597935 0
0.0044237282 -0.20020007 0.0015434219 0
0.0042635626 -0.20030105 0.004655472 0
0.0043108156 -0.19968641 0.0060007372 0
0.0060000154 -0.19909672 -0.0044916687 0
0.0060000038 -0.19917512 -0.0014782753 0
0.0059999945 -0.19923797 0.0012957187 0
0.0059999828 -0.19900461 0.0044931555 0
-0.0059999828 -0.19645686 -0.0048919972 0
-0.0052709635 -0.1963764 -0.0052213781 0
-0.0059999935 -0.19638838 -0.001394882 0
-0.0060000052 -0.1964744 0.0015820143 0
-0.0060000145 -0.19656412 0.0045330431 0
-0.0046448745 -0.19639091 0.006000693 0
-0.001488873 -0.19627415 -0.0059992936 0
-0.0014736302 -0.19638067 0.0060007046 0
0.0029421616 -0.19562945 -0.0059992815 0
0.0013638977 -0.19652072 -0.005999282 0
0.0017457247 -0.19628759 0.0060007158 0
0.0056731026 -0.19607003 -0.0059992704 0
0.0044784253 -0.19640341 -0.0059424746 0
0.0039284625 -0.19663695 0.006000726 0
0.0045548193 -0.19647911 0.0060007279 0
0.0060000154 -0.19671395 -0.0043818508 0
0.0060000042 -0.19640005 -0.0014382588 0
0.005999994 -0.19651079 0.001277808 0
0.0059999842 -0.19641154 0.0043877531 0
-0.0059999921 -0.19345878 -0.0023520356 0
-0.0053323098 -0.19346415 -0.0052188877 0
-0.005999994 -0.19366387 -0.0014844468 0
-0.0060000047 -0.19352044 0.0014436767 0
-0.006000015 -0.19363821 0.004372756 0
-0.0042948443 -0.1934672 0.0060006841 0
-0.0015369058 -0.19348827 -0.0059993039 0
-0.0013506783 -0.19354585 0.0060006958 0
0.0013591695 -0.1936025 -0.0059992941 0
0.0015854274 -0.19380622 0.0060007065 0
0.0043443148 -0.1935726 -0.0059992839 0
0.0045856186 -0.19348027 -0.0057111625 0
0.0060000089 -0.19420676 -0.0024862608 0
0.0044396711 -0.19345929 0.0060007153 0
0.0060000136 -0.19346438 -0.0041143019 0
0.0060000047 -0.19361125 -0.0014859169 0
0.0059999926 -0.19362615 0.0016958023 0
0.0059999833 -0.19334793 0.0046080938 0
-0.0059999833 -0.19036986 -0.0047808131 0
-0.0052907332 -0.19050457 -0.0053023384 0
-0.0059999935 -0.19036482 -0.0013726586 0
-0.0060000038 -0.19070731 0.0014506741 0
-0.0060000159 -0.19081604 0.0045707701 0
-0.0043064528 -0.19061379 0.0060006753 0
-0.0015246478 -0.19046174 -0.0059993146 0
-0.0013852697 -0.19018257 0.0060006818 0
0.0019407322 -0.19066542 -0.0059993034 0
0.0014054971 -0.19066761 -0.0059993034 0
0.0023792137 -0.19020687 0.0060006967 0
0.0013232671 -0.19061711 0.0060006934 0
0.0051137074 -0.18973123 -0.005999295 0
0.0046184584 -0.19053786 -0.0059577283 0
0.0050099152 -0.19034141 0.0060007069 0
0.0044164979 -0.19065198 0.0060007046 0
0.0060000154 -0.19046435 -0.0044626589 0
0.0060000042 -0.19055288 -0.0015200805 0
0.005999994 -0.19060774 0.0014619054 0
0.0059999828 -0.19037272 0.0045577134 0
-0.0059999838 -0.18811433 -0.004599235 0
-0.0059999949 -0.18808311 -0.0016019051 0
-0.0050424649 -0.18742123 -0.0055347527 0
-0.005999994 -0.18755108 -0.0013406979 0
-0.0060000038 -0.18751156 0.0014356551 0
-0.0060000145 -0.18778624 0.0045121177 0
-0.0044266018 -0.18773457 0.0060006622 0
-0.0014815395 -0.18748885 -0.0059993253 0
-0.0015891299 -0.1875466 0.006000672 0
0.0014545638 -0.1875557 -0.0059993146 0
0.0026594952 -0.18604083 0.0060006827 0
0.0012172181 -0.18757609 0.0060006822 0
0.0044208621 -0.18833724 -0.005999303 0
0.0047987993 -0.18741795 -0.0059636682 0
0.006000008 -0.18805838 -0.0022542144 0
0.0040293471 -0.18786578 0.0060006939 0
0.0044628382 -0.18749391 0.0060006939 0
0.0060000159 -0.18752892 -0.0045792293 0
0.0060000042 -0.18746829 -0.0015185884 0
0.0059999945 -0.18759646 0.0011646781 0
0.0059999814 -0.18743932 0.0047332929 0
-0.0059999852 -0.18361051 -0.0042383652 0
-0.005999994 -0.18492019 -0.0018160579 0
-0.0053893081 -0.18432672 -0.0052870922 0
-0.0059999931 -0.18470378 -0.0014994076 0
-0.0060000038 -0.18443611 0.001422699 0
-0.006000015 -0.18450356 0.0044686794 0
-0.0045782248 -0.18466552 0.0060006506 0
-0.0015468202 -0.18453547 -0.005999336 0
-0.0012515348 -0.18449196 0.0060006618 0
0.0017933955 -0.18396513 -0.0059993281 0
0.0016748833 -0.18435924 -0.0059993248 0
0.0022938366 -0.18420474 0.0060006748 0
0.0014395772 -0.1844535 0.0060006715 0
0.003736499 -0.18367602 -0.005999322 0
0.0045311209 -0.18474908 -0.0059223538 0
0.0060000103 -0.18436636 -0.0029457172 0
0.0047186166 -0.18554722 0.0060006883 0
0.0045709512 -0.18432255 0.0060006827 0
0.0060000154 -0.18436608 -0.0046121632 0
0.0060000038 -0.18474557 -0.0014111972 0
0.0059999926 -0.18431611 0.0016467954 0
0.0059999833 -0.18473832 0.0045560156 0
-0.0059999842 -0.18181054 -0.004497597 0
-0.004929808 -0.18170604 -0.0053819581 0
-0.005999994 -0.18156345 -0.0014905431 0
-0.0060000052 -0.18153924 0.0016025031 0
-0.006000015 -0.18147686 0.00442363 0
-0.0045785047 -0.18160631 0.0060006408 0
-0.0016709541 -0.181632 -0.0059993472 0
-0.0015392289 -0.18145512 0.0060006501 0
0.0010530114 -0.18191493 -0.0059993383 0
0.0014517693 -0.18130028 -0.0059993379 0
0.0014465245 -0.18153135 0.0060006608 0
0.0043994454 -0.18190444 -0.0059993262 0
0.0046909549 -0.18154122 -0.0059446055 0
0.006000008 -0.18253759 -0.0023348981 0
0.0036763151 -0.18172303 0.0060006711 0
0.0044142078 -0.18148576 0.0060006715 0
0.0060000154 -0.18159465 -0.0046061976 0
0.0060000042 -0.18157175 -0.0014792719 0
0.0059999949 -0.18125175 0.0014466528 0
0.0059999833 -0.18172684 0.0043987529 0
-0.0059999833 -0.1779439 -0.0048012324 0
-0.0051779668 -0.17840479 -0.0053775948 0
-0.0059999945 -0.1785056 -0.001209871 0
-0.0060000038 -0.17833184 0.0014102063 0
-0.0060000154 -0.17833473 0.0046125888 0
-0.0043352633 -0.17859049 0.0060006292 0
-0.0014452814 -0.17829534 -0.0059993584 0
-0.0016955176 -0.17848054 0.0060006399 0
0.0015583194 -0.1783846 -0.0059993481 0
0.0024440405 -0.1783981 0.0060006543 0
0.0016433545 -0.17832251 0.0060006501 0
0.0040658126 -0.17820245 -0.0059993407 0
0.0043861535 -0.17844968 -0.0059524407 0
0.0045009293 -0.17859779 0.0060006627 0
0.0043658097 -0.17864293 0.0060006613 0
0.0060000164 -0.17855042 -0.0044481666 0
0.0060000042 -0.17853941 -0.0015091782 0
0.0059999935 -0.17851435 0.00135937 0
0.0059999838 -0.17873694 0.0043338249 0
-0.0059999814 -0.17655782 -0.0052397978 0
-0.0059999931 -0.17559384 -0.002046657 0
-0.0051760473 -0.17558172 -0.0054553435 0
-0.0059999954 -0.17540278 -0.0013198139 0
-0.0060000038 -0.1755421 0.0014547557 0
-0.0060000145 -0.17530903 0.0045121997 0
-0.0045330026 -0.17540936 0.0060006175 0
-0.001377329 -0.17544302 -0.0059993686 0
-0.0014316902 -0.17537096 0.0060006282 0
0.0011397123 -0.17419465 -0.0059993658 0
0.0016533871 -0.17555796 -0.005999357 0
0.0015516976 -0.1755949 0.0060006403 0
0.0048584309 -0.1758828 -0.0059993463 0
0.0047119977 -0.17540807 -0.0058419127 0
0.0060000094 -0.17444505 -0.0026978611 0
0.0045485348 -0.17583163 0.0060006524 0
0.0042900015 -0.17548226 0.0060006492 0
0.006000014 -0.17582887 -0.0042747576 0
0.0060000038 -0.17563345 -0.0013409402 0
0.0059999935 -0.17548047 0.0014088015 0
0.0059999824 -0.17570266 0.0044889073 0
-0.0059999842 -0.17304656 -0.004542266 0
-0.0059999968 -0.17148855 -0.0010625923 0
-0.0053940266 -0.17226124 -0.0051680054 0
-0.0059999931 -0.17262772 -0.0016069611 0
-0.0060000066 -0.17246048 0.0014571366 0
-0.0060000145 -0.17262582 0.0043714307 0
-0.0042442973 -0.1723285 0.0060006073 0
-0.0014159522 -0.17253461 -0.0059993793 0
-0.0015834372 -0.17225322 0.0060006171 0
0.00084227498 -0.17275272 -0.0059993719 0
0.0014708546 -0.17246816 -0.00599937 0
0.002232326 -0.17209172 0.0060006306 0
0.0015658773 -0.17256273 0.0060006296 0
0.0031867486 -0.17335425 -0.0059993612 0
0.004754676 -0.1723969 -0.0059009045 0
0.006000008 -0.17297478 -0.0023641796 0
0.0043743569 -0.1725363 0.0060006389 0
0.006000015 -0.17253159 -0.0043670419 0
0.0060000066 -0.17228892 -0.0016381735 0
0.005999994 -0.17238367 0.001548928 0
0.0059999824 -0.17224604 0.0045408676 0
-0.0059999814 -0.16979237 -0.0053193984 0
-0.0059999982 -0.17031306 -0.00059909601 0
-0.0051364866 -0.16945708 -0.0052870177 0
-0.005999994 -0.16958073 -0.0012576615 0
-0.0060000047 -0.16958651 0.0017113775 0
-0.006000015 -0.1692 0.004500756 0
-0.0043870439 -0.16962288 0.006000597 0
-0.0014008479 -0.16927207 -0.005999391 0
-0.0014452869 -0.16942538 0.0060006068 0
0.0017625551 -0.16946371 -0.0059993807 0
0.0015439873 -0.16964537 -0.0059993784 0
0.0023481345 -0.17025484 0.0060006245 0
0.0015481097 -0.16951643 0.006000618 0
0.0052773664 -0.16900992 -0.0059993695 0
0.0048175878 -0.1694766 -0.0059294985 0
0.0060000075 -0.16865455 -0.0021709229 0
0.004363447 -0.17029284 0.006000632 0
0.0043781577 -0.16927895 0.0060006273 0
0.006000014 -0.16949165 -0.0042413147 0
0.0060000038 -0.16966446 -0.0013879936 0
0.0059999926 -0.16953686 0.001534316 0
0.0059999819 -0.16953188 0.0045761163 0
-0.0059999879 -0.16590953 -0.0034100302 0
-0.0059999921 -0.16649573 -0.002374857 0
-0.0053898911 -0.16650012 -0.0052059605 0
-0.0059999935 -0.16641791 -0.0014160314 0
-0.0060000042 -0.16654377 0.0016044037 0
-0.006000015 -0.16663237 0.0044945613 0
-0.0044582039 -0.16659696 0.0060005854 0
-0.00011015386 -0.16572027 -0.0059994012 0
-0.0013681175 -0.16640837 -0.0059994012 0
-0.0015176216 -0.16654611 0.0060005961 0
0.002795914 -0.16613483 -0.0059993886 0
0.0015842548 -0.16639794 -0.0059993905 0
0.0014245533 -0.16658784 0.0060006077 0
0.004772556 -0.16635804 -0.0059993812 0
0.0045778765 -0.16627952 -0.0059566172 0
0.0031698246 -0.16589506 0.0060006119 0
0.0044752425 -0.16641803 0.0060006185 0
0.006000014 -0.16653895 -0.0042553036 0
0.0060000038 -0.16648108 -0.0014599251 0
0.0059999926 -0.16670506 0.001673963 0
0.0059999828 -0.16648982 0.0043561184 0
-0.0059999865 -0.16348326 -0.0038453953 0
-0.0054065133 -0.1636727 -0.0051611783 0
-0.0059999935 -0.16334067 -0.0016412559 0
-0.0060000042 -0.16334531 0.0016550468 0
-0.0060000154 -0.16364099 0.0046102069 0
-0.0046155429 -0.16332428 0.0060005733 0
-0.00021169304 -0.16329296 -0.0059994105 0
-0.0015936737 -0.16364898 -0.0059994129 0
-0.0012055987 -0.16351365 0.0060005863 0
0.0017405557 -0.16393493 -0.0059994007 0
0.0015709422 -0.1635838 -0.0059994003 0
0.0026779894 -0.16332005 0.0060006008 0
0.0015779772 -0.16362628 0.006000597 0
0.004568615 -0.16323003 -0.0059993928 0
0.0045601823 -0.16335464 -0.005957114 0
0.0060000066 -0.16209997 -0.0019375943 0
0.005373992 -0.16386531 0.0060006129 0
0.004651418 -0.1635332 0.0060006077 0
0.0060000159 -0.16343917 -0.0046203188 0
0.0060000038 -0.16369799 -0.0014501223 0
0.0059999945 -0.1636714 0.0011539055 0
0.0059999828 -0.16339937 0.0043350318 0
-0.0059999796 -0.16116312 -0.0057972847 0
-0.0052415463 -0.16044979 -0.0052148909 0
-0.0059999931 -0.16041021 -0.0015204506 0
-0.0060000047 -0.16043198 0.0017308702 0
-0.006000015 -0.16048296 0.0044790502 0
-0.0046081645 -0.16047609 0.006000564 0
-0.0015979408 -0.16048428 -0.0059994231 0
-0.0016785392 -0.16065429 0.0060005761 0
0.0018882572 -0.16089867 -0.005999411 0
0.0014676052 -0.1604508 -0.0059994129 0
0.0025294006 -0.1596746 0.0060005868 0
0.0014346631 -0.16072379 0.0060005854 0
0.0044991462 -0.16100518 -0.0059994012 0
0.0045591323 -0.16036956 -0.0059994021 0
0.0060000056 -0.16019449 -0.0016332674 0
0.0045980345 -0.16058932 0.0060005966 0
0.006000015 -0.16051611 -0.0044576209 0
0.0060000038 -0.16068909 -0.0014530979 0
0.0059999931 -0.16033527 0.0016014455 0
0.0059999824 -0.16059923 0.004516114 0
-0.0059999898 -0.1562397 -0.0030209853 0
-0.0060000019 -0.15745667 0.0003485549 0
-0.005337764 -0.15747249 -0.0052200695 0
-0.0059999954 -0.15756364 -0.0014129656 0
-0.0060000047 -0.15754767 0.0013232016 0
-0.0060000145 -0.15757658 0.0042520082 0
-0.0045707142 -0.15759923 0.0060005533 0
-0.00011922529 -0.15791543 -0.0059994292 0
-0.0016825196 -0.15727372 -0.0059994347 0
-0.001517558 -0.15740882 0.006000563 0
0.0015439887 -0.15737253 -0.005999424 0
0.0015526913 -0.15752818 0.0060005765 0
0.0046890588 -0.15747994 -0.0058645848 0
0.0058430517 -0.15706724 0.0060005891 0
0.0045997216 -0.15756279 0.0060005859 0
0.006000015 -0.15746133 -0.004515483 0
0.0060000047 -0.157524 -0.0016636483 0
0.0059999945 -0.15750051 0.0016014086 0
0.0059999824 -0.15734006 0.0045637917 0
-0.0059999931 -0.15552787 -0.0020658893 0
-0.0051138634 -0.1544538 -0.0054441686 0
-0.0059999935 -0.1545687 -0.0014351396 0
-0.006000008 -0.1545985 0.0015688327 0
-0.0060000154 -0.15436742 0.0046849805 0
-0.0046254732 -0.15451014 0.0060005412 0
-0.0014745784 -0.15444101 -0.0059994445 0
-0.0016204417 -0.15440194 0.0060005514 0
0.0015526825 -0.1542512 -0.0059994357 0
0.0016647138 -0.15495251 0.0060005668 0
0.001576865 -0.15456982 0.006000564 0
0.0044205114 -0.15429568 -0.0059994245 0
0.0060000047 -0.15512209 -0.0014593942 0
0.0043921098 -0.15434404 0.0060005747 0
0.0045324997 -0.15456401 0.0060005747 0
0.006000015 -0.15438394 -0.0045067365 0
0.0060000042 -0.15472639 -0.0015375846 0
0.0059999921 -0.15427464 0.0016944925 0
0.0059999824 -0.15454824 0.0044989558 0
-0.0052113077 -0.15125327 -0.0053085182 0
-0.0059999931 -0.1515072 -0.0015455001 0
-0.0060000042 -0.15153475 0.0014342335 0
-0.0060000173 -0.15140407 0.0046586213 0
-0.0045734262 -0.15171224 0.0060005309 0
-0.0015798816 -0.15158625 -0.0059994557 0
-0.0015372516 -0.15143844 0.0060005412 0
0.0013855025 -0.15168504 -0.0059994459 0
0.0021306376 -0.15175328 0.0060005574 0
0.001691091 -0.15154958 0.0060005533 0
0.0047655972 -0.1517445 -0.0059994319 0
0.0044774842 -0.15107676 0.006000563 0
0.0045361905 -0.15153342 0.0060005635 0
0.0060000159 -0.15152118 -0.0044004689 0
0.0060000033 -0.15140204 -0.0012365968 0
0.0059999963 -0.15160356 0.0014140261 0
0.0059999828 -0.15145575 0.0043471111 0
-0.0059999996 -0.14763938 -0.00020412725 0
-0.0054051555 -0.14869832 -0.0052146553 0
-0.0059999935 -0.14842942 -0.0014411473 0
-0.0060000056 -0.14827134 0.001717511 0
-0.0060000164 -0.14861353 0.0045771054 0
-0.0044947113 -0.14867465 0.0060005211 0
-0.001541944 -0.14843042 -0.0059994669 0
-0.0014049632 -0.14848492 0.0060005309 0
0.0012026584 -0.1473756 -0.0059994627 0
0.0013391306 -0.14841793 -0.0059994566 0
0.0025762583 -0.14887433 0.0060005477 0
0.0016215431 -0.14855824 0.0060005421 0
0.0048712851 -0.14839859 -0.0057286723 0
0.0060000061 -0.14733285 -0.0018376396 0
0.0059999954 -0.14913937 0.0011410761 0
0.0042450791 -0.14843933 0.0060005514 0
0.006000015 -0.14872184 -0.00451292 0
0.0060000042 -0.14842501 -0.0015114709 0
0.0059999935 -0.14858049 0.0014227774 0
0.0059999833 -0.14824505 0.0042645568 0
-0.0053054425 -0.1453961 -0.0051216888 0
-0.0059999931 -0.14541945 -0.0015680008 0
-0.0060000042 -0.14554739 0.0014942805 0
-0.0060000136 -0.1455911 0.0041330256 0
-0.0042407713 -0.14540303 0.0060005095 0
-0.0015459411 -0.14571752 -0.0059994766 0
-0.0012887972 -0.14532 0.0060005202 0
0.0015887831 -0.1454574 -0.0059994692 0
0.0017171915 -0.14494963 0.0060005304 0
0.0015474096 -0.14543045 0.0060005304 0
0.0047416086 -0.14546712 -0.0059994543 0
0.0044292868 -0.14539941 0.0060005412 0
0.006000014 -0.14536737 -0.0042808941 0
0.0060000038 -0.14541148 -0.0012805571 0
0.0059999935 -0.14539735 0.001462154 0
0.0059999828 -0.14567776 0.0046625584 0
-0.0059999945 -0.14128149 -0.0017009244 0
-0.0053089778 -0.14263874 -0.0052267513 0
-0.005999994 -0.14261411 -0.0013228742 0
-0.0060000028 -0.14233531 0.0012429361 0
-0.0060000173 -0.14255013 0.0047651236 0
-0.0044324757 -0.14266291 0.0060004997 0
-0.0014082459 -0.14157455 -0.0059994929 0
-0.0017427808 -0.14250641 -0.0059994892 0
-0.0012917315 -0.14279696 0.0060005109 0
0.0014995948 -0.14249636 -0.005999478 0
0.0012622832 -0.1426204 0.0060005202 0
0.0042940169 -0.14251636 -0.005922738 0
