# .PCD v0.7 - Point Cloud Data file format
VERSION 0.7
FIELDS x y z rgb
SIZE 4 4 4 4
TYPE F F F F
COUNT 1 1 1 1
WIDTH 1169
HEIGHT 1
VIEWPOINT 0 0 0 1 0 0 0
POINTS 1169
DATA ascii
0.0047084023 -0.14261849 0.010000529 0
0.0074319458 -0.14228724 -0.0099994559 0
0.0075131445 -0.14248739 0.010000541 0
0.0097054103 -0.14249763 -0.0097376807 0
0.010000024 -0.14236383 -0.007494655 0
0.010000017 -0.14253496 -0.0044005052 0
0.010000003 -0.14254996 -0.0014497662 0
0.0099999895 -0.14246468 0.0017978494 0
0.0099999812 -0.1421975 0.0045368234 0
0.0099999709 -0.142381 0.0074867229 0
0.0097009903 -0.14270993 0.0097687943 0
-0.0095537072 -0.13930066 -0.0098677902 0
-0.00999997 -0.13951701 -0.0076518003 0
-0.0099999839 -0.13924642 -0.0045009162 0
-0.0099999951 -0.1393981 -0.0011203162 0
-0.010000002 -0.1396628 0.0014025425 0
-0.010000017 -0.13971823 0.004424274 0
-0.010000026 -0.13961889 0.0077020805 0
-0.0097680036 -0.1394442 0.0096773356 0
-0.0076087886 -0.13962778 -0.0099995201 0
-0.0077436012 -0.13964207 0.010000476 0
-0.0044835517 -0.13963029 -0.0099995071 0
-0.004385516 -0.13959627 0.010000489 0
-0.0012678037 -0.13947667 -0.0099994969 0
-0.001434539 -0.13956526 0.010000498 0
0.0016108989 -0.13956022 -0.0099994875 0
0.0015396944 -0.13955271 0.010000508 0
0.0045686825 -0.13951567 -0.0099994764 0
0.0045885411 -0.13949731 0.010000519 0
0.007533473 -0.13961229 -0.0099994652 0
0.0073514483 -0.13958533 0.010000529 0
0.0097044213 -0.13921462 -0.0097781066 0
0.010000025 -0.13965784 -0.0076486054 0
0.010000017 -0.1391868 -0.0043787169 0
0.010000005 -0.13938856 -0.0013865762 0
0.0099999923 -0.13953927 0.0014282521 0
0.009999983 -0.13977911 0.0044575031 0
0.00999997 -0.13946079 0.0074814204 0
0.0095542707 -0.13961884 0.0098365471 0
-0.0096478211 -0.13656762 -0.0097903386 0
-0.0099999709 -0.13662323 -0.0075483294 0
-0.009999983 -0.13634984 -0.0044394457 0
-0.0099999923 -0.13651605 -0.0015832473 0
-0.010000003 -0.13652277 0.0014740198 0
-0.010000015 -0.13652287 0.0043985336 0
-0.010000025 -0.13644195 0.0074987081 0
-0.0097443769 -0.13608733 0.009774521 0
-0.0074708667 -0.13657221 -0.0099995313 0
-0.0076482021 -0.13660127 0.010000465 0
-0.0044581974 -0.13631071 -0.0099995211 0
-0.0044620032 -0.13660344 0.010000476 0
-0.0014601916 -0.1365822 -0.009999508 0
-0.0015414327 -0.13647284 0.010000484 0
0.0014863214 -0.13665196 -0.0099994959 0
0.0016789428 -0.13637096 0.010000496 0
0.0045157601 -0.13687029 -0.0099994866 0
0.0046258289 -0.13646413 0.010000508 0
0.0072233654 -0.13633199 -0.009999481 0
0.0073812478 -0.13646473 0.010000519 0
0.0097860042 -0.13643542 -0.0097390478 0
0.010000023 -0.13665235 -0.0075239958 0
0.010000015 -0.13632056 -0.0044870931 0
0.010000004 -0.13661514 -0.0015495573 0
0.0099999933 -0.1365312 0.0015344435 0
0.0099999821 -0.13667499 0.0043055196 0
0.0099999709 -0.13659659 0.0075678835 0
0.0098407594 -0.13620611 0.0095877135 0
-0.0097537432 -0.13325059 -0.0097467592 0
-0.009999969 -0.13363378 -0.0075764819 0
-0.0099999793 -0.13358626 -0.0045454828 0
-0.0099999914 -0.13337927 -0.0012827046 0
-0.010000003 -0.13351974 0.0014128583 0
-0.010000018 -0.13326041 0.0045041074 0
-0.010000025 -0.13349174 0.0074940622 0
-0.0096732369 -0.1333973 0.009891714 0
-0.0075526894 -0.13350394 -0.0099995406 0
-0.0075665344 -0.13354573 0.010000453 0
-0.0045221983 -0.13349926 -0.0099995313 0
-0.0046543516 -0.13360463 0.010000465 0
-0.0015474242 -0.13346945 -0.0099995183 0
-0.0014577357 -0.1333279 0.010000475 0
0.0015171829 -0.13352105 -0.009999509 0
0.0016697227 -0.13332322 0.010000485 0
0.00434276 -0.13351023 -0.0099994987 0
0.0047010905 -0.13348418 0.010000497 0
0.0077342256 -0.13330783 -0.0099994857 0
0.0072950646 -0.13350615 0.010000508 0
0.0098191956 -0.13355823 -0.0096913399 0
0.010000024 -0.13335562 -0.0073506334 0
0.010000014 -0.13351829 -0.0046431036 0
0.010000004 -0.13346465 -0.0014335334 0
0.0099999923 -0.13345 0.0016820928 0
0.0099999802 -0.13349892 0.0043927319 0
0.009999969 -0.13358119 0.0075146677 0
0.0098248878 -0.13365723 0.0097268354 0
-0.0098045524 -0.13060752 -0.0096426634 0
-0.00999997 -0.13057747 -0.0074166246 0
-0.009999983 -0.13044351 -0.0041452795 0
-0.0099999923 -0.13033529 -0.0014917202 0
-0.010000006 -0.13040033 0.0015977827 0
-0.010000015 -0.13075905 0.0045175073 0
-0.010000025 -0.1305611 0.0074288468 0
-0.0096608624 -0.13070373 0.0098145315 0
-0.0073875869 -0.13034956 -0.0099995518 0
-0.0073907278 -0.13037764 0.010000443 0
-0.0045622154 -0.13029264 -0.0099995434 0
-0.0042495695 -0.13075916 0.010000458 0
-0.0016508413 -0.130454 -0.0099995313 0
-0.0016115305 -0.13054733 0.010000464 0
0.0015968191 -0.13068858 -0.0099995192 0
0.0016115697 -0.13047758 0.010000477 0
0.0044970079 -0.1306635 -0.0099995118 0
0.0045746583 -0.1303854 0.010000491 0
0.0076511707 -0.13061959 -0.0099994959 0
0.0074978182 -0.13018535 0.010000496 0
0.0097357919 -0.13051346 -0.0097912876 0
0.010000026 -0.13038883 -0.0072400416 0
0.010000013 -0.13035519 -0.0042323768 0
0.010000003 -0.13070793 -0.0013346127 0
0.0099999933 -0.13014701 0.0014026611 0
0.009999983 -0.13065919 0.0041970336 0
0.0099999709 -0.13043283 0.0073048528 0
0.0096562924 -0.1308334 0.0098093068 0
-0.0095999036 -0.12744063 -0.009783959 0
-0.00999997 -0.12758648 -0.0073795873 0
-0.0099999839 -0.12757398 -0.0044395537 0
-0.0099999923 -0.12752332 -0.0014358751 0
-0.010000004 -0.12751766 0.0015694521 0
-0.010000016 -0.12755594 0.0042389766 0
-0.010000023 -0.12750205 0.0074411794 0
-0.0098047359 -0.12777185 0.0097278561 0
-0.0075478596 -0.12738071 -0.0099995648 0
-0.0075141476 -0.12746198 0.01000043 0
-0.0045323749 -0.12733677 -0.0099995527 0
-0.004234761 -0.12731503 0.010000443 0
-0.0015763434 -0.12756981 -0.0099995416 0
-0.0014186299 -0.12769596 0.010000453 0
0.0014656091 -0.12727202 -0.0099995304 0
0.0016310124 -0.12749228 0.010000465 0
0.0047227079 -0.12765017 -0.0099995183 0
0.0045124921 -0.12743157 0.010000476 0
0.0072893524 -0.12744235 -0.0099995108 0
0.0072260783 -0.12757139 0.010000485 0
0.009826649 -0.12739837 -0.0096256565 0
0.010000025 -0.12761526 -0.0075300098 0
0.010000016 -0.12750141 -0.0045192153 0
0.010000004 -0.12740868 -0.0015115467 0
0.0099999951 -0.12786035 0.0012781734 0
0.0099999802 -0.127434 0.0045235213 0
0.00999997 -0.12756512 0.0074002016 0
0.0097543374 -0.12747818 0.0096903211 0
-0.0097594969 -0.12438463 -0.0097781047 0
-0.00999997 -0.12445278 -0.0076272781 0
-0.0099999812 -0.12454996 -0.0045641158 0
-0.0099999923 -0.12468933 -0.0016655619 0
-0.010000004 -0.1245123 0.0014962363 0
-0.010000014 -0.12431079 0.0044889189 0
-0.010000025 -0.1244819 0.0073516355 0
-0.009792448 -0.12451154 0.0097419349 0
-0.007682729 -0.12479187 -0.0099995742 0
-0.0075968658 -0.1246537 0.010000421 0
-0.0043945145 -0.12450473 -0.009999563 0
-0.0043616914 -0.12448927 0.010000431 0
-0.0013297374 -0.12436631 -0.0099995555 0
-0.0014575341 -0.12448616 0.010000441 0
0.0016737676 -0.12433318 -0.0099995416 0
0.0014513949 -0.12451683 0.010000453 0
0.0045768498 -0.12429928 -0.0099995313 0
0.0043109087 -0.12481279 0.010000464 0
0.0073437057 -0.12457966 -0.0099995211 0
0.0074740029 -0.12450979 0.010000474 0
0.0097651184 -0.1241774 -0.0098150047 0
0.010000024 -0.1246309 -0.0075455504 0
0.010000014 -0.12481216 -0.0044999518 0
0.010000004 -0.12450635 -0.0016936647 0
0.0099999923 -0.12446285 0.0013848334 0
0.0099999802 -0.1245504 0.0044519808 0
0.00999997 -0.1246254 0.0075285118 0
0.0096268849 -0.12454471 0.0098363338 0
-0.0097853923 -0.121734 -0.0097655943 0
-0.0099999718 -0.12151852 -0.0073993015 0
-0.0099999802 -0.12144467 -0.0047380519 0
-0.0099999923 -0.12156007 -0.0013787613 0
-0.010000005 -0.12165503 0.0013136195 0
-0.010000014 -0.1217476 0.0044785789 0
-0.010000024 -0.1217517 0.0074897399 0
-0.0098110074 -0.12168118 0.00977265 0
-0.0073023005 -0.12173092 -0.0099995825 0
-0.0073596737 -0.12142858 0.01000041 0
-0.0047876169 -0.12135911 -0.0099995751 0
-0.0046151294 -0.12141512 0.01000042 0
-0.0016430552 -0.12143395 -0.0099995648 0
-0.0014865573 -0.12122072 0.010000431 0
0.0016733215 -0.12156389 -0.009999549 0
0.001698378 -0.12129931 0.010000442 0
0.0044697891 -0.12152937 -0.0099995434 0
0.0043074358 -0.12119083 0.010000451 0
0.0074503147 -0.12124943 -0.0099995323 0
0.0071211751 -0.12147928 0.010000465 0
0.0096208919 -0.12170017 -0.0098891482 0
0.010000025 -0.12155151 -0.0074224141 0
0.010000015 -0.12132087 -0.0045732367 0
0.010000003 -0.121463 -0.0014918074 0
0.0099999914 -0.12177067 0.0015459692 0
0.0099999812 -0.12176029 0.0043451223 0
0.0099999728 -0.12151667 0.0071049803 0
0.009728265 -0.12121552 0.0098119071 0
-0.0097822258 -0.11874272 -0.0097218379 0
-0.00999997 -0.11847863 -0.0073924321 0
-0.0099999802 -0.11848214 -0.0045816433 0
-0.0099999923 -0.11849837 -0.0014608895 0
-0.010000004 -0.11860827 0.0016177843 0
-0.010000012 -0.11853071 0.0045742993 0
-0.010000025 -0.11854384 0.0074768504 0
-0.0097722765 -0.11850388 0.0097635677 0
-0.0076073157 -0.11850688 -0.0099995965 0
-0.0074162139 -0.11835203 0.010000399 0
-0.0047034868 -0.11863256 -0.0099995853 0
-0.0046714088 -0.11870749 0.010000411 0
-0.001774931 -0.11837146 -0.009999577 0
-0.0015425226 -0.11872897 0.010000421 0
0.0014911115 -0.11827562 -0.0099995639 0
0.0017043595 -0.11843855 0.010000435 0
0.0045280503 -0.11858689 -0.0099995537 0
0.0044109873 -0.11825384 0.010000443 0
0.0075548091 -0.11854146 -0.0099995397 0
0.0075073759 -0.1184694 0.010000453 0
0.0096644098 -0.11860897 -0.0097942231 0
0.010000025 -0.11860171 -0.0075703813 0
0.010000015 -0.1184554 -0.0044385707 0
0.010000003 -0.11844854 -0.001581268 0
0.0099999923 -0.11853717 0.0013320874 0
0.0099999821 -0.11854406 0.0044501205 0
0.009999969 -0.11849778 0.007606932 0
0.0097539714 -0.11863893 0.0098426463 0
-0.0099031301 -0.11560265 -0.0096600102 0
-0.0099999709 -0.11564258 -0.0075395117 0
-0.0099999802 -0.1152191 -0.0045823148 0
-0.0099999905 -0.11561879 -0.0017453516 0
-0.010000006 -0.11568131 0.0016839597 0
-0.010000017 -0.11541841 0.0044190572 0
-0.010000024 -0.11562283 0.0075229406 0
-0.0098390738 -0.11530668 0.0095508676 0
-0.0075684474 -0.11533042 -0.0099996068 0
-0.0072953356 -0.11563351 0.010000389 0
-0.004289859 -0.11554873 -0.0099995947 0
-0.0044247247 -0.11536977 0.010000398 0
-0.0015908045 -0.11531479 -0.0099995872 0
-0.0013301492 -0.11547437 0.010000412 0
0.0015509854 -0.11547524 -0.0099995742 0
0.0016120465 -0.11561013 0.010000422 0
0.0044169147 -0.11544086 -0.0099995639 0
0.0047059557 -0.11556716 0.010000434 0
0.0074466029 -0.11552119 -0.0099995527 0
0.0072928248 -0.11535617 0.010000442 0
0.0097282203 -0.11584567 -0.0097507332 0
0.010000026 -0.11542385 -0.007604531 0
0.010000015 -0.1157105 -0.0046990989 0
0.010000003 -0.11546434 -0.0014598282 0
0.0099999923 -0.11550849 0.0015242519 0
0.0099999812 -0.11556018 0.0047125109 0
0.00999997 -0.11550163 0.0074247629 0
0.0096716816 -0.11528479 0.0097184228 0
-0.0098545551 -0.11248904 -0.0096116215 0
-0.009999969 -0.11261836 -0.0076279137 0
-0.009999983 -0.11229978 -0.0045150961 0
-0.0099999979 -0.11277657 -0.0013955503 0
-0.010000003 -0.11237973 0.0015662852 0
-0.010000015 -0.11258371 0.0043175612 0
-0.010000027 -0.1125728 0.0074843192 0
-0.0098038577 -0.11281727 0.0096624466 0
-0.007296307 -0.11242564 -0.009999617 0
-0.0072803483 -0.11246415 0.010000379 0
-0.004494369 -0.11244231 -0.0099996105 0
-0.0044385418 -0.11250518 0.01000039 0
-0.0016552045 -0.1128807 -0.0099995956 0
-0.0016480924 -0.11250895 0.010000401 0
0.0015916073 -0.11262789 -0.0099995863 0
0.001510546 -0.11233284 0.010000411 0
0.0042930236 -0.11246286 -0.0099995742 0
0.0044101975 -0.11257509 0.010000422 0
0.0075775911 -0.11243473 -0.009999563 0
0.0075489813 -0.11255515 0.010000436 0
0.0097795315 -0.11252327 -0.0097546577 0
0.010000026 -0.11250346 -0.0074647032 0
0.010000017 -0.1121941 -0.0045030005 0
0.010000002 -0.11280864 -0.0013702131 0
0.0099999914 -0.11232577 0.0016545289 0
0.0099999849 -0.11268827 0.0044731367 0
0.0099999718 -0.11263452 0.0076250946 0
0.0097375 -0.1125957 0.0098548559 0
-0.0097773271 -0.1093411 -0.0096976506 0
-0.0099999709 -0.10942616 -0.0074789478 0
-0.0099999812 -0.10943864 -0.0044005048 0
-0.0099999914 -0.10945522 -0.0013826349 0
-0.010000003 -0.10971218 0.0014627344 0
-0.010000013 -0.10959013 0.0044090501 0
-0.010000024 -0.109694 0.0074114604 0
-0.0098172035 -0.10958993 0.0096500795 0
-0.0073928931 -0.10957909 -0.0099996272 0
-0.0073030498 -0.10962892 0.010000369 0
-0.0044227131 -0.10965399 -0.009999617 0
-0.0045823003 -0.10960651 0.010000379 0
-0.0014555495 -0.10964809 -0.0099996086 0
-0.0013988501 -0.10907875 0.010000388 0
0.001627172 -0.10954214 -0.0099995937 0
0.0016187291 -0.10929906 0.010000398 0
0.0044332896 -0.10942551 -0.0099995853 0
0.004405593 -0.10950458 0.010000409 0
0.0076302635 -0.10960108 -0.0099995732 0
0.0076159383 -0.10916732 0.010000421 0
0.0097155767 -0.10973374 -0.0097478852 0
0.010000025 -0.1096201 -0.0076361657 0
0.010000017 -0.10957383 -0.0046388628 0
0.010000003 -0.1094965 -0.001521094 0
0.0099999961 -0.10938767 0.0012767394 0
0.0099999812 -0.10941429 0.004554349 0
0.0099999728 -0.10969348 0.0073275981 0
0.0098543884 -0.1094823 0.0097529301 0
-0.0097577143 -0.1065128 -0.0097095063 0
-0.00999997 -0.10628813 -0.0074101239 0
-0.0099999793 -0.10651734 -0.0045712907 0
-0.0099999923 -0.10657154 -0.0014522413 0
-0.010000003 -0.10650709 0.0016016136 0
-0.010000014 -0.10654519 0.0046939277 0
-0.010000027 -0.10638091 0.0077792294 0
-0.0097509092 -0.10628055 0.0098053943 0
-0.0075169038 -0.10616483 -0.0099996394 0
-0.0075874147 -0.1065051 0.010000356 0
-0.0045767687 -0.10658301 -0.0099996291 0
-0.0044274055 -0.10650934 0.010000367 0
-0.0015336866 -0.10648349 -0.0099996161 0
-0.0018682959 -0.10657172 0.010000378 0
0.0013578879 -0.10639004 -0.0099996086 0
0.0014136307 -0.1064085 0.010000387 0
0.0045708837 -0.10683484 -0.0099995937 0
0.0043773297 -0.10638812 0.010000399 0
0.0075262715 -0.10642727 -0.0099995835 0
0.0075184633 -0.10635883 0.01000041 0
0.0096833948 -0.10643623 -0.0098045962 0
0.010000028 -0.10665959 -0.0074121598 0
0.010000013 -0.10651165 -0.0043425155 0
0.010000003 -0.10661764 -0.0013992346 0
0.0099999914 -0.10657334 0.0016180071 0
0.0099999793 -0.10639411 0.0047853151 0
0.009999969 -0.10630695 0.0074298135 0
0.0097856419 -0.10631013 0.0097165862 0
-0.0097757652 -0.10347192 -0.0097230813 0
-0.0099999709 -0.10381616 -0.0076220324 0
-0.009999983 -0.10353197 -0.0043995548 0
-0.0099999914 -0.10371042 -0.0015603369 0
-0.010000005 -0.10345181 0.0015082192 0
-0.010000014 -0.10349155 0.0043430575 0
-0.010000025 -0.10342727 0.0075863148 0
-0.0097152404 -0.10334142 0.0097773625 0
-0.0075189956 -0.10355937 -0.0099996505 0
-0.0072699706 -0.10337536 0.010000345 0
-0.0045552715 -0.10329527 -0.0099996403 0
-0.004438194 -0.1033369 0.010000355 0
-0.0015173173 -0.10352416 -0.0099996272 0
-0.0013796714 -0.10351776 0.010000367 0
0.0010933381 -0.10369173 -0.0099996189 0
0.0012424642 -0.10344149 0.01000038 0
0.0044768271 -0.10330762 -0.0099996105 0
0.0046843337 -0.10329226 0.010000386 0
0.0075217555 -0.10370196 -0.0099995947 0
0.0076453667 -0.10350509 0.0100004 0
0.0097171078 -0.10342117 -0.0098091671 0
0.010000024 -0.10348212 -0.0073796008 0
0.010000014 -0.10373308 -0.004555786 0
0.010000002 -0.10339679 -0.0015271063 0
0.0099999923 -0.10350132 0.0014033185 0
0.0099999812 -0.10350859 0.0045670974 0
0.0099999709 -0.10356961 0.0076099373 0
0.0098015377 -0.10345643 0.009670441 0
-0.0097743087 -0.10034861 -0.0097452309 0
-0.0099999728 -0.10030797 -0.0074138334 0
-0.0099999821 -0.10049803 -0.0043996288 0
-0.0099999905 -0.10033046 -0.001739532 0
-0.010000004 -0.10051845 0.00125109 0
-0.010000014 -0.10056318 0.0045879418 0
-0.01000003 -0.10032237 0.0075940518 0
-0.0097977715 -0.10069501 0.0097732972 0
-0.0072077503 -0.10059427 -0.0099996598 0
-0.0073692608 -0.10062268 0.010000334 0
-0.0043605678 -0.10057668 -0.0099996505 0
-0.0045179632 -0.10041675 0.010000343 0
-0.001287051 -0.10061438 -0.0099996375 0
-0.0016124614 -0.10048075 0.010000356 0
0.0012709094 -0.10043897 -0.0099996282 0
0.0014043121 -0.1004822 0.010000369 0
0.0044149328 -0.10033098 -0.0099996217 0
0.0045942087 -0.10041738 0.010000379 0
0.0075114793 -0.10033629 -0.0099996068 0
0.007599981 -0.1006868 0.010000393 0
0.0098128188 -0.10040741 -0.0097174887 0
0.010000023 -0.10045261 -0.0072273812 0
0.010000017 -0.10048044 -0.0047006691 0
0.010000004 -0.10047331 -0.001667468 0
0.0099999914 -0.10031439 0.0014245984 0
0.0099999802 -0.1005571 0.0047144205 0
0.009999969 -0.10057739 0.0075966436 0
0.0097581288 -0.10055703 0.0097113056 0
-0.0096949954 -0.097527683 -0.0096939746 0
-0.0099999709 -0.097207554 -0.0076873465 0
-0.0099999821 -0.097547024 -0.0044589899 0
-0.0099999923 -0.097514987 -0.0014828944 0
-0.010000004 -0.097298391 0.0016134318 0
-0.010000013 -0.097202092 0.0044351351 0
-0.010000025 -0.097553864 0.0074199885 0
-0.0097802542 -0.097357392 0.0097525064 0
-0.0073583135 -0.097302794 -0.0099996738 0
-0.0072849779 -0.097576313 0.010000327 0
-0.00464046 -0.097640313 -0.0099996636 0
-0.0045463466 -0.097693861 0.010000335 0
-0.0013872889 -0.097612679 -0.0099996496 0
-0.0013849075 -0.097662985 0.010000348 0
0.0016240625 -0.097397387 -0.0099996394 0
0.0015348424 -0.097185783 0.010000354 0
0.0043776999 -0.097538397 -0.0099996282 0
0.0041783755 -0.097447321 0.010000366 0
0.0074138567 -0.09759976 -0.0099996179 0
0.0077457065 -0.097401626 0.010000379 0
0.0097707389 -0.097408995 -0.0097593265 0
0.010000025 -0.09756919 -0.0074419277 0
0.010000014 -0.097354822 -0.0043596481 0
0.010000001 -0.097460486 -0.0012772001 0
0.0099999905 -0.0974546 0.0016754133 0
0.0099999839 -0.097749531 0.00446518 0
0.0099999737 -0.097847663 0.0074487734 0
0.0095907869 -0.097289324 0.0097557278 0
-0.0097236093 -0.094521068 -0.0098265735 0
-0.0099999709 -0.094470143 -0.0074197301 0
-0.0099999802 -0.094374985 -0.0045864559 0
-0.0099999905 -0.094614141 -0.001774694 0
-0.010000003 -0.094709553 0.0014168078 0
-0.010000014 -0.09442728 0.0041389931 0
-0.010000026 -0.094438791 0.0075172302 0
-0.0097115608 -0.094703309 0.0097937025 0
-0.0077575962 -0.094824016 -0.0099996822 0
-0.0074457591 -0.094250865 0.010000312 0
-0.0045436467 -0.094431534 -0.0099996729 0
-0.0045806463 -0.094705194 0.010000324 0
-0.0016975132 -0.094729073 -0.0099996626 0
-0.0014584552 -0.094610117 0.010000334 0
0.0015378797 -0.094486579 -0.0099996505 0
0.0017911936 -0.09455739 0.010000346 0
0.0044007516 -0.094479725 -0.0099996403 0
0.0043475828 -0.094495997 0.010000355 0
0.0077100568 -0.094459139 -0.0099996282 0
0.0075205169 -0.094452597 0.010000366 0
0.009729567 -0.094363533 -0.0097326245 0
0.010000023 -0.094566286 -0.0075311451 0
0.010000014 -0.094721094 -0.0045138448 0
0.010000002 -0.094458424 -0.0012312194 0
0.0099999933 -0.094443843 0.0013077316 0
0.0099999821 -0.094586544 0.0047920896 0
0.00999997 -0.094613411 0.0074003665 0
0.0097568696 -0.09452036 0.0096876156 0
-0.0097656734 -0.091560729 -0.0096527133 0
-0.0099999709 -0.091543354 -0.0075321584 0
-0.0099999812 -0.091358267 -0.0043554641 0
-0.0099999914 -0.091416448 -0.0015280605 0
-0.010000004 -0.091322519 0.0016676397 0
-0.010000014 -0.091483608 0.0044444366 0
-0.010000023 -0.091668315 0.0075350581 0
-0.0096591376 -0.091488078 0.009831029 0
-0.0074140867 -0.091563657 -0.0099996915 0
-0.0073814574 -0.091633588 0.010000301 0
-0.0044313213 -0.091281071 -0.0099996831 0
-0.0044698883 -0.091402419 0.010000312 0
-0.0013525686 -0.091486558 -0.0099996701 0
-0.0013968672 -0.091460906 0.010000325 0
0.0016753522 -0.091404244 -0.0099996617 0
0.0015233397 -0.09144865 0.010000334 0
0.0044652624 -0.09113545 -0.0099996533 0
0.0043718163 -0.091553919 0.010000343 0
0.0072373133 -0.091630131 -0.0099996394 0
0.0075320168 -0.091399446 0.010000356 0
0.0097950259 -0.091528349 -0.0097479085 0
0.010000022 -0.091562562 -0.0074211191 0
0.010000014 -0.091237642 -0.0043466287 0
0.010000002 -0.091500834 -0.0012580792 0
0.0099999923 -0.091498069 0.0015039141 0
0.0099999821 -0.091575637 0.0043798219 0
0.00999997 -0.091364063 0.0077792974 0
0.0097332802 -0.091802858 0.0098856138 0
-0.0096476395 -0.088567749 -0.0098240152 0
-0.00999997 -0.088480547 -0.0073883259 0
-0.009999983 -0.088566028 -0.0045016473 0
-0.0099999914 -0.08854641 -0.0014790714 0
-0.010000004 -0.088283315 0.0016887214 0
-0.010000013 -0.088489294 0.0044026664 0
-0.010000027 -0.088641703 0.0075999005 0
-0.0097723128 -0.088342786 0.0098902723 0
-0.0076030456 -0.088518716 -0.0099997036 0
-0.0074859904 -0.088308051 0.010000289 0
-0.0045347637 -0.088466048 -0.0099996943 0
-0.004318893 -0.088512369 0.010000302 0
-0.0012863518 -0.088470377 -0.0099996803 0
-0.0014749651 -0.088625416 0.010000312 0
0.0013524223 -0.088507891 -0.0099996729 0
0.0014284527 -0.088672347 0.010000323 0
0.0045810966 -0.088522665 -0.0099996617 0
0.0041610324 -0.088535078 0.010000333 0
0.007592862 -0.08859513 -0.0099996487 0
0.0073044491 -0.08847259 0.010000343 0
0.009810145 -0.088869609 -0.0096901665 0
0.010000026 -0.088530734 -0.0077418326 0
0.010000011 -0.088485792 -0.0044536698 0
0.010000003 -0.088748977 -0.0012952746 0
0.0099999942 -0.088617533 0.0013917026 0
0.0099999802 -0.088455431 0.0047142762 0
0.0099999709 -0.088504687 0.0074234921 0
0.0098635154 -0.088321261 0.0096108178 0
-0.0098570343 -0.085791677 -0.0097689787 0
-0.00999997 -0.085475817 -0.0075620832 0
-0.0099999849 -0.0855202 -0.0044786031 0
-0.0099999923 -0.085636951 -0.0014587705 0
-0.010000004 -0.085586779 0.0015481946 0
-0.010000013 -0.085362814 0.0042574811 0
-0.010000024 -0.085663542 0.007537561 0
-0.009782414 -0.0853367 0.0097683584 0
-0.0074657765 -0.085628949 -0.0099997167 0
-0.0076237828 -0.085691616 0.01000028 0
-0.0045602457 -0.085605636 -0.0099997036 0
-0.0045093214 -0.085258193 0.01000029 0
-0.001350372 -0.085584939 -0.0099996924 0
-0.0014659985 -0.085822038 0.010000303 0
0.0015851677 -0.085402727 -0.0099996813 0
0.001421427 -0.085682392 0.010000313 0
0.0043970938 -0.085534364 -0.0099996738 0
0.0042542014 -0.085450947 0.010000322 0
0.0076000411 -0.085357599 -0.0099996598 0
0.0073812986 -0.085663341 0.010000338 0
0.0099139875 -0.085652992 -0.0096392026 0
0.010000024 -0.085622095 -0.0075457771 0
0.010000014 -0.085375987 -0.0044115661 0
0.010000003 -0.085809007 -0.001486576 0
0.0099999942 -0.08539822 0.0018586058 0
0.0099999812 -0.08551538 0.0045341714 0
0.00999997 -0.085517265 0.0072632753 0
0.0097643966 -0.085677035 0.0096672429 0
-0.0097267944 -0.08242555 -0.0097841555 0
-0.0099999718 -0.082467288 -0.0074789613 0
-0.0099999812 -0.082401216 -0.0044664242 0
-0.0099999905 -0.082712471 -0.0015283695 0
-0.010000002 -0.082285985 0.0013552851 0
-0.010000015 -0.082374997 0.0046214899 0
-0.010000024 -0.082087778 0.0075169378 0
-0.0096478881 -0.082861662 0.0098242546 0
-0.0076229353 -0.082312703 -0.0099997306 0
-0.0072587072 -0.082716107 0.010000272 0
-0.0045646029 -0.082559876 -0.0099997148 0
-0.0048188358 -0.082747027 0.010000282 0
-0.0016720351 -0.082478173 -0.0099997036 0
-0.0013778569 -0.082582556 0.010000292 0
0.0015829176 -0.082544401 -0.0099996934 0
0.0014930466 -0.08259996 0.010000302 0
0.0042931954 -0.082664482 -0.0099996822 0
0.0046489453 -0.082473233 0.010000313 0
0.0074801981 -0.082710743 -0.009999671 0
0.0077301119 -0.08241339 0.010000323 0
0.009745487 -0.082510471 -0.0098045701 0
0.010000025 -0.082557455 -0.0077989879 0
0.010000013 -0.082836114 -0.0044603343 0
0.010000003 -0.082483262 -0.0014878412 0
0.0099999914 -0.082357205 0.0017071511 0
0.0099999858 -0.08263167 0.0044212416 0
0.00999997 -0.082408041 0.0074973144 0
0.0098137418 -0.082455598 0.0096981879 0
-0.0097764414 -0.079512738 -0.0097649582 0
-0.009999969 -0.079527736 -0.0073494585 0
-0.0099999812 -0.07951843 -0.0044303252 0
-0.0099999923 -0.079455189 -0.0014256543 0
-0.010000004 -0.079109125 0.0014319906 0
-0.010000016 -0.079338603 0.0045699398 0
-0.010000026 -0.079495408 0.0074110352 0
-0.0097897546 -0.079352461 0.0097532133 0
-0.0076524718 -0.079712473 -0.0099997381 0
-0.007384873 -0.079423018 0.010000259 0
-0.0041594962 -0.079665385 -0.0099997232 0
-0.0043913177 -0.079334378 0.010000268 0
-0.0016220824 -0.079365276 -0.0099997167 0
-0.0012352206 -0.079392239 0.010000284 0
0.0017160106 -0.079626709 -0.0099997036 0
0.0015551787 -0.079299428 0.010000289 0
0.0043707229 -0.079783499 -0.0099996943 0
0.0046707457 -0.079687282 0.010000306 0
0.0077125509 -0.079422034 -0.0099996803 0
0.0074343011 -0.079304591 0.010000313 0
0.0096711302 -0.079493895 -0.0097371181 0
0.010000026 -0.07945922 -0.0076669627 0
0.010000017 -0.079546444 -0.0045538903 0
0.010000004 -0.079400256 -0.0016249715 0
0.0099999933 -0.079693928 0.0014614763 0
0.009999983 -0.079665393 0.0043364395 0
0.009999969 -0.079511978 0.0073988121 0
0.009758126 -0.079403102 0.009753312 0
-0.0098513933 -0.076449387 -0.0095943464 0
-0.00999997 -0.076490618 -0.0076153465 0
-0.009999983 -0.076458417 -0.0044054119 0
-0.0099999933 -0.076576687 -0.0015039045 0
-0.010000004 -0.076612897 0.0014322649 0
-0.010000013 -0.076608479 0.004414611 0
-0.010000023 -0.076473579 0.0073285317 0
-0.0096728289 -0.07651788 0.0098027615 0
-0.0074681835 -0.076483898 -0.0099997493 0
-0.0075346329 -0.07639955 0.010000248 0
-0.0046658851 -0.076341301 -0.009999739 0
-0.0044790758 -0.076455019 0.010000257 0
-0.0013312689 -0.076697707 -0.009999725 0
-0.0015832761 -0.076549932 0.01000027 0
0.001287876 -0.076349944 -0.0099997167 0
0.0016332576 -0.076547422 0.010000281 0
0.0044098506 -0.076578848 -0.0099997045 0
0.004718726 -0.076510012 0.010000291 0
0.0076070395 -0.07633391 -0.0099996943 0
0.0073811207 -0.076689132 0.010000302 0
0.0096985418 -0.076727018 -0.0098072719 0
0.010000025 -0.076440886 -0.0076700049 0
0.010000015 -0.076596789 -0.0046174326 0
0.010000004 -0.076431632 -0.0015417219 0
0.0099999914 -0.076359496 0.0014542026 0
0.009999983 -0.076599851 0.0042786626 0
0.00999997 -0.076565921 0.0075860652 0
0.0096719796 -0.076354198 0.0098237768 0
-0.009732224 -0.073837608 -0.0097678434 0
-0.0099999709 -0.073271401 -0.0074269609 0
-0.0099999858 -0.073419973 -0.0042190487 0
-0.0099999933 -0.073544942 -0.001384246 0
-0.010000004 -0.073308095 0.0015881107 0
-0.010000012 -0.073288359 0.0041294857 0
-0.010000026 -0.073516667 0.0076254574 0
-0.0098031964 -0.073302984 0.0096524786 0
-0.0075036739 -0.07349851 -0.0099997586 0
-0.0074812248 -0.073423348 0.010000234 0
-0.0041503068 -0.073588163 -0.0099997474 0
-0.0044843848 -0.073497713 0.010000248 0
-0.0016037137 -0.07358598 -0.0099997362 0
-0.0015744908 -0.073583603 0.010000259 0
0.0015488209 -0.073400192 -0.0099997278 0
0.0013050358 -0.07360173 0.010000272 0
0.0044758441 -0.073430464 -0.0099997157 0
0.0046507283 -0.073323905 0.010000283 0
0.0072619705 -0.073434658 -0.0099997064 0
0.007247719 -0.073665619 0.01000029 0
0.009661695 -0.073488384 -0.0097791879 0
0.010000023 -0.073622674 -0.0075816899 0
0.010000015 -0.073774725 -0.0043506213 0
0.010000003 -0.073399648 -0.0014392021 0
0.0099999923 -0.073676132 0.0013265534 0
0.0099999821 -0.073438756 0.0044064592 0
0.0099999709 -0.073358141 0.0075873192 0
0.0096611837 -0.073363863 0.0096934251 0
-0.0097984038 -0.070627518 -0.0096747195 0
-0.009999969 -0.070578605 -0.0074358792 0
-0.0099999812 -0.07050138 -0.0043527936 0
-0.0099999933 -0.070528977 -0.001494964 0
-0.010000004 -0.070363104 0.00143719 0
-0.010000015 -0.070653662 0.0046202908 0
-0.010000026 -0.070629872 0.0076656286 0
-0.0098244138 -0.070791475 0.0097211553 0
-0.0074124471 -0.070712492 -0.0099997697 0
-0.0076920902 -0.070171967 0.010000224 0
-0.0042021791 -0.07097996 -0.0099997576 0
-0.0044906149 -0.070221156 0.010000234 0
-0.001574643 -0.070413224 -0.0099997474 0
-0.001804007 -0.070487782 0.010000247 0
0.0015634374 -0.070803307 -0.0099997371 0
0.0017254213 -0.070739798 0.010000259 0
0.0045566135 -0.070148468 -0.009999726 0
0.0044410881 -0.070606276 0.010000269 0
0.0076414491 -0.070649341 -0.0099997148 0
0.0076925959 -0.07044439 0.01000028 0
0.0097902734 -0.070727929 -0.0097400546 0
0.010000026 -0.070574231 -0.0075992877 0
0.010000013 -0.070366777 -0.0042839614 0
0.010000002 -0.070636906 -0.0015341003 0
0.0099999923 -0.070839703 0.0014626514 0
0.0099999812 -0.070499621 0.004353588 0
0.0099999709 -0.070326455 0.0074976645 0
0.0098409783 -0.070624352 0.009606516 0
-0.0098438775 -0.067283511 -0.0096344519 0
-0.0099999681 -0.067539632 -0.0076374137 0
-0.009999983 -0.067695796 -0.0042324248 0
-0.0099999914 -0.067339115 -0.0016679086 0
-0.010000004 -0.067455158 0.0014431657 0
-0.010000017 -0.067297041 0.0048760395 0
-0.010000023 -0.067659199 0.0073867789 0
-0.0098194676 -0.067245975 0.0096657099 0
-0.0075481003 -0.067465998 -0.0099997791 0
-0.0076315189 -0.067517906 0.010000214 0
-0.0046580601 -0.06737221 -0.0099997707 0
-0.0044630365 -0.067557298 0.010000229 0
-0.0014413589 -0.067619316 -0.0099997586 0
-0.0015672323 -0.067343295 0.010000236 0
0.0015367283 -0.067558378 -0.0099997465 0
0.0013223623 -0.067457415 0.010000248 0
0.0044838511 -0.067664012 -0.0099997371 0
0.0046012574 -0.067674518 0.010000258 0
0.0077837589 -0.067669049 -0.009999726 0
0.0073878821 -0.067429423 0.010000271 0
0.0097234081 -0.067564264 -0.0097727655 0
0.010000024 -0.067638166 -0.0072878809 0
0.010000014 -0.067448042 -0.004442858 0
0.010000001 -0.067510709 -0.001368318 0
0.0099999914 -0.067667447 0.0015638596 0
0.0099999812 -0.067560457 0.0047058598 0
0.009999969 -0.067744665 0.0074635744 0
0.0098424014 -0.067815907 0.0096057206 0
-0.009713986 -0.064442806 -0.009825496 0
-0.0099999737 -0.064492658 -0.0074736895 0
-0.0099999812 -0.064332448 -0.0045290231 0
-0.0099999914 -0.064598829 -0.0014980707 0
-0.010000004 -0.064652659 0.0014700424 0
-0.010000014 -0.064445756 0.0045025204 0
-0.010000025 -0.064529821 0.0074845119 0
-0.0098063368 -0.064687826 0.0097543802 0
-0.0075250659 -0.064543717 -0.0099997921 0
-0.0078443801 -0.064438753 0.010000202 0
-0.0044421549 -0.064759851 -0.00999978 0
-0.0043540369 -0.064151064 0.010000213 0
-0.0015335813 -0.064475536 -0.0099997707 0
-0.0014765599 -0.064571865 0.010000227 0
0.0013165108 -0.064541556 -0.0099997586 0
0.0016006039 -0.064412296 0.010000237 0
0.0042370711 -0.064285956 -0.0099997502 0
0.0044948356 -0.064524002 0.010000246 0
0.0074708462 -0.06456843 -0.0099997371 0
0.0074963747 -0.064309485 0.010000258 0
0.0097969975 -0.064414062 -0.0097095184 0
0.010000027 -0.064276502 -0.0075966148 0
0.010000017 -0.064382136 -0.0045133345 0
0.010000002 -0.064413048 -0.0014721168 0
0.0099999933 -0.064324886 0.0012342543 0
0.0099999849 -0.064606056 0.004692947 0
0.0099999681 -0.06454739 0.0077097453 0
0.0098014893 -0.064515263 0.009732658 0
-0.009668624 -0.061562344 -0.0098309135 0
-0.00999997 -0.061636116 -0.0073972503 0
-0.0099999821 -0.061669115 -0.0045703575 0
-0.0099999923 -0.061297242 -0.0014514189 0
-0.010000006 -0.061431874 0.0014023614 0
-0.010000016 -0.0617861 0.0045046876 0
-0.010000025 -0.061579574 0.0074254414 0
-0.0098078335 -0.061691392 0.0097456388 0
-0.0073676081 -0.06158844 -0.0099998014 0
-0.0075961798 -0.061391745 0.010000192 0
-0.004682784 -0.061782733 -0.0099997921 0
-0.0046326676 -0.061450526 0.010000206 0
-0.0016083306 -0.061434686 -0.0099997809 0
-0.0015800863 -0.061459254 0.010000217 0
0.0014908047 -0.061268579 -0.0099997707 0
0.001450671 -0.061244536 0.010000223 0
0.0043904088 -0.06132121 -0.0099997604 0
0.0046949531 -0.061196256 0.010000235 0
0.0076576723 -0.061664816 -0.0099997474 0
0.0078196768 -0.061665092 0.010000249 0
0.0097876769 -0.061453134 -0.0097481227 0
0.010000024 -0.061356224 -0.0074011409 0
0.010000013 -0.061725061 -0.0044886526 0
0.010000004 -0.061337471 -0.0015565978 0
0.0099999914 -0.061602782 0.0015716179 0
0.0099999821 -0.061269999 0.0044051977 0
0.00999997 -0.06151855 0.0074627991 0
0.0098855328 -0.061401706 0.0096475817 0
-0.0098211989 -0.058448173 -0.0097273532 0
-0.0099999718 -0.058345735 -0.0073943543 0
-0.0099999821 -0.058407106 -0.004392718 0
-0.0099999933 -0.058696277 -0.0015644768 0
-0.010000002 -0.058449991 0.001377998 0
-0.010000015 -0.058523759 0.0046981131 0
-0.010000023 -0.058277071 0.0075366944 0
-0.0097692749 -0.058163185 0.0097286524 0
-0.0075241006 -0.058245439 -0.0099998126 0
-0.0076905456 -0.058615062 0.010000182 0
-0.0042628809 -0.058435407 -0.0099998023 0
-0.0045519224 -0.058346953 0.010000191 0
-0.0011545008 -0.058470715 -0.0099997893 0
-0.0014995888 -0.058292765 0.010000205 0
0.0014939775 -0.058513232 -0.0099997791 0
0.0014959057 -0.058343127 0.010000215 0
0.0045192488 -0.058317937 -0.0099997707 0
0.004497895 -0.058542762 0.010000225 0
0.0075603174 -0.058421377 -0.0099997576 0
0.0077146189 -0.058592968 0.010000238 0
0.0097994739 -0.058723737 -0.0096360398 0
0.010000023 -0.058457613 -0.0074071293 0
0.010000014 -0.058478646 -0.0045176246 0
0.010000004 -0.058511235 -0.0017363866 0
0.0099999905 -0.058723204 0.001558679 0
0.0099999812 -0.058331024 0.0043124389 0
0.0099999681 -0.058372725 0.0076560467 0
0.009820614 -0.058616895 0.0097065214 0
-0.0098732198 -0.05571264 -0.0097444421 0
-0.0099999737 -0.055595238 -0.0073965904 0
-0.0099999839 -0.055309992 -0.0045674844 0
-0.0099999923 -0.055460326 -0.0013552731 0
-0.010000008 -0.055642609 0.0019266896 0
-0.010000017 -0.055290796 0.0045459033 0
-0.010000025 -0.055680823 0.0078458907 0
-0.0097897267 -0.055358659 0.0097001307 0
-0.0073880362 -0.055228535 -0.0099998238 0
-0.0074269795 -0.05544341 0.010000171 0
-0.0046411338 -0.055420727 -0.0099998144 0
-0.0045206286 -0.055476535 0.010000183 0
-0.0015133411 -0.05570503 -0.0099998042 0
-0.0016457336 -0.055633742 0.010000192 0
0.0012710885 -0.055404395 -0.0099997921 0
0.0015774786 -0.055271354 0.010000203 0
0.0045310184 -0.055409912 -0.00999978 0
0.0045855753 -0.055488605 0.010000215 0
0.0075643086 -0.055654727 -0.0099997679 0
0.0075213895 -0.055581193 0.010000224 0
0.0098239584 -0.055510115 -0.0097426074 0
0.010000027 -0.055432346 -0.0076242555 0
0.010000014 -0.055524845 -0.0043888493 0
0.010000002 -0.055332962 -0.0013570989 0
0.0099999923 -0.055690609 0.0013242878 0
0.0099999821 -0.055716105 0.0043170843 0
0.0099999718 -0.055615157 0.0073269629 0
0.0096025718 -0.055675268 0.0098804785 0
-0.0098267877 -0.052628599 -0.0096242502 0
-0.0099999737 -0.052534573 -0.0076745311 0
-0.0099999802 -0.052327182 -0.0045476235 0
-0.0099999914 -0.052184422 -0.0014346685 0
-0.010000003 -0.052752234 0.001505557 0
-0.010000013 -0.05238872 0.0043961462 0
-0.010000025 -0.052576136 0.0077183847 0
-0.0098515674 -0.052371304 0.0096422471 0
-0.0077625983 -0.052502133 -0.0099998349 0
-0.0076273666 -0.052454099 0.010000161 0
-0.0047849198 -0.052632011 -0.0099998228 0
-0.0044537177 -0.052325822 0.010000172 0
-0.001747083 -0.052448161 -0.0099998135 0
-0.0013928815 -0.052235115 0.010000182 0
0.0015684039 -0.052551933 -0.0099998014 0
0.001356583 -0.052418474 0.010000192 0
0.0043402449 -0.052234728 -0.009999794 0
0.0046322751 -0.052339502 0.010000203 0
0.0077347327 -0.052338395 -0.0099997818 0
0.0072168694 -0.052597735 0.010000214 0
0.0097003318 -0.052284062 -0.0097698206 0
0.010000026 -0.052513026 -0.0074020736 0
0.010000013 -0.052787997 -0.0043493169 0
0.010000004 -0.05269764 -0.0015377457 0
0.0099999914 -0.052573223 0.001605432 0
0.0099999821 -0.052550949 0.0047554029 0
0.0099999718 -0.05236714 0.0075358865 0
0.0099027706 -0.052525759 0.0095701786 0
-0.0097447429 -0.049765538 -0.0096425777 0
-0.00999997 -0.049397241 -0.0074932477 0
-0.0099999821 -0.049198974 -0.0044017276 0
-0.0099999942 -0.049441013 -0.0013647805 0
-0.010000003 -0.049665369 0.0014727379 0
-0.010000015 -0.049790919 0.0043384465 0
-0.010000025 -0.04946325 0.007328047 0
-0.009834243 -0.049664531 0.0097465375 0
-0.0073625417 -0.049426593 -0.009999847 0
-0.0076016462 -0.049373746 0.01000015 0
-0.0045383419 -0.049111534 -0.0099998359 0
-0.0043025645 -0.049664773 0.010000161 0
-0.00136438 -0.049393114 -0.0099998238 0
-0.0012916897 -0.049447227 0.010000175 0
0.0016768839 -0.04941624 -0.0099998135 0
0.0016106324 -0.049670774 0.010000184 0
0.004576433 -0.049358901 -0.0099998014 0
0.0044815084 -0.049453605 0.010000192 0
0.0076639131 -0.049545206 -0.0099997921 0
0.0077212565 -0.049638495 0.010000206 0
0.0098422766 -0.049348254 -0.0096646044 0
0.010000025 -0.049589127 -0.0075647733 0
0.010000013 -0.049601585 -0.0046256729 0
0.010000004 -0.049765062 -0.0015144274 0
0.0099999914 -0.049377404 0.0013276391 0
0.0099999821 -0.049644705 0.0043179332 0
0.00999997 -0.049466092 0.0074657123 0
0.0097354045 -0.04952503 0.0096609751 0
-0.009604183 -0.046677858 -0.0097624054 0
-0.0099999728 -0.046457954 -0.0072863628 0
-0.0099999821 -0.046587817 -0.0045619016 0
-0.0099999923 -0.046415895 -0.0014518044 0
-0.010000003 -0.046620809 0.0013217768 0
-0.010000013 -0.046654638 0.0043993257 0
-0.010000026 -0.046590444 0.0073870979 0
-0.0097480398 -0.046708003 0.0097089466 0
-0.0075189001 -0.046390716 -0.0099998582 0
-0.0072920234 -0.046539504 0.010000143 0
-0.004735833 -0.046434321 -0.009999848 0
-0.0042675841 -0.046899572 0.010000152 0
-0.0012888846 -0.046450756 -0.009999834 0
-0.0015107037 -0.046555307 0.010000161 0
0.0015430107 -0.046698291 -0.009999821 0
0.0015961074 -0.046647314 0.010000172 0
0.0046664625 -0.046455242 -0.0099998107 0
0.0043284376 -0.046540949 0.010000181 0
0.0074662874 -0.04632809 -0.0099998042 0
0.0073307147 -0.04656712 0.010000193 0
0.0097914897 -0.046713457 -0.0097597893 0
0.010000024 -0.046421282 -0.0074883718 0
0.010000014 -0.046646848 -0.0043547261 0
0.010000004 -0.046399537 -0.0016441941 0
0.0099999905 -0.04662643 0.0018877824 0
0.0099999821 -0.046552353 0.0044362857 0
0.009999969 -0.046525534 0.0075884066 0
0.0096998094 -0.04623282 0.0097680967 0
-0.009862558 -0.043514252 -0.0097704791 0
-0.00999997 -0.043451548 -0.0074887853 0
-0.0099999812 -0.04346551 -0.0046684667 0
-0.0099999951 -0.043546367 -0.0011685494 0
-0.010000003 -0.043449625 0.0015943198 0
-0.010000014 -0.043432165 0.0043058181 0
-0.010000025 -0.043794632 0.0076130191 0
-0.0098108556 -0.043676354 0.0096970573 0
-0.0076313443 -0.043409158 -0.0099998694 0
-0.0073730946 -0.043652117 0.010000131 0
-0.0041690958 -0.043438084 -0.0099998554 0
-0.0046710181 -0.043480933 0.010000139 0
-0.0013019515 -0.043594506 -0.0099998442 0
-0.0014481635 -0.043404803 0.01000015 0
0.0014385335 -0.043307137 -0.0099998368 0
0.0014356578 -0.043201059 0.01000016 0
0.0047086859 -0.043480072 -0.0099998247 0
0.0044628535 -0.043525688 0.010000171 0
0.0074267858 -0.043674529 -0.0099998154 0
0.0072872383 -0.043726005 0.010000183 0
0.0096988399 -0.043602251 -0.009795309 0
0.010000027 -0.043577567 -0.0073820655 0
0.010000014 -0.043489523 -0.0043655704 0
0.010000002 -0.043586347 -0.001486192 0
0.0099999942 -0.04355726 0.0013381158 0
0.0099999821 -0.043373469 0.0046708263 0
0.0099999709 -0.043458313 0.007421012 0
0.0097535886 -0.04369472 0.0097310925 0
-0.0097811772 -0.040537402 -0.0097998679 0
-0.0099999709 -0.040435713 -0.0073353122 0
-0.009999983 -0.040342119 -0.0042745527 0
-0.0099999923 -0.040756468 -0.0016227554 0
-0.010000002 -0.040586334 0.0014624763 0
-0.010000014 -0.040643062 0.0044048298 0
-0.010000028 -0.040578227 0.0077475542 0
-0.0097137848 -0.040556204 0.0097766863 0
-0.0073542446 -0.040551797 -0.0099998778 0
-0.0076905014 -0.040682767 0.01000012 0
-0.0046334448 -0.040663145 -0.0099998666 0
-0.0044883899 -0.04060851 0.010000132 0
-0.0016372763 -0.04043125 -0.0099998573 0
-0.0015558808 -0.040501688 0.010000139 0
0.0014675378 -0.040494241 -0.0099998452 0
0.0013439596 -0.040577721 0.010000148 0
0.0044704336 -0.040713184 -0.0099998349 0
0.0048050312 -0.040462893 0.010000163 0
0.0074828006 -0.040606108 -0.0099998247 0
0.0075560207 -0.04048267 0.010000171 0
0.0098173171 -0.040646885 -0.0096975015 0
0.010000025 -0.040683467 -0.0077008544 0
0.010000014 -0.040530663 -0.004457368 0
0.010000003 -0.040393829 -0.0016100104 0
0.0099999923 -0.040528148 0.0013484366 0
0.0099999802 -0.040460657 0.0045701913 0
0.00999997 -0.040275227 0.0077374838 0
0.0097299879 -0.040674265 0.0097254245 0
-0.0098765101 -0.037304461 -0.009646113 0
-0.009999969 -0.037556283 -0.0076078949 0
-0.0099999839 -0.037606772 -0.0043274094 0
-0.0099999923 -0.037382111 -0.0013455943 0
-0.010000007 -0.037550803 0.001755912 0
-0.010000012 -0.037498627 0.0043728394 0
-0.010000023 -0.037525926 0.007397667 0
-0.0096985968 -0.037674591 0.0097421911 0
-0.0077644521 -0.037318513 -0.0099998908 0
-0.0076432098 -0.037533365 0.010000105 0
-0.0045202831 -0.037601449 -0.0099998787 0
-0.0045171371 -0.037496835 0.010000117 0
-0.0014657156 -0.037531946 -0.0099998666 0
-0.001512662 -0.03741356 0.010000126 0
0.0017194318 -0.037472084 -0.0099998554 0
0.0012324343 -0.037725907 0.010000139 0
0.0045512496 -0.037638236 -0.0099998461 0
0.0046314001 -0.037155058 0.01000015 0
0.0073561817 -0.037381418 -0.0099998359 0
0.0076505495 -0.037613261 0.010000163 0
0.0096987216 -0.037390467 -0.0098385578 0
0.010000025 -0.03768057 -0.0073566292 0
0.010000013 -0.037558597 -0.0043331133 0
0.010000004 -0.037785083 -0.0015879133 0
0.0099999905 -0.037601516 0.0015044849 0
0.0099999802 -0.037452221 0.0044844788 0
0.00999997 -0.037404072 0.0074610328 0
0.0096757319 -0.037742462 0.009801385 0
-0.0097444337 -0.034540366 -0.0097707855 0
-0.0099999718 -0.034453493 -0.0072723934 0
-0.0099999839 -0.034314729 -0.0045328708 0
-0.0099999923 -0.034417327 -0.0015486019 0
-0.010000002 -0.034515087 0.0015101525 0
-0.010000013 -0.034345087 0.0044130539 0
-0.010000024 -0.034168217 0.0075172801 0
-0.009752145 -0.034384552 0.0097042844 0
-0.007369366 -0.034437995 -0.0099999001 0
-0.007578339 -0.034640372 0.010000097 0
-0.0046903896 -0.034493875 -0.0099998908 0
-0.0044282703 -0.034586243 0.010000106 0
-0.0014917237 -0.034502316 -0.0099998778 0
-0.0014453034 -0.034473624 0.010000116 0
0.0016597093 -0.034648463 -0.0099998675 0
0.0017451048 -0.034626015 0.010000131 0
0.0044297054 -0.034364514 -0.0099998591 0
0.0044744438 -0.034483198 0.010000138 0
0.0075606047 -0.034602217 -0.0099998461 0
0.0075004185 -0.034265079 0.010000148 0
0.0097541893 -0.034534536 -0.0097346362 0
0.010000026 -0.034646109 -0.0073136403 0
0.010000015 -0.034433354 -0.0045755035 0
0.010000006 -0.034532689 -0.0013280675 0
0.0099999905 -0.034452084 0.0017607613 0
0.0099999849 -0.034168392 0.0045761494 0
0.00999997 -0.034469049 0.0075240638 0
0.0097065624 -0.034656458 0.0098040104 0
-0.0097158495 -0.031711191 -0.0097456966 0
-0.0099999737 -0.031278536 -0.0074559911 0
-0.0099999812 -0.03137555 -0.0046336497 0
-0.0099999923 -0.031473484 -0.0012651007 0
-0.010000004 -0.031700764 0.0015562858 0
-0.010000015 -0.031407427 0.0045102541 0
-0.010000025 -0.031819034 0.0074364287 0
-0.0096883448 -0.031422716 0.0097438591 0
-0.007471838 -0.031549338 -0.0099999094 0
-0.0076703015 -0.031483211 0.010000084 0
-0.0046188612 -0.031671431 -0.0099999001 0
-0.0044681998 -0.031356759 0.010000098 0
-0.0015246663 -0.031674441 -0.009999888 0
-0.001528925 -0.0316284 0.010000106 0
0.0014245242 -0.031410202 -0.0099998796 0
0.0013869134 -0.031489331 0.010000114 0
0.0045134495 -0.031650174 -0.0099998675 0
0.004718232 -0.031535886 0.01000013 0
0.0074551371 -0.031462047 -0.0099998564 0
0.0075680958 -0.031574711 0.010000141 0
0.0098491041 -0.031236397 -0.0096615423 0
0.010000025 -0.031355519 -0.0072847125 0
0.010000015 -0.031449262 -0.0045419498 0
0.010000003 -0.031437472 -0.0012895328 0
0.0099999914 -0.031326171 0.0014643017 0
0.009999983 -0.031777576 0.0045190142 0
0.0099999709 -0.031681307 0.0077544358 0
0.0099084927 -0.03088548 0.0096050529 0
-0.0097860899 -0.028341988 -0.0097807245 0
-0.0099999709 -0.028604552 -0.0075506316 0
-0.0099999812 -0.028400898 -0.0045050946 0
-0.0099999951 -0.028520335 -0.0012893411 0
-0.010000005 -0.028311579 0.0015245688 0
-0.010000016 -0.028461654 0.0048315828 0
-0.010000024 -0.028674377 0.0074115493 0
-0.009738287 -0.028735938 0.0097743608 0
-0.0075575733 -0.028348869 -0.0099999215 0
-0.0073078871 -0.028627727 0.010000076 0
-0.0044102324 -0.02851304 -0.0099999104 0
-0.0044529955 -0.028430879 0.010000084 0
-0.0016900941 -0.028386595 -0.0099999011 0
-0.0014196098 -0.028527334 0.010000096 0
0.0014458403 -0.028413316 -0.0099998899 0
0.0013088484 -0.028594073 0.010000107 0
0.0045105293 -0.028577141 -0.0099998768 0
0.0045288405 -0.028541716 0.010000118 0
0.0072966539 -0.028575266 -0.0099998703 0
0.0074524581 -0.028303048 0.010000127 0
0.0098122675 -0.028103465 -0.0096402178 0
0.010000023 -0.028466554 -0.0073835873 0
0.010000014 -0.028307823 -0.0043120096 0
0.010000004 -0.028446075 -0.0013826663 0
0.0099999905 -0.028328119 0.0017485839 0
0.009999983 -0.028400164 0.0042441646 0
0.0099999709 -0.028361076 0.0074151475 0
0.00981325 -0.028631726 0.0097488239 0
-0.009782142 -0.025449306 -0.0097387591 0
-0.0099999709 -0.025347045 -0.0076083723 0
-0.009999983 -0.025489969 -0.0042827418 0
-0.0099999914 -0.025478641 -0.0014715878 0
-0.010000002 -0.025544809 0.0014417629 0
-0.010000014 -0.025448984 0.0044084666 0
-0.010000025 -0.025501689 0.0074730059 0
-0.0097293025 -0.025431428 0.009853824 0
-0.0074945362 -0.025409365 -0.0099999318 0
-0.0075263232 -0.025587536 0.010000065 0
-0.0047349096 -0.025701674 -0.0099999225 0
-0.0046909917 -0.025612146 0.010000072 0
-0.0016439701 -0.025702516 -0.0099999094 0
-0.0015271865 -0.025306419 0.010000085 0
0.0015307785 -0.025705807 -0.0099998983 0
0.0014945114 -0.025494946 0.010000096 0
0.0044839229 -0.02566484 -0.0099998899 0
0.0044262102 -0.025229556 0.010000106 0
0.0074838507 -0.025333175 -0.0099998806 0
0.0074658417 -0.025740873 0.010000119 0
0.009832507 -0.025530487 -0.0097347898 0
0.010000026 -0.025424594 -0.0078659309 0
0.010000014 -0.025604865 -0.0043713828 0
0.010000004 -0.025612637 -0.001714805 0
0.0099999923 -0.025253752 0.0014393085 0
0.0099999802 -0.025470704 0.0046820049 0
0.00999997 -0.025397424 0.0073939068 0
0.009842461 -0.025233995 0.0096745826 0
-0.0098333145 -0.022305913 -0.0096660797 0
-0.00999997 -0.02263022 -0.0075610834 0
-0.0099999812 -0.022472585 -0.0045968611 0
-0.0099999923 -0.022844791 -0.0017254092 0
-0.010000006 -0.022494961 0.0015478184 0
-0.010000014 -0.022498939 0.0046801046 0
-0.010000024 -0.022560043 0.0075779296 0
-0.0098325182 -0.022757292 0.0097863739 0
-0.0074648838 -0.022460431 -0.0099999439 0
-0.0077101416 -0.022437342 0.010000053 0
-0.0043167388 -0.022584107 -0.0099999309 0
-0.0044800662 -0.022439299 0.010000063 0
-0.00126351 -0.022745475 -0.0099999215 0
-0.0013507804 -0.022292191 0.010000075 0
0.0014806296 -0.022399254 -0.0099999113 0
0.0015341898 -0.022565838 0.010000085 0
0.0045355544 -0.022653634 -0.0099998983 0
0.004481982 -0.022766443 0.010000099 0
0.0072553195 -0.022295671 -0.0099998899 0
0.0076155802 -0.02264438 0.01000011 0
0.0097995726 -0.022158723 -0.0096441675 0
0.010000026 -0.022636719 -0.0074680536 0
0.010000014 -0.022244085 -0.0044737272 0
0.010000003 -0.022720719 -0.0016113636 0
0.0099999923 -0.022413407 0.0013700847 0
0.0099999812 -0.022694876 0.0044973437 0
0.0099999681 -0.022816077 0.0076479474 0
0.0096727461 -0.022380067 0.0097741224 0
-0.0098364977 -0.01934104 -0.0097389519 0
-0.00999997 -0.019442702 -0.00766207 0
-0.0099999821 -0.019639414 -0.0044532665 0
-0.0099999914 -0.019421348 -0.001592449 0
-0.010000005 -0.019524418 0.0014776411 0
-0.010000015 -0.019417485 0.0045895926 0
-0.010000024 -0.019340128 0.0075152875 0
-0.0097800381 -0.019486507 0.009731805 0
-0.0072646718 -0.019425752 -0.0099999532 0
-0.0076534702 -0.01951221 0.01000004 0
-0.0044765547 -0.019398177 -0.009999943 0
-0.0044401563 -0.019528812 0.010000051 0
-0.0016795018 -0.019533083 -0.0099999327 0
-0.0014373373 -0.0193638 0.010000061 0
0.0015885864 -0.019460062 -0.0099999215 0
0.0014438924 -0.019440051 0.010000072 0
0.0044985106 -0.019373018 -0.0099999132 0
0.0046407762 -0.019561926 0.010000086 0
0.00761144 -0.019537536 -0.0099998992 0
0.0075424258 -0.019386379 0.010000097 0
0.0097048851 -0.019475883 -0.0097994711 0
0.010000024 -0.019379849 -0.0075307838 0
0.010000015 -0.019410282 -0.004549711 0
0.010000004 -0.019332932 -0.0015871882 0
0.0099999923 -0.019460045 0.0015863758 0
0.0099999821 -0.019475909 0.0043791519 0
0.0099999718 -0.019478429 0.0075191827 0
0.0097865909 -0.019735264 0.009637312 0
-0.009806795 -0.016628642 -0.009731953 0
-0.00999997 -0.016365211 -0.0077021737 0
-0.009999983 -0.016208481 -0.0042296606 0
-0.0099999905 -0.016215716 -0.0014853022 0
-0.010000006 -0.016627794 0.0015163894 0
-0.010000017 -0.016591599 0.0046651592 0
-0.010000025 -0.016713213 0.0073501808 0
-0.0097325416 -0.016602451 0.0097673507 0
-0.0075562601 -0.016589969 -0.0099999653 0
-0.007571388 -0.01654906 0.01000003 0
