# .PCD v0.7 - Point Cloud Data file format
VERSION 0.7
FIELDS x y z rgb
SIZE 4 4 4 4
TYPE F F F F
COUNT 1 1 1 1
WIDTH 1154
HEIGHT 1
VIEWPOINT 0 0 0 1 0 0 0
POINTS 1154
DATA ascii
-0.005999994 -0.14554052 -0.001513959 0
-0.0060000047 -0.1454899 0.0013227342 0
-0.0059461608 -0.14540537 0.0043978705 0
-0.0046748286 -0.14532252 0.006000509 0
-0.0016873151 -0.14556149 -0.0059994804 0
-0.0025332717 -0.144958 0.0060005151 0
-0.001584345 -0.14554518 0.0060005235 0
0.001804827 -0.14536136 -0.0059994659 0
0.0012332877 -0.1446154 0.0060005276 0
0.0015575405 -0.1454788 0.0060005328 0
0.0045054476 -0.14554955 -0.0059994566 0
0.0059999926 -0.14503549 0.0019934331 0
0.0045772507 -0.1456687 0.0060005453 0
0.0060000173 -0.14540829 -0.0043989788 0
0.0060000042 -0.14550975 -0.0015495517 0
0.0059999935 -0.14525393 0.0013918078 0
0.0059999838 -0.14557719 0.0043364116 0
-0.0059999996 -0.14241786 -0.00026778178 0
-0.0051189759 -0.14264221 -0.005349508 0
-0.0059999949 -0.1423634 -0.0014584752 0
-0.0060000038 -0.14245605 0.0013707862 0
-0.0060000173 -0.14261945 0.0045840014 0
-0.0043831747 -0.14248097 0.0060004988 0
-0.00044536806 -0.14258783 -0.005999486 0
-0.0014923402 -0.14215069 -0.0059994897 0
-0.0014359391 -0.14254631 0.0060005109 0
0.001691951 -0.14245874 -0.0059994776 0
0.0014048802 -0.14251842 0.0060005202 0
0.0045119729 -0.14238079 -0.0059994697 0
0.0046784389 -0.14268175 0.0060005346 0
0.0060000191 -0.14248614 -0.0047035627 0
0.0060000052 -0.14279999 -0.0014509541 0
0.0059999963 -0.14236976 0.0014623256 0
0.0059999856 -0.14274162 0.004360205 0
-0.0059999996 -0.13800092 -0.00028058366 0
-0.0054163625 -0.1396715 -0.0051581254 0
-0.0059999949 -0.13948537 -0.0011790391 0
-0.006000007 -0.13954183 0.0012825357 0
-0.0060000177 -0.13937257 0.0045373309 0
-0.0044273338 -0.13976261 0.0060004904 0
-0.0017119419 -0.13957614 -0.0059995023 0
-0.0018246853 -0.13995235 0.0060004997 0
-0.0015561854 -0.13955638 0.0060005016 0
0.0011878883 -0.13881403 -0.0059994939 0
0.0014284314 -0.13952039 -0.0059994883 0
0.0013387594 -0.13957143 0.0060005081 0
0.0044094585 -0.13924727 -0.0059994808 0
0.0059999959 -0.13973266 0.0010909247 0
0.0059999856 -0.13900401 0.0038811844 0
0.0045100935 -0.13950886 0.0060005207 0
0.0060000187 -0.13977592 -0.004781934 0
0.0060000042 -0.13930613 -0.0014828031 0
0.0059999949 -0.13956496 0.0015275095 0
0.0059999824 -0.13951199 0.0046018329 0
-0.006000008 -0.13708909 0.0020764805 0
-0.0052518109 -0.13652824 -0.0051315064 0
-0.0059999949 -0.1363682 -0.001319083 0
-0.0060000061 -0.13652965 0.0016028271 0
-0.0059279236 -0.13675481 0.0045865932 0
-0.0044388338 -0.13645135 0.0060004783 0
-0.0011651806 -0.13664396 -0.0059995102 0
-0.0015884999 -0.13630702 -0.0059995111 0
-0.0016800762 -0.13646424 0.0060004885 0
0.0011964723 -0.13633853 -0.0059995027 0
0.0013957098 -0.13656107 0.006000502 0
0.0044483878 -0.13655044 -0.0059994897 0
0.0060000038 -0.13664877 -0.0011962617 0
0.0059999921 -0.13522798 0.0020535786 0
0.0059999833 -0.13621826 0.0044625094 0
0.0044308496 -0.13647802 0.0060005113 0
0.0060000177 -0.13663371 -0.004480965 0
0.0060000038 -0.13659853 -0.0014177609 0
0.0059999959 -0.1364608 0.0014842922 0
0.0059999865 -0.13661155 0.00441933 0
-0.0060000033 -0.1334697 0.00076488673 0
-0.0052604838 -0.1333974 -0.0051785451 0
-0.005999994 -0.13384236 -0.0015915469 0
-0.0060000075 -0.13363469 0.0015379373 0
-0.0059383684 -0.1334932 0.0044872286 0
-0.00451804 -0.13338798 0.0060004666 0
-0.0014823037 -0.1334489 -0.0059995214 0
-0.0021162403 -0.13315326 0.0060004741 0
-0.0016905399 -0.13338819 0.0060004792 0
0.0015031098 -0.13340506 -0.005999512 0
0.0011404926 -0.13282575 0.0060004848 0
0.0015932971 -0.1334849 0.0060004904 0
0.0048476588 -0.13379082 -0.0059994985 0
0.0059999945 -0.13230295 0.00141641 0
0.0059999861 -0.13327903 0.0037748904 0
0.0041212454 -0.13360545 0.0060005002 0
0.0060000154 -0.13371952 -0.0045688474 0
0.0060000047 -0.13339053 -0.0014314767 0
0.0059999959 -0.13378286 0.0015635579 0
0.0059999856 -0.13348809 0.0046277093 0
-0.005376712 -0.13047022 -0.0052747214 0
-0.0059999968 -0.13057058 -0.0014442464 0
-0.0060000052 -0.13038532 0.001383718 0
-0.0060000187 -0.13041776 0.0045156917 0
-0.0045348676 -0.13045208 0.0060004545 0
-0.0012722107 -0.12932085 -0.0059995372 0
-0.0013594578 -0.13031182 -0.0059995335 0
-0.0014108919 -0.13041717 0.0060004676 0
0.00060623192 -0.12912957 -0.0059995307 0
0.0014804048 -0.13040659 -0.0059995237 0
0.0013213679 -0.13047244 0.0060004783 0
0.0042876042 -0.13038814 -0.0059995111 0
0.006000001 -0.1318973 -0.00038021617 0
0.0059999819 -0.1298705 0.0049268147 0
0.0046554399 -0.13052537 0.0060004881 0
0.0060000145 -0.13055086 -0.0044260458 0
0.0060000061 -0.1305088 -0.0015019297 0
0.0059999949 -0.13039085 0.0014012589 0
0.0059999861 -0.13078608 0.0042818445 0
-0.0052544679 -0.12753564 -0.0054330081 0
-0.005999994 -0.12744917 -0.0016194329 0
-0.0060000056 -0.12751603 0.0013787549 0
-0.0060000164 -0.12755379 0.004563435 0
-0.0042047431 -0.1278331 0.0060004462 0
-0.0014717781 -0.12765782 -0.0059995428 0
-0.0014562523 -0.12757167 0.0060004569 0
0.0014350769 -0.12761024 -0.005999533 0
0.0016889531 -0.12741171 0.0060004676 0
0.0043709194 -0.12763971 -0.0059995227 0
0.0059999973 -0.12756975 0.0008038216 0
0.005999981 -0.12737118 0.0051463116 0
0.0044687903 -0.12746684 0.0060004792 0
0.0060000182 -0.1276349 -0.0043951245 0
0.0060000061 -0.12739587 -0.001480942 0
0.0059999973 -0.12739804 0.0013793558 0
0.0059999852 -0.12756525 0.004440702 0
-0.0060000196 -0.12427243 0.0053252582 0
-0.0053551164 -0.12507401 -0.0059995675 0
-0.00526438 -0.12455192 -0.0052387123 0
-0.0059999949 -0.12471985 -0.0015793362 0
-0.0060000028 -0.1244623 0.0012758519 0
-0.0058501577 -0.1242769 0.0043641273 0
-0.0046284539 -0.12468188 0.0060004345 0
-0.0016807726 -0.1245345 -0.0059995558 0
-0.0014700897 -0.12464703 0.0060004485 0
0.001413095 -0.12449313 -0.0059995465 0
0.001278119 -0.12447169 0.0060004541 0
0.0043682111 -0.12446591 -0.0059995349 0
0.0044001443 -0.12463111 0.0060004666 0
0.0060000159 -0.1247275 -0.004435746 0
0.0060000066 -0.1246071 -0.0013865902 0
0.0059999959 -0.12430545 0.0012377005 0
0.0059999852 -0.12433528 0.0045421612 0
-0.0059999991 -0.12259203 -0.00034758454 0
-0.0060000075 -0.12124057 0.0019538964 0
-0.0060000173 -0.12135666 0.0046642832 0
-0.0045843218 -0.12098444 -0.0059995791 0
-0.0050765523 -0.12150007 -0.0053907372 0
-0.0059999973 -0.12149534 -0.0014137398 0
-0.0060000075 -0.12146163 0.0014144797 0
-0.0058547915 -0.12164953 0.0045966869 0
-0.0043228804 -0.12145254 0.0060004229 0
-0.00095305563 -0.12134038 -0.0059995647 0
-0.0012872878 -0.1213039 -0.0059995651 0
-0.0022537156 -0.12055651 0.0060004275 0
-0.001544924 -0.12152357 0.006000435 0
0.001338325 -0.121535 -0.0059995535 0
0.0016423392 -0.12162258 0.006000448 0
0.0045545953 -0.12147631 -0.0059995428 0
0.0059999917 -0.12079886 0.0023726125 0
0.0059999828 -0.12157282 0.004601683 0
0.0046157497 -0.12159511 0.0060004569 0
0.0060000159 -0.12146402 -0.0045584291 0
0.0060000061 -0.12152105 -0.0015149929 0
0.0059999931 -0.12138962 0.0014871246 0
0.0059999852 -0.12153131 0.0045630778 0
-0.0059999996 -0.11917759 -0.00021828487 0
-0.006000007 -0.117769 0.0017986757 0
-0.006000015 -0.11933403 0.0040289243 0
-0.0039513204 -0.11808356 -0.0059995875 0
-0.0053025344 -0.1185519 -0.0051347339 0
-0.0059999926 -0.11828535 -0.0016220836 0
-0.0060000047 -0.11854956 0.0016325082 0
-0.0059218807 -0.11858117 0.0046071634 0
-0.0046011605 -0.11860095 0.006000415 0
-0.0022871362 -0.11866035 -0.0059995796 0
-0.0016912118 -0.11863228 -0.0059995763 0
-0.0023686953 -0.11806852 0.0060004191 0
-0.0014988977 -0.11866549 0.0060004266 0
0.0014793548 -0.1185543 -0.0059995647 0
0.0015024306 -0.1185425 0.0060004336 0
0.0041887313 -0.11852073 -0.0059995591 0
0.0059999898 -0.11985073 0.0027515166 0
0.0059999838 -0.11891393 0.0045442847 0
0.0044573611 -0.11837965 0.0060004429 0
0.0060000173 -0.11847561 -0.0044129491 0
0.0060000075 -0.11852061 -0.0016476343 0
0.0059999926 -0.11852235 0.0016731101 0
0.0059999828 -0.11866322 0.0045667873 0
-0.0060000047 -0.11482903 0.0011343611 0
-0.0060000168 -0.11488131 0.0045368038 0
-0.0038766309 -0.11462864 -0.0059995996 0
-0.0053172023 -0.11532346 -0.0051955031 0
-0.0059999949 -0.11544102 -0.0015994011 0
-0.0060000066 -0.11544852 0.0017634963 0
-0.0059519354 -0.11572313 0.0046092556 0
-0.0045235991 -0.11559258 0.0060004024 0
-0.001347907 -0.11559969 -0.0059995865 0
-0.0019354009 -0.11562552 0.0060004112 0
-0.0014162146 -0.11553399 0.0060004112 0
0.0013518382 -0.11534397 -0.0059995791 0
0.0013433684 -0.11557021 0.0060004224 0
0.0045869853 -0.11545444 -0.0059995656 0
0.0059999903 -0.11580908 0.0026074247 0
0.0059999852 -0.1161852 0.0040106755 0
0.0044126348 -0.11566534 0.0060004345 0
0.0060000164 -0.11547714 -0.0044670915 0
0.0060000061 -0.11573543 -0.0016370245 0
0.0059999973 -0.11543296 0.0015171784 0
0.0059999828 -0.11552571 0.0043764082 0
-0.0060000098 -0.11316229 0.002575455 0
-0.0060000159 -0.11212099 0.0042127958 0
-0.0048237387 -0.11244242 -0.0059996108 0
-0.0051903673 -0.11249027 -0.0053481217 0
-0.0059999926 -0.11272525 -0.0019003885 0
-0.0060000052 -0.11248645 0.0014973991 0
-0.0059274519 -0.11268912 0.0044667237 0
-0.004410712 -0.11254261 0.0060003912 0
-0.0026000307 -0.11260629 -0.0059996024 0
-0.0016232956 -0.11255457 -0.0059995973 0
-0.001537584 -0.11236332 0.0060004038 0
0.0014822481 -0.11239512 -0.0059995861 0
0.0014787052 -0.11245417 0.0060004117 0
0.0045136567 -0.11248852 -0.0059995772 0
0.0059999912 -0.11261836 0.0024763998 0
0.0059999819 -0.11302233 0.004864112 0
0.0043638065 -0.11232435 0.0060004205 0
0.0060000168 -0.11257458 -0.0045443838 0
0.0060000033 -0.11254575 -0.0013945273 0
0.0059999959 -0.11238969 0.0012614791 0
0.0059999865 -0.11249497 0.004435386 0
-0.0060000224 -0.1103483 0.0059963916 0
-0.0038771585 -0.10976762 -0.0059996173 0
-0.0054140538 -0.10959195 -0.005173089 0
-0.0059999945 -0.10947537 -0.0014295934 0
-0.0060000047 -0.10950215 0.001309372 0
-0.0059144339 -0.10945603 0.0046199411 0
-0.0046499171 -0.10937264 0.0060003777 0
-0.00054795522 -0.11042285 -0.0059996028 0
-0.0016202248 -0.10959052 -0.0059996108 0
-0.0024316448 -0.10928508 0.0060003866 0
-0.0014443641 -0.10933407 0.0060003912 0
0.0013719574 -0.10949159 -0.0059996 0
0.0015699234 -0.10942433 0.0060004019 0
0.0046243514 -0.10955906 -0.0059995879 0
0.0059999842 -0.10989703 0.0042312699 0
0.0046494929 -0.10943608 0.0060004131 0
0.0060000187 -0.10956431 -0.0046094037 0
0.0060000052 -0.10929523 -0.0014720147 0
0.0059999945 -0.1094621 0.0014237276 0
0.0059999828 -0.10939541 0.0043995874 0
-0.0060000066 -0.10614906 0.0016238493 0
-0.0060000201 -0.10608806 0.0054187272 0
-0.0047811815 -0.10668715 -0.0059996317 0
-0.005347962 -0.10656583 -0.0052088504 0
-0.0059999954 -0.1064037 -0.0016632881 0
-0.0060000075 -0.10648226 0.0012528707 0
-0.0059087086 -0.10658705 0.0045202947 0
-0.0043330463 -0.10651255 0.0060003679 0
-0.0016050497 -0.10659333 -0.0059996182 0
-0.001412583 -0.10639511 0.0060003805 0
0.001397325 -0.1065763 -0.005999607 0
0.0015476099 -0.10643191 0.0060003912 0
0.0045336173 -0.10654742 -0.0059996 0
0.0059999847 -0.10643786 0.0042580781 0
0.0044575906 -0.10656103 0.0060004052 0
0.0060000182 -0.1064179 -0.0046056747 0
0.006000007 -0.1066613 -0.0015813509 0
0.0059999935 -0.10656887 0.0014500745 0
0.0059999856 -0.10654853 0.0043394938 0
-0.0060000061 -0.10444384 0.0015633007 0
-0.0060000177 -0.10373141 0.0048214146 0
-0.0039812694 -0.10377111 -0.0059996392 0
-0.0052242056 -0.10341337 -0.005211601 0
-0.0059999977 -0.10367267 -0.0012993686 0
-0.0060000056 -0.10329017 0.0015251123 0
-0.0058895098 -0.10380693 0.0046714977 0
-0.0044840002 -0.10337028 0.0060003586 0
-0.00075902615 -0.10332579 -0.0059996294 0
-0.0015148547 -0.10372476 -0.0059996317 0
-0.0024073094 -0.10357882 0.0060003656 0
-0.0015112524 -0.10357388 0.0060003689 0
0.0015928437 -0.10351472 -0.005999621 0
0.0015860496 -0.10353613 0.0060003828 0
0.0044278544 -0.10347467 -0.0059996117 0
0.0059999893 -0.10317049 0.0028802508 0
0.0059999824 -0.10397486 0.0047492678 0
0.0044793207 -0.10353227 0.0060003898 0
0.0060000187 -0.10346196 -0.0046592839 0
0.0060000042 -0.10347769 -0.0014733191 0
0.0059999963 -0.10367068 0.0014181377 0
0.0059999865 -0.10342398 0.0043180156 0
-0.0060000061 -0.10002058 0.0015382902 0
-0.0060000215 -0.10031517 0.0058529079 0
-0.0046225865 -0.10058977 -0.0059996531 0
-0.0052533345 -0.10044741 -0.0052270931 0
-0.0059999931 -0.10043899 -0.0015525628 0
-0.006000007 -0.10058521 0.0015558365 0
-0.0059083523 -0.10018811 0.0045614722 0
-0.0044142692 -0.1003494 0.0060003456 0
-0.002375864 -0.10033634 -0.0059996457 0
-0.0013964581 -0.10018392 -0.0059996429 0
-0.0026985358 -0.10168926 0.0060003581 0
-0.0013888587 -0.10066066 0.0060003581 0
0.0013843948 -0.10047127 -0.0059996326 0
0.0012551475 -0.10046368 0.0060003689 0
0.0044126185 -0.10042641 -0.0059996205 0
0.0059999921 -0.099588439 0.0020581714 0
0.0059999833 -0.099464841 0.0046818936 0
0.004514352 -0.10028384 0.00600038 0
0.0060000173 -0.10042489 -0.0046602744 0
0.0060000066 -0.10042161 -0.0013350355 0
0.0059999982 -0.10040511 0.0012815031 0
0.0059999814 -0.10035027 0.0047044004 0
-0.0060000108 -0.097724117 0.0028413776 0
-0.0060000168 -0.097578436 0.0044562286 0
-0.0053011929 -0.096933909 -0.0059996685 0
-0.0052709421 -0.097522244 -0.0051240572 0
-0.0059999968 -0.097359478 -0.0013121358 0
-0.0060000066 -0.097603701 0.0012044068 0
-0.0059197531 -0.097704269 0.0046055107 0
-0.0044857822 -0.097432792 0.0060003367 0
-0.0023924459 -0.096849412 -0.0059996587 0
-0.0013172695 -0.097391628 -0.0059996508 0
-0.0020796021 -0.097357579 0.0060003446 0
-0.0013536256 -0.097446829 0.0060003484 0
0.0016350719 -0.097686075 -0.0059996406 0
0.0012731121 -0.097547732 0.0060003581 0
0.0045832116 -0.097449727 -0.0059996303 0
0.0059999903 -0.097897507 0.0025639229 0
0.0059999828 -0.098236032 0.004578162 0
0.0045267306 -0.097265013 0.0060003684 0
0.0060000182 -0.097631432 -0.0045286138 0
0.006000008 -0.097508915 -0.001223932 0
0.0059999945 -0.097298101 0.0013958701 0
0.0059999861 -0.097252555 0.0046735597 0
-0.0060000061 -0.094591878 0.0016073374 0
-0.0060000159 -0.093861073 0.0042867386 0
-0.0045018424 -0.094843224 -0.0059996736 0
-0.0053047156 -0.094536081 -0.0051607527 0
-0.0059999949 -0.094704024 -0.0014487775 0
-0.0060000042 -0.094389983 0.0016633903 0
-0.0060000182 -0.094537295 0.0045193615 0
-0.0044980631 -0.094590142 0.006000326 0
-0.0014788724 -0.093497552 -0.0059996671 0
-0.0013779856 -0.094435833 -0.0059996638 0
-0.0022562116 -0.094710775 0.0060003339 0
-0.0015627905 -0.094698973 0.0060003372 0
0.0018200766 -0.094428807 -0.0059996499 0
0.0014867983 -0.094281882 0.0060003507 0
0.0046863146 -0.094400361 -0.0059996438 0
0.0059999903 -0.093156241 0.0026135908 0
0.0059999819 -0.094427742 0.0048695025 0
0.0046070237 -0.094704412 0.00600036 0
0.0060000168 -0.094515227 -0.0045291726 0
0.0060000066 -0.094484664 -0.0013654826 0
0.0059999973 -0.094239347 0.0014489894 0
0.0059999828 -0.094465032 0.0044356696 0
-0.0060000196 -0.091607518 0.0052514197 0
-0.0033590498 -0.092535354 -0.0059996778 0
-0.0053704404 -0.091331318 -0.0051137693 0
-0.0059999949 -0.091445602 -0.0013560615 0
-0.0060000061 -0.091597892 0.001493392 0
-0.0059503964 -0.091382496 0.0045868251 0
-0.0044011255 -0.091500148 0.0060003167 0
-0.0015034045 -0.091472916 -0.0059996732 0
-0.0023356022 -0.091732077 0.0060003232 0
-0.0015349409 -0.091395974 0.0060003242 0
0.0016407468 -0.091633663 -0.0059996652 0
0.0015976939 -0.091704063 0.00600034 0
0.0043527884 -0.091488652 -0.0059996536 0
0.0059999907 -0.09109246 0.0026180353 0
0.00599998 -0.091531388 0.0053413119 0
0.0045104618 -0.091594867 0.0060003493 0
0.0060000154 -0.091485001 -0.0046091932 0
0.0060000061 -0.09163215 -0.0015406864 0
0.005999994 -0.091366269 0.0014499183 0
0.0059999847 -0.091549538 0.0045724437 0
-0.0060000066 -0.088468991 0.0016263378 0
-0.0060000205 -0.087584965 0.0055740573 0
-0.0047813174 -0.087734148 -0.0059997002 0
-0.0053149303 -0.088542812 -0.0052374634 0
-0.005999994 -0.088348471 -0.0015358535 0
-0.0060000075 -0.088380948 0.0014566504 0
-0.0058222264 -0.088566452 0.0045372033 0
-0.0047345171 -0.088303521 0.0060003004 0
-0.0014375008 -0.089046448 -0.0059996834 0
-0.0013515479 -0.088284649 -0.0059996862 0
-0.0029464278 -0.089481927 0.006000313 0
-0.0015038167 -0.088304989 0.0060003153 0
0.0013810104 -0.088288657 -0.0059996778 0
0.0016678971 -0.088580579 0.0060003255 0
0.004343722 -0.088383414 -0.0059996657 0
0.0059999893 -0.087380111 0.0028339396 0
0.0059999824 -0.088308483 0.0049304967 0
0.0047224374 -0.088534258 0.0060003377 0
0.0060000168 -0.08846543 -0.0044814013 0
0.0060000056 -0.088689335 -0.0013748336 0
0.0059999931 -0.088435017 0.00153811 0
0.0059999828 -0.088424042 0.0042961314 0
-0.0060000094 -0.08621069 0.0024779581 0
-0.0060000164 -0.085376248 0.0044180118 0
-0.0048551727 -0.085970163 -0.0059997072 0
-0.0054012355 -0.085591808 -0.005232357 0
-0.0059999954 -0.085560732 -0.0013959381 0
-0.0060000056 -0.085745677 0.0013541161 0
-0.0058707399 -0.085613787 0.0048094583 0
-0.0045653037 -0.085169017 0.0060002911 0
-0.0018884202 -0.084116109 -0.005999703 0
-0.0016562827 -0.085752331 -0.0059996978 0
-0.0021297182 -0.085321881 0.0060003009 0
-0.0014455591 -0.085533522 0.0060003032 0
0.0016281393 -0.085422672 -0.0059996853 0
0.001288344 -0.085309625 0.0060003134 0
0.0046096239 -0.085411839 -0.005999676 0
0.0059999782 -0.08644782 0.0059129782 0
0.0045671309 -0.085555695 0.006000326 0
0.0060000164 -0.085351318 -0.0045306194 0
0.0060000084 -0.085398875 -0.0016816831 0
0.0059999982 -0.085368268 0.0015076809 0
0.0059999833 -0.085481741 0.0042799027 0
-0.0060000052 -0.083889239 0.0013225428 0
-0.0060000177 -0.083335102 0.0047871787 0
-0.0036355222 -0.082110487 -0.0059997165 0
-0.0052169156 -0.082445204 -0.0053204489 0
-0.0059999968 -0.082274467 -0.0015498311 0
-0.0060000061 -0.082655795 0.0015092649 0
-0.0059782607 -0.082328618 0.0046741781 0
-0.004564187 -0.082523137 0.0060002822 0
-0.0015786914 -0.082545243 -0.0059997053 0
-0.0015816829 -0.082625248 0.0060002948 0
0.001640414 -0.082484372 -0.0059996936 0
0.0013068814 -0.08240743 0.0060003032 0
0.0044525345 -0.082497604 -0.0059996857 0
0.0059999907 -0.082977988 0.0024510587 0
0.0059999814 -0.082492873 0.0050718212 0
0.0043986179 -0.082413726 0.0060003148 0
0.0060000154 -0.082540236 -0.0044844807 0
0.0060000056 -0.082364909 -0.0017177307 0
0.005999994 -0.082333177 0.0013364727 0
0.0059999828 -0.082735471 0.0043746238 0
-0.0060000094 -0.078903809 0.0024710577 0
-0.0060000159 -0.079621233 0.0042679613 0
-0.0046835127 -0.079261921 -0.0059997304 0
-0.005188758 -0.079459637 -0.0052446895 0
-0.0059999949 -0.079649389 -0.0014168433 0
-0.0060000066 -0.07960581 0.0014151334 0
-0.0058508916 -0.079413734 0.0046666628 0
-0.0044654156 -0.079345204 0.0060002715 0
-0.0018722018 -0.08092425 -0.0059997146 0
-0.0014967445 -0.079406828 -0.0059997197 0
-0.0020648434 -0.079818584 0.0060002808 0
-0.0015141119 -0.079548493 0.0060002808 0
0.0013240451 -0.079402901 -0.0059997095 0
0.0017566825 -0.079265103 0.006000292 0
0.0044561401 -0.079477012 -0.005999696 0
0.0059999907 -0.079119198 0.0024161933 0
0.0059999833 -0.080285549 0.0044716219 0
0.0045854473 -0.079333045 0.0060003041 0
0.0060000177 -0.079565108 -0.0044493359 0
0.0060000042 -0.079653472 -0.0015558809 0
0.0059999968 -0.079602785 0.0015419227 0
0.0059999852 -0.079517961 0.0045381929 0
-0.0060000075 -0.077445693 0.0019232162 0
-0.0060000168 -0.075612873 0.0044601965 0
-0.0047766399 -0.075632408 -0.0059997439 0
-0.0052804248 -0.076602243 -0.0051490227 0
-0.0059999959 -0.076661728 -0.0014906223 0
-0.0060000056 -0.076563865 0.0013983547 0
-0.0058720121 -0.076329701 0.0045405449 0
-0.0045197704 -0.076574475 0.0060002594 0
-0.0028505579 -0.076067612 -0.0059997356 0
-0.0012987814 -0.076519802 -0.00599973 0
-0.0023304648 -0.076995194 0.0060002701 0
-0.0013071008 -0.076363802 0.006000272 0
0.0014190559 -0.076611556 -0.0059997179 0
0.0014297636 -0.07660941 0.0060002832 0
0.0044869324 -0.076522969 -0.0059997058 0
0.0059999912 -0.07642249 0.0024579091 0
0.0059999838 -0.076349124 0.0043351543 0
0.0043941066 -0.076391816 0.0060002948 0
0.0060000154 -0.076464884 -0.0048119333 0
0.0060000033 -0.076303959 -0.0012633349 0
0.0059999931 -0.076460183 0.0015414782 0
0.0059999842 -0.076588228 0.0044423854 0
-0.0060000168 -0.07434845 0.0044775154 0
-0.0051783132 -0.073104165 -0.0059997546 0
-0.0052617588 -0.073531196 -0.0051515992 0
-0.0059999959 -0.073508739 -0.0017367116 0
-0.0060000033 -0.073422261 0.001311046 0
-0.0059752511 -0.073579915 0.0043978929 0
-0.0044997791 -0.073447384 0.0060002492 0
-0.002411054 -0.07462047 -0.0059997393 0
-0.0015727436 -0.07362593 -0.0059997397 0
-0.0012149259 -0.073455192 0.0060002608 0
0.0013725228 -0.073509738 -0.0059997281 0
0.0013074502 -0.073588483 0.0060002729 0
0.0044252565 -0.073449612 -0.0059997188 0
0.005999981 -0.073347904 0.0053054304 0
0.0044496055 -0.073507473 0.0060002827 0
0.0060000177 -0.073535018 -0.0047746226 0
0.0060000056 -0.073480047 -0.0014438558 0
0.0059999982 -0.07339789 0.0013520342 0
0.0059999828 -0.073874697 0.0045833639 0
-0.0091815041 -0.069527954 -0.001371217 0
-0.0092827203 -0.069585286 0.00083438813 0
-0.0065409811 -0.069523305 -0.0065790159 0
-0.0074151913 -0.069834903 -0.0045850514 0
-0.007737183 -0.069977693 -0.0015969883 0
-0.0075541725 -0.070019618 0.001525523 0
-0.0074227168 -0.069867752 0.004398481 0
-0.0065527032 -0.069616526 0.0064905365 0
-0.0045365188 -0.069912836 -0.0072518359 0
-0.0052657779 -0.070912711 -0.0052592866 0
-0.0059999935 -0.071072184 -0.001390124 0
-0.0060000033 -0.070977457 0.0013478562 0
-0.0058433311 -0.07102938 0.0045569278 0
-0.0043348721 -0.070297293 0.0068887221 0
-0.0011526102 -0.069685623 -0.0092279315 0
-0.0015828727 -0.069984183 -0.007593499 0
-0.0014540661 -0.071032703 -0.0059997467 0
-0.0026372855 -0.071788758 0.0060002496 0
-0.0015053484 -0.070311531 0.0070262915 0
-0.00116828 -0.06952019 0.0092262318 0
0.00097101805 -0.069568783 -0.0092653735 0
0.0014619026 -0.069977611 -0.0074781748 0
0.0013452815 -0.070956148 -0.005999737 0
0.0014858023 -0.070271581 0.0072064674 0
0.001364114 -0.069652736 0.0091915671 0
0.0041648033 -0.069850996 -0.0074524372 0
0.0046447068 -0.070967831 -0.0059997248 0
0.0059999917 -0.071511604 0.0021669434 0
0.0043345019 -0.070244171 0.0069875536 0
0.0065615657 -0.069440834 -0.006483864 0
0.0068698842 -0.070331872 -0.0044756825 0
0.0071619297 -0.070300192 -0.0015642651 0
0.0067443741 -0.070441805 0.0015589291 0
0.006863045 -0.070265323 0.0042192629 0
0.0065563037 -0.069710895 0.0065723537 0
0.0092159286 -0.069608793 -0.0013610111 0
0.0091770766 -0.069720238 0.0014744172 0
-0.0092263315 -0.067460999 -0.0013714602 0
-0.009220697 -0.067522988 0.0014057489 0
-0.0065417145 -0.06770812 -0.006592249 0
-0.0081432518 -0.067654759 -0.0044117807 0
-0.0089246631 -0.067119643 -0.0028030423 0
-0.0089391153 -0.067362584 0.0027702702 0
-0.0080335457 -0.067568287 0.0045699105 0
-0.0065812687 -0.067275599 0.0065711765 0
-0.0045599281 -0.06735336 -0.0080674952 0
-0.0046457839 -0.067516916 0.008019479 0
-0.0011225179 -0.067508757 -0.0092570446 0
-0.0028099979 -0.067233846 -0.0089214938 0
-0.0028242776 -0.068034492 0.008915781 0
-0.0015231371 -0.067499645 0.0092053832 0
0.0015128488 -0.067661904 -0.0092051169 0
0.0028141169 -0.067497425 -0.0089197094 0
0.0027686292 -0.067930155 0.0089399694 0
0.0012609552 -0.067463204 0.0092386827 0
0.0044587767 -0.06735225 -0.0081264544 0
0.0046195607 -0.067379661 0.0080116047 0
0.0064852904 -0.067476079 -0.006647862 0
0.0079314122 -0.067359909 -0.0047609634 0
0.0089229615 -0.067604847 -0.0028069355 0
0.0089046303 -0.068020545 0.0028496075 0
0.0079927696 -0.06743817 0.0046489527 0
0.0065675178 -0.067318931 0.006569223 0
0.0092336088 -0.067448258 -0.0012780832 0
0.0092382617 -0.067576081 0.0012671156 0
-0.0092211887 -0.064451933 -0.0013718674 0
-0.0092266053 -0.064341649 0.0013852225 0
-0.006572424 -0.064862691 -0.0065562814 0
-0.0080183065 -0.064341001 -0.0046001459 0
-0.0088993907 -0.064536005 -0.0028611789 0
-0.0089257807 -0.064554609 0.0028009319 0
-0.0080227051 -0.06452477 0.0045749927 0
-0.006624531 -0.064545646 0.0065117017 0
-0.0046091788 -0.064472795 -0.0080211926 0
-0.0042858841 -0.064269148 0.0081861001 0
-0.0011963318 -0.06449189 -0.0092501249 0
-0.0027912825 -0.064388625 -0.0089296401 0
-0.0028496848 -0.064844914 0.0089047235 0
-0.001489701 -0.064356685 0.009209523 0
0.0010427797 -0.06445913 -0.0092694182 0
0.0028667694 -0.064272694 -0.0088968296 0
0.0028541079 -0.064792603 0.0089027938 0
0.0013088376 -0.064571746 0.0092332307 0
0.004410726 -0.064523555 -0.0081431912 0
0.0045362273 -0.064411275 0.0080617275 0
0.0065278141 -0.064414248 -0.0065967161 0
0.0079966132 -0.064577699 -0.0046199295 0
0.0089331744 -0.064588271 -0.0027834564 0
0.0089222221 -0.064270124 0.0028091318 0
0.0080471402 -0.064427756 0.0045597353 0
0.006658548 -0.064217351 0.006488353 0
0.0092347497 -0.064652912 -0.0012969726 0
0.0092075709 -0.064487651 0.0014992541 0
-0.0092657199 -0.061505936 -0.0010614787 0
-0.0092272032 -0.061453424 0.0013715301 0
-0.0065956567 -0.061629463 -0.006556083 0
-0.0080131954 -0.061371416 -0.0045973114 0
-0.0089036515 -0.061906297 -0.0028513859 0
-0.0089404173 -0.061520074 0.0027672537 0
-0.0082342345 -0.061425384 0.0042425748 0
-0.0066088326 -0.061524868 0.0065267701 0
-0.0046958188 -0.061529662 -0.0079717562 0
-0.0044913981 -0.061564572 0.00810102 0
-0.0014848714 -0.061125901 -0.0092085134 0
-0.0028249861 -0.061641071 -0.0089149969 0
-0.0028058912 -0.061896197 0.008923755 0
-0.0010874012 -0.061490629 0.0092610428 0
0.0013990692 -0.061594289 -0.0092178583 0
0.002891795 -0.061473116 -0.0088859582 0
0.0028327431 -0.061189618 0.0089120697 0
0.0011588451 -0.061323829 0.0092520351 0
0.0046490291 -0.061510969 -0.0080015333 0
0.0043160352 -0.061496854 0.0082008587 0
0.0065586157 -0.061600462 -0.0065777623 0
0.0081374468 -0.061512545 -0.0044177216 0
0.0089369714 -0.060803272 -0.0027747375 0
0.0088984109 -0.062105589 0.0028638889 0
0.0081575457 -0.061402664 0.0043669781 0
0.0066616288 -0.061612055 0.0064784861 0
0.0092366319 -0.061645206 -0.0012794769 0
0.0092411954 -0.061580434 0.001228677 0
-0.0092272386 -0.05859378 -0.0013552379 0
-0.0092262197 -0.058353856 0.0013830141 0
-0.0065263757 -0.058436766 -0.0066177468 0
-0.008203622 -0.058561455 -0.0043072538 0
-0.0089068953 -0.057916839 -0.0028439399 0
-0.0089174556 -0.058642015 0.002820059 0
-0.0080591477 -0.058292795 0.0045422367 0
-0.0065364866 -0.058516376 0.0066068275 0
-0.004449965 -0.058572561 -0.0081128906 0
-0.0044853082 -0.058425818 0.0080893254 0
-0.0014002824 -0.05862388 -0.0092211459 0
-0.0027802968 -0.05817733 -0.008934441 0
-0.0028863405 -0.058303352 0.0088887624 0
-0.0012346146 -0.058641385 0.0092443815 0
0.0011751945 -0.058630113 -0.0092500886 0
0.0028542301 -0.057735663 -0.0089023048 0
0.0028495453 -0.057911962 0.0089047514 0
0.0014041091 -0.058665618 0.0092192991 0
0.0045033852 -0.058508344 -0.0080829384 0
0.0045156227 -0.058638472 0.0080828806 0
0.0065421532 -0.058791447 -0.0065938486 0
0.0079733897 -0.058575042 -0.0046916907 0
0.0089359935 -0.058900677 -0.0027769955 0
0.0089279944 -0.058796331 0.0027958341 0
0.0081743868 -0.058581892 0.0043508159 0
0.0066431495 -0.05826186 0.006501554 0
0.009253975 -0.058376968 -0.001168001 0
0.0092193931 -0.058413129 0.0014142152 0
-0.009235071 -0.055656277 -0.0013126923 0
-0.0092225019 -0.055536151 0.0013834336 0
-0.0064898487 -0.055340581 -0.0066407369 0
-0.0079641994 -0.055347972 -0.0047059287 0
-0.0089173438 -0.055650152 -0.0028199181 0
-0.0089151058 -0.056005303 0.0028254515 0
-0.0080314567 -0.055518888 0.0045898487 0
-0.0065264604 -0.05559947 0.0066014361 0
-0.0042585665 -0.05546185 -0.0082369354 0
-0.0044281618 -0.055586442 0.0081159761 0
-0.0013279839 -0.055479959 -0.0092317751 0
-0.0027680607 -0.055809751 -0.0089397682 0
-0.0028749884 -0.055298764 0.0088936891 0
-0.0012057404 -0.055459935 0.0092474679 0
0.0013290694 -0.055302523 -0.0092274975 0
0.0028280588 -0.055929009 -0.0089136902 0
0.0027901451 -0.055239007 0.0089305686 0
0.0013634602 -0.055699613 0.009226854 0
0.0046802913 -0.055295952 -0.0079893954 0
0.0044044582 -0.055569306 0.0081331376 0
0.0064135776 -0.055819094 -0.0067234566 0
0.0081043011 -0.055520795 -0.0044810646 0
0.0089182863 -0.055339959 -0.0028177316 0
0.0089257816 -0.055353049 0.0028009152 0
0.0080663506 -0.055501621 0.00451928 0
0.0065317131 -0.05559206 0.0066007683 0
0.0092193019 -0.055762798 -0.001412077 0
0.0092067616 -0.055311687 0.0014965959 0
-0.0092311809 -0.052456837 -0.0012966511 0
-0.0092326719 -0.052671544 0.0013238312 0
-0.0065176277 -0.052303124 -0.0066179316 0
-0.0080782268 -0.052545603 -0.0045069121 0
-0.0089153675 -0.052736286 -0.0028244744 0
-0.0088952864 -0.052672628 0.0028710256 0
-0.0080213062 -0.052510113 0.0046150237 0
-0.0065597864 -0.052307703 0.0065725404 0
-0.0045807315 -0.052234609 -0.008032525 0
-0.0046661072 -0.052425195 0.00799248 0
-0.0013091193 -0.052429583 -0.0092332745 0
-0.002798208 -0.052511919 -0.0089266729 0
-0.0028425509 -0.052022036 0.0089077791 0
-0.0013529034 -0.052325595 0.0092257466 0
0.0013029359 -0.052630909 -0.009231599 0
0.0028101217 -0.052676994 -0.0089214994 0
0.0028484683 -0.052792761 0.0089052012 0
0.0014283415 -0.052712373 0.0092175948 0
0.004589776 -0.052618306 -0.008031209 0
0.0045257309 -0.052243333 0.0080686063 0
0.0065341843 -0.052407168 -0.0066107167 0
0.0083030984 -0.052411284 -0.0041395235 0
0.0089062992 -0.052303478 -0.0028453157 0
0.0088965101 -0.051895995 0.0028682246 0
0.0079696095 -0.052597821 0.0046925843 0
0.0065853116 -0.05252016 0.006547092 0
0.0092420494 -0.052590813 -0.0012560514 0
0.0092608528 -0.052715249 0.0011130589 0
-0.0092088263 -0.049555182 -0.0014963134 0
-0.0092476336 -0.049651276 0.0012145985 0
-0.0064896825 -0.049369596 -0.0066433563 0
-0.0079639973 -0.049479295 -0.0047224127 0
-0.0089010531 -0.050222974 -0.0028574057 0
-0.0089301467 -0.049450722 0.0027908334 0
-0.0081767971 -0.049355887 0.0043203617 0
-0.0065733814 -0.049545191 0.006560131 0
-0.0044064815 -0.049494885 -0.0081327036 0
-0.0044236374 -0.049491074 0.0081266742 0
-0.0012764552 -0.049666237 -0.0092357062 0
-0.0028010292 -0.049421635 -0.0089254575 0
-0.0028015771 -0.049666267 0.0089255851 0
-0.0012660545 -0.049745508 0.0092382096 0
0.0014990964 -0.049483687 -0.0092019141 0
0.0027859511 -0.049656037 -0.0089320196 0
0.0027914532 -0.049472373 0.0089299791 0
0.0013075296 -0.049555089 0.00923457 0
0.0046347934 -0.049394742 -0.0080023156 0
0.0045889523 -0.049473248 0.008036891 0
0.00662266 -0.049693756 -0.0065096943 0
0.0080663981 -0.049497925 -0.0045305081 0
0.0089312149 -0.049274467 -0.0027880198 0
0.0089354208 -0.049801897 0.0027787229 0
0.0080429409 -0.049571268 0.004576914 0
0.0066150804 -0.04956283 0.0065310756 0
0.0092288293 -0.049372002 -0.0013634331 0
0.0091969017 -0.049409222 0.0015855627 0
-0.009269909 -0.046610638 -0.0010244048 0
-0.0092427982 -0.046552543 0.0012277521 0
-0.0066025481 -0.046495333 -0.0065288711 0
-0.0080587501 -0.046603475 -0.0045603579 0
-0.0089085987 -0.046387848 -0.0028400645 0
-0.0089024557 -0.047395352 0.0028545144 0
-0.0079993149 -0.046531137 0.0046613244 0
-0.0064740316 -0.046644527 0.006662582 0
-0.0044516227 -0.046493877 -0.0081191063 0
-0.0045356653 -0.04647328 0.0080645941 0
-0.0013192975 -0.046593834 -0.0092303567 0
-0.0027302902 -0.046909258 -0.0089562228 0
-0.0028326747 -0.046161432 0.008912052 0
-0.0011494864 -0.046576235 0.009254707 0
0.0013394078 -0.046454612 -0.0092303092 0
0.0028215616 -0.047064211 -0.0089165466 0
0.0028517947 -0.04679523 0.0089037335 0
0.0013413898 -0.046489559 0.0092313075 0
0.0046194331 -0.046441983 -0.0080184136 0
0.0043775905 -0.046604317 0.00816873 0
0.0065426589 -0.046294644 -0.006597349 0
0.0080375932 -0.046599761 -0.0045614983 0
0.0089189401 -0.046999443 -0.0028162613 0
0.0089203687 -0.046346359 0.0028133283 0
0.0081260409 -0.046427026 0.0044363495 0
0.0066481703 -0.046431482 0.006483492 0
0.0092282118 -0.046482336 -0.0013578687 0
0.009243302 -0.046506479 0.0012376909 0
-0.0092270328 -0.043638855 -0.0013573213 0
-0.0092565492 -0.043591872 0.0011285256 0
-0.0065161381 -0.043551702 -0.0066097374 0
-0.0079097254 -0.043444682 -0.0047869114 0
-0.0089331912 -0.043289687 -0.0027835132 0
-0.008945873 -0.043457102 0.0027546412 0
-0.0079919919 -0.043492246 0.0046970127 0
-0.0065951324 -0.043597482 0.0065385979 0
-0.0045223492 -0.043638874 -0.008065966 0
-0.0044966517 -0.043491349 0.0080846678 0
-0.0013158885 -0.043523099 -0.0092332009 0
-0.0028520497 -0.043447975 -0.0089032967 0
-0.0028028758 -0.043223552 0.0089249974 0
-0.0013456973 -0.043373916 0.0092291869 0
0.0013439079 -0.043636166 -0.0092264134 0
0.0028606744 -0.043684646 -0.0088995537 0
0.002896755 -0.043004654 0.0088841729 0
0.0013928616 -0.043343429 0.0092244074 0
0.0046933936 -0.043481119 -0.0079800766 0
0.0047190581 -0.043461114 0.0079509933 0
0.0065790643 -0.043626785 -0.0065491912 0
0.008149649 -0.04336172 -0.0044179298 0
0.0088860709 -0.043800551 -0.0028918714 0
0.0088959849 -0.043967649 0.0028694025 0
0.0080124568 -0.043658786 0.0046309894 0
0.0065936507 -0.04336926 0.0065508755 0
0.0092207529 -0.043708563 -0.0013833569 0
0.0092216656 -0.04353663 0.0013978536 0
-0.0092486339 -0.040656604 -0.0011746394 0
-0.0092399782 -0.040495787 0.0012537863 0
-0.0066201822 -0.040575184 -0.0065131853 0
-0.008180527 -0.040580664 -0.0043602032 0
-0.008944408 -0.040015332 -0.0027577281 0
-0.0089268507 -0.040531132 0.0027983834 0
-0.0080766063 -0.040719945 0.0045044539 0
-0.0065061003 -0.040648047 0.0066303322 0
-0.0044947248 -0.040475789 -0.0081057511 0
-0.0048463764 -0.04036773 0.0078695081 0
-0.0013130746 -0.040453959 -0.0092324987 0
-0.0027253707 -0.040371653 -0.0089583853 0
-0.002767513 -0.040456008 0.0089403624 0
-0.0011876033 -0.040572692 0.0092478991 0
0.0014367452 -0.040373802 -0.0092159174 0
0.0027391473 -0.040057663 -0.0089524044 0
0.0028054682 -0.039904822 0.00892385 0
0.0013241081 -0.040225156 0.0092314044 0
0.0045105116 -0.040405545 -0.0080819037 0
0.00466689 -0.040752027 0.0079945251 0
0.0065144803 -0.040504545 -0.006625589 0
0.0081031164 -0.04040296 -0.0044834786 0
0.0089375256 -0.040114556 -0.0027735403 0
0.0089443745 -0.040253669 0.0027580948 0
0.0081035914 -0.040463515 0.0044686748 0
0.0065583135 -0.040577706 0.0065832795 0
0.0092297355 -0.040435486 -0.0013448802 0
0.0092368908 -0.04045146 0.0012840671 0
-0.0092369895 -0.037160076 -0.0012634031 0
-0.0092237098 -0.037449088 0.0013457588 0
-0.0066167763 -0.03752942 -0.0065187342 0
-0.0080637317 -0.037644021 -0.0045493245 0
-0.0089236042 -0.037544113 -0.0028055848 0
-0.008962729 -0.038652338 0.0027158563 0
-0.0081591634 -0.037726682 0.0043604197 0
-0.0064044241 -0.037536465 0.0067322459 0
-0.0046719285 -0.037402894 -0.0079861162 0
-0.0046192645 -0.037520282 0.0080291415 0
-0.0013400542 -0.037523892 -0.009229443 0
-0.0029259319 -0.037337441 -0.0088711958 0
-0.0027719717 -0.03711503 0.0089384113 0
-0.0013809802 -0.037573971 0.0092239035 0
0.0014589751 -0.037694778 -0.0092147058 0
0.0028047333 -0.037512843 -0.0089238966 0
0.0028444338 -0.037420679 0.0089069 0
0.0013070503 -0.037638523 0.0092347655 0
0.0043550702 -0.037409779 -0.008179226 0
0.0043625319 -0.037656132 0.0081577245 0
0.0065184962 -0.037143204 -0.0066188434 0
0.0080687124 -0.037539259 -0.0045343945 0
0.0089237085 -0.037085399 -0.0028053289 0
0.0089247972 -0.037192311 0.0028031114 0
0.0080913333 -0.037494414 0.0044799498 0
0.006615499 -0.037389636 0.0065189311 0
0.0092338659 -0.037652332 -0.0013039346 0
0.0092140287 -0.037575409 0.0014359135 0
-0.0092233391 -0.034547754 -0.001373924 0
-0.0092239166 -0.034510609 0.0013722753 0
-0.006494591 -0.034267038 -0.0066372002 0
-0.0081331572 -0.034540363 -0.0044183121 0
-0.008927498 -0.034507457 -0.0027966413 0
-0.0088928472 -0.03468404 0.0028765704 0
-0.0080345264 -0.034605265 0.0046031438 0
-0.006531789 -0.034553379 0.0066032638 0
-0.0047134673 -0.034617051 -0.0079612499 0
-0.0045847073 -0.034272522 0.0080512129 0
-0.0013609062 -0.03446148 -0.0092265448 0
-0.0028023324 -0.03432361 -0.0089249471 0
-0.0028567058 -0.03506903 0.0089015635 0
-0.0013474816 -0.034425516 0.0092260567 0
0.001140272 -0.034522578 -0.0092553943 0
0.0028035147 -0.034596812 -0.0089244386 0
0.0028193763 -0.034696601 0.0089177843 0
0.0013605473 -0.034639176 0.0092278812 0
0.0047392407 -0.034509715 -0.0079430714 0
0.0047461288 -0.034501661 0.007945599 0
0.006712378 -0.034307402 -0.0064253807 0
0.0081811128 -0.034348235 -0.0043420126 0
0.008916365 -0.034719259 -0.0028222252 0
0.0089139901 -0.034650926 0.0028279594 0
0.0080712112 -0.034529191 0.0045484249 0
0.0065989951 -0.034645669 0.0065443474 0
0.0092089428 -0.034285042 -0.0014876084 0
0.0092252651 -0.034513693 0.0013842944 0
-0.0092280144 -0.031413723 -0.0013419392 0
-0.0092625124 -0.031746667 0.0010946464 0
-0.0065091397 -0.031524353 -0.0066337502 0
-0.0079685347 -0.031472143 -0.0046774913 0
-0.008897448 -0.031321988 -0.002865765 0
-0.0089357402 -0.031754971 0.0027779057 0
-0.0081064571 -0.031248212 0.0044631241 0
-0.0066452366 -0.031717837 0.006490015 0
-0.0045592678 -0.031205846 -0.0080392761 0
-0.004401288 -0.031420875 0.0081346268 0
-0.0013084008 -0.031355258 -0.0092313113 0
-0.0028650099 -0.031463046 -0.008897705 0
-0.002801962 -0.031194201 0.0089253513 0
-0.0012678 -0.03138084 0.0092378436 0
0.0012098368 -0.031570155 -0.0092459396 0
0.0027866652 -0.031339217 -0.0089317765 0
0.0028666486 -0.030635985 0.0088972161 0
0.0012469144 -0.031370472 0.0092424955 0
0.0045922888 -0.031360105 -0.0080521544 0
0.0046029789 -0.031512279 0.0080238413 0
0.0065990933 -0.031757094 -0.0065332479 0
0.0079962816 -0.031597849 -0.0046478203 0
0.0089254631 -0.031868424 -0.0028013135 0
0.0089220218 -0.031717308 0.0028094742 0
0.008097806 -0.031411227 0.0044834367 0
0.0064655175 -0.0312539 0.0066642077 0
0.0092507759 -0.031499993 -0.0011706707 0
0.0092457132 -0.031378038 0.0012199729 0
-0.0092518656 -0.02842029 -0.0011690056 0
-0.0092259068 -0.028459996 0.0013717724 0
-0.0065860325 -0.028633524 -0.0065461416 0
-0.0080550136 -0.028562363 -0.0045435033 0
-0.0089266198 -0.028525477 -0.0027986832 0
-0.0089152968 -0.029007953 0.0028249146 0
-0.0080326134 -0.0285108 0.0045719086 0
-0.0065425434 -0.028520778 0.0065905321 0
-0.0044304831 -0.028400011 -0.0081047257 0
-0.0045953211 -0.028537333 0.0080309315 0
-0.0012513115 -0.028593816 -0.0092412783 0
-0.0027820056 -0.02814989 -0.0089338059 0
-0.0028295633 -0.028420709 0.008913341 0
-0.0010542133 -0.028629305 0.0092678312 0
0.0012016929 -0.028387688 -0.009246937 0
0.0028229214 -0.028421856 -0.0089160232 0
0.002875794 -0.028652916 0.0088932337 0
0.0012443253 -0.028732158 0.0092419777 0
0.0046911095 -0.028422413 -0.007964802 0
0.0045427117 -0.028417995 0.0080549093 0
0.0066277045 -0.028719004 -0.0065050893 0
0.0081983702 -0.028374501 -0.0043277498 0
0.0089410972 -0.028563172 -0.0027653652 0
0.0089460565 -0.028865103 0.0027541849 0
0.0079259016 -0.028328309 0.0047721532 0
0.0066720801 -0.028540697 0.0064629382 0
0.0092295315 -0.028345289 -0.0013511544 0
0.0092159398 -0.028579764 0.0014406642 0
-0.0092438515 -0.025662232 -0.001237585 0
-0.009237851 -0.02558778 0.0012519495 0
-0.0064396756 -0.025010115 -0.0067015355 0
-0.0080787158 -0.025289929 -0.0045191268 0
-0.0088785794 -0.02544947 -0.0029091844 0
-0.0088985413 -0.025498526 0.0028634414 0
-0.0080626821 -0.025655694 0.0045400332 0
-0.0066321702 -0.02539929 0.0065001184 0
-0.0045441547 -0.025529664 -0.0080536501 0
-0.0044756928 -0.025465716 0.0081117768 0
-0.0012749608 -0.025448859 -0.0092375325 0
-0.0027679715 -0.025367619 -0.0089399163 0
-0.0027804123 -0.02547545 0.0089346999 0
-0.0012110773 -0.025465271 0.0092473384 0
0.0012480149 -0.0258146 -0.0092401421 0
0.0028552169 -0.025417762 -0.0089019919 0
0.0027504563 -0.025391165 0.008947717 0
0.001200708 -0.025616687 0.0092486208 0
0.0046365019 -0.025482109 -0.0080220141 0
0.0045157354 -0.0257098 0.008078197 0
0.0066121644 -0.025512688 -0.0065298104 0
0.0080786627 -0.025415426 -0.0045046359 0
0.0089442758 -0.025528125 -0.0027580657 0
0.0089536458 -0.024974119 0.0027367158 0
0.0082308007 -0.025539966 0.0042671957 0
0.0066698589 -0.025237035 0.0064661996 0
0.0092250789 -0.025541712 -0.0013649423 0
0.0092364103 -0.025429919 0.0012902415 0
-0.0092357118 -0.022511283 -0.0012731054 0
-0.0092443665 -0.022397831 0.0012300715 0
-0.0065478464 -0.022478459 -0.0065882341 0
-0.0079664094 -0.022517666 -0.0046856916 0
-0.0089273844 -0.0226513 -0.0027969454 0
-0.008927064 -0.022788592 0.0027978281 0
-0.0080143455 -0.022343675 0.0045950394 0
-0.0065139858 -0.022435719 0.0066192346 0
-0.0043819426 -0.022313878 -0.0081763398 0
-0.0043278765 -0.022442894 0.0081837047 0
-0.0013036961 -0.022662221 -0.0092350496 0
-0.0028322702 -0.02224257 -0.0089119738 0
-0.0028435187 -0.02231518 0.0089072511 0
-0.0013700569 -0.022586696 0.0092233866 0
0.0012260746 -0.02242787 -0.0092431456 0
0.0028228564 -0.022688752 -0.0089160725 0
0.0028063534 -0.022147035 0.0089234011 0
0.0013496068 -0.022428604 0.0092255473 0
0.0045968955 -0.02247818 -0.0080360398 0
0.0047152764 -0.022517087 0.0079548601 0
0.0065680491 -0.0224673 -0.0065695927 0
0.0079503674 -0.022319051 -0.0047313655 0
0.0089595094 -0.02216476 -0.0027230415 0
0.0088963471 -0.022099733 0.0028684898 0
0.0080588199 -0.022551926 0.0045838659 0
0.0065320325 -0.022659615 0.0066065541 0
0.0092418473 -0.022422599 -0.0012485299 0
0.0092353718 -0.022696413 0.0013063529 0
-0.009233796 -0.019488476 -0.0012908257 0
-0.0092547517 -0.019529391 0.0011289258 0
-0.0066043213 -0.019628063 -0.0065179616 0
-0.008129444 -0.019475082 -0.0043970351 0
-0.0089294622 -0.019797422 -0.0027921766 0
-0.0088586435 -0.019315602 0.0029551839 0
-0.0079204924 -0.019720828 0.0047582178 0
-0.0066367639 -0.019102216 0.0064978763 0
-0.0046711727 -0.019555205 -0.0080096144 0
-0.0045833704 -0.019481614 0.0080323471 0
-0.0014172728 -0.019344499 -0.009219938 0
-0.0027841916 -0.019527029 -0.0089328866 0
-0.0028120065 -0.019686647 0.0089209424 0
-0.0011397392 -0.019515334 0.0092576044 0
0.0015692026 -0.019359419 -0.0091997776 0
0.0027227688 -0.018778542 -0.0089596016 0
0.0027844445 -0.019346213 0.0089329164 0
0.0013211647 -0.019385936 0.0092304181 0
0.0042594024 -0.019574145 -0.0082260948 0
0.004610525 -0.019601472 0.008016387 0
0.006525368 -0.019286549 -0.006620253 0
0.008098512 -0.01958181 -0.0044636787 0
0.0089019882 -0.019116759 -0.00285535 0
0.0089532211 -0.019072155 0.0027376711 0
0.0081238495 -0.019643782 0.0044614719 0
0.0064884797 -0.019445863 0.0066336249 0
0.0092422441 -0.019270383 -0.001259211 0
0.009231315 -0.019289581 0.0013195707 0
-0.009228834 -0.016506016 -0.0013453481 0
-0.0092246132 -0.016629284 0.0013434178 0
-0.0065663056 -0.016656213 -0.0065778368 0
-0.0081166187 -0.01647085 -0.0044321315 0
-0.0089502893 -0.017087422 -0.0027442819 0
-0.0089317951 -0.016427357 0.0027869227 0
-0.0080706207 -0.016378378 0.0045325784 0
-0.0064780097 -0.01643748 0.0066541312 0
-0.0046259621 -0.016495898 -0.0079988586 0
-0.0045983517 -0.016519183 0.0080150422 0
-0.0015759746 -0.016613428 -0.0091974 0
-0.002760371 -0.016739087 -0.0089432532 0
-0.0027916324 -0.016926134 0.00892979 0
-0.0011362983 -0.016426226 0.0092580235 0
0.0013115543 -0.016488092 -0.0092326188 0
0.0027868955 -0.016388372 -0.0089317299 0
0.002814871 -0.01686796 0.0089196796 0
0.0013493052 -0.016389022 0.009227681 0
0.004561217 -0.01686818 -0.0080422889 0
0.0045898953 -0.016435081 0.008045096 0
0.0064858971 -0.016476795 -0.0066513047 0
0.0079748444 -0.01661597 -0.004717167 0
0.0088826036 -0.016796369 -0.0028999448 0
0.0089296373 -0.016344223 0.0027919037 0
0.0081737069 -0.016492089 0.0043495758 0
0.0066188388 -0.016347533 0.0065188399 0
0.0092124678 -0.016416144 -0.0014645624 0
0.0092545263 -0.016472932 0.001142648 0
-0.0092423325 -0.013496552 -0.0012366718 0
-0.0092291553 -0.01355827 0.0013450253 0
-0.0066396007 -0.013328303 -0.0064910087 0
-0.0080718603 -0.013629917 -0.0045150444 0
-0.0088989092 -0.013869946 -0.0028624705 0
-0.0089703212 -0.013159692 0.0026982988 0
-0.0080474578 -0.01344585 0.0045730686 0
-0.0066098291 -0.013482155 0.0065346938 0
-0.004590732 -0.013364451 -0.0080279289 0
-0.0044888789 -0.013457415 0.0080900593 0
-0.0012749282 -0.013556937 -0.0092367353 0
-0.0028719015 -0.013040786 -0.008894776 0
-0.0028036539 -0.013429166 0.0089245513 0
-0.0014533271 -0.013585099 0.0092131887 0
0.0013300993 -0.013408001 -0.0092319818 0
0.0028629631 -0.013938178 -0.0088986661 0
0.002779376 -0.013594666 0.0089350995 0
0.0012619691 -0.013540898 0.0092391642 0
0.0045524999 -0.01342202 -0.0080397241 0
0.0048234728 -0.013715354 0.007891098 0
0.0065739034 -0.013531491 -0.0065626502 0
0.0082040131 -0.013184065 -0.0043188445 0
0.0088908477 -0.013876695 -0.0028809926 0
0.0089302016 -0.012851051 0.0027905935 0
0.0080553107 -0.01338605 0.0045574727 0
0.0066626938 -0.01372325 0.0064796987 0
0.0092137037 -0.013792334 -0.0014555971 0
0.0092180548 -0.013521822 0.0014278583 0
-0.0092095435 -0.010362091 -0.0014971311 0
-0.0092340019 -0.010340904 0.0012777853 0
-0.0065930048 -0.010481271 -0.0065366244 0
-0.008018801 -0.01060641 -0.0046140095 0
-0.0089786965 -0.010994315 -0.002678972 0
-0.0089073982 -0.010351101 0.0028430163 0
-0.0081132641 -0.010554696 0.0044866102 0
-0.0065461597 -0.010319438 0.0066061867 0
-0.0047081611 -0.010509327 -0.00796868 0
-0.0044126646 -0.010596756 0.0081507321 0
-0.0013497705 -0.010645577 -0.0092259999 0
-0.0028127364 -0.010640494 -0.0089205075 0
-0.0028515819 -0.0099560069 0.0089036999 0
-0.0014143798 -0.010496181 0.009215828 0
0.0012146131 -0.010224159 -0.0092429174 0
0.0028752042 -0.010439997 -0.0088933557 0
0.0027976076 -0.010518476 0.0089271618 0
0.0013662155 -0.010629956 0.009223151 0
0.0046759169 -0.010727859 -0.0080060866 0
0.0044079856 -0.010449177 0.008145811 0
0.0065614935 -0.010502175 -0.0065691457 0
0.0079709897 -0.010423681 -0.0046736272 0
0.0089169294 -0.010650002 -0.0028210166 0
0.0089449631 -0.010777938 0.0027566343 0
0.0080510043 -0.010314338 0.0045451629 0
0.0065597189 -0.010671625 0.0065885293 0
0.0092493817 -0.010744179 -0.0011862983 0
0.0092197312 -0.010568262 0.0014112247 0
-0.0092347087 -0.0075303768 -0.0012983469 0
-0.0092582991 -0.0077395071 0.0011197719 0
-0.0064982027 -0.0074790632 -0.0066375621 0
-0.0080263438 -0.0075388644 -0.0045890575 0
-0.0089748437 -0.0077324961 -0.0026878431 0
-0.0089434953 -0.0077923038 0.0027599812 0
-0.0080953036 -0.007637694 0.0044880179 0
-0.0066411337 -0.0075910417 0.0064964043 0
-0.004676111 -0.0074687032 -0.0079949414 0
-0.0045965663 -0.0074873492 0.0080351131 0
-0.0013901546 -0.0075327419 -0.0092214281 0
-0.0027852524 -0.0072788391 -0.0089324694 0
-0.0028151113 -0.0078660147 0.0089195501 0
-0.0013732313 -0.0076627652 0.0092252837 0
0.0011696498 -0.0074608228 -0.0092517473 0
0.0028076363 -0.0074853636 -0.0089227445 0
0.0027242517 -0.0072881375 0.0089590447 0
0.0014117862 -0.007628656 0.0092192004 0
0.0045509282 -0.0075656655 -0.0080462163 0
0.0046086232 -0.0075136805 0.0080318758 0
0.0064924387 -0.0074726944 -0.0066499105 0
0.0080746636 -0.0072649606 -0.0045146686 0
0.0088905273 -0.0072039673 -0.0028817549 0
0.0088769179 -0.0072384668 0.0029131253 0
0.0081114443 -0.0073334211 0.004452385 0
0.0065847193 -0.0073462119 0.0065509714 0
0.0092451684 -0.0075324024 -0.0012249121 0
0.0092220847 -0.007550586 0.0014018866 0
-0.0092034927 -0.0046127881 -0.0015317923 0
-0.0092430608 -0.0046993531 0.0012440879 0
-0.0065233442 -0.0043090302 -0.0066047208 0
-0.0080526853 -0.0044482597 -0.0045671081 0
-0.0089197578 -0.0049675843 -0.0028145502 0
-0.0089311786 -0.0048586195 0.0027882985 0
-0.008037447 -0.0044011185 0.0045723384 0
-0.0064848522 -0.0044342512 0.0066515845 0
-0.0044145212 -0.0045057274 -0.0081213629 0
-0.0045247017 -0.0044004768 0.008093819 0
-0.001322287 -0.0047853976 -0.0092295203 0
-0.0027979305 -0.004171785 -0.0089269681 0
-0.0027320618 -0.0038314776 0.0089556444 0
-0.0014156693 -0.0045124423 0.0092191976 0
0.0011295537 -0.0042065196 -0.0092550144 0
0.0028289431 -0.0049469336 -0.0089134891 0
0.0027444297 -0.0043818401 0.0089502605 0
0.0012784088 -0.0047357148 0.009236387 0
0.0045726509 -0.0043222723 -0.008040539 0
0.0043878341 -0.0045257779 0.0081606815 0
0.0065383348 -0.0044993651 -0.0065832501 0
