# .PCD v0.7 - Point Cloud Data file format
VERSION 0.7
FIELDS x y z rgb
SIZE 4 4 4 4
TYPE F F F F
COUNT 1 1 1 1
WIDTH 1174
HEIGHT 1
VIEWPOINT 0 0 0 1 0 0 0
POINTS 1174
DATA ascii
-0.0015182639 -0.21747117 -0.0059992187 0
-0.0015726859 -0.21741262 0.0060007796 0
0.0021702165 -0.21862678 -0.005999201 0
0.0016135012 -0.21768892 -0.0059992084 0
0.0014797753 -0.21748213 0.0060007935 0
0.0053407112 -0.21762414 -0.0059991931 0
0.0045005023 -0.21751551 -0.0059144809 0
0.0048278705 -0.21789192 0.0060008066 0
0.0044664247 -0.21727623 0.006000801 0
0.0060000168 -0.21720938 -0.0047788802 0
0.006000007 -0.21742292 -0.0015524393 0
0.0059999973 -0.21759588 0.0015323997 0
0.0059999847 -0.21754512 0.0046520531 0
0.044399779 -0.21757229 -0.0097072832 0
0.044275027 -0.21737501 -0.0075474516 0
0.044230305 -0.21750911 -0.0044030333 0
0.044177182 -0.2176685 -0.0014154573 0
0.044183031 -0.21765092 0.0017000394 0
0.044219878 -0.21754032 0.0043040267 0
0.044335544 -0.21719326 0.007441456 0
0.044454414 -0.21752757 0.0097338911 0
0.046628762 -0.217604 -0.0099990396 0
0.046757773 -0.21740271 0.010000953 0
0.049313802 -0.21746077 -0.0098335613 0
0.050000001 -0.21765439 -0.0076053236 0
0.049999993 -0.21751082 -0.0044119558 0
0.049999982 -0.21750668 -0.0013996767 0
0.049999975 -0.21749188 0.0015382294 0
0.04999996 -0.21733581 0.0045334012 0
0.049999941 -0.21729244 0.0074628275 0
0.049395844 -0.2174394 0.0097674066 0
-0.0059999814 -0.21373123 -0.0052515944 0
-0.0050324053 -0.21458949 -0.0052544475 0
-0.0059999973 -0.21437442 -0.0013295294 0
-0.006000008 -0.21457441 0.0014292556 0
-0.0060000164 -0.21446414 0.0045548254 0
-0.0043401271 -0.21463549 0.0060007628 0
-0.0014510155 -0.21457984 -0.0059992289 0
-0.0016813582 -0.21433781 0.0060007703 0
0.002947218 -0.21556868 -0.0059992094 0
0.0015005124 -0.21459271 -0.0059992201 0
0.0018403298 -0.21302088 0.0060007772 0
0.0015371923 -0.21427789 0.0060007796 0
0.0044160276 -0.21433146 -0.0059992089 0
0.0045613977 -0.21433738 -0.0059601055 0
0.0060000094 -0.21360765 -0.0027145837 0
0.004909487 -0.21498922 0.0060007959 0
0.0047674319 -0.21484353 0.0060007968 0
0.0060000187 -0.21444578 -0.0046947403 0
0.0060000061 -0.21449018 -0.0013445622 0
0.0059999926 -0.21452299 0.0016804502 0
0.0059999819 -0.21448866 0.0044998284 0
0.044832807 -0.21570173 -0.0093971817 0
0.044794872 -0.21581548 -0.0073671713 0
0.044818897 -0.21574336 -0.0050284411 0
0.044878379 -0.21556489 -0.0015683996 0
0.044850718 -0.21564782 0.0015840275 0
0.044849873 -0.21565035 0.004516318 0
0.044860911 -0.21561718 0.0076391636 0
0.044880077 -0.21555965 0.0095797442 0
0.046221647 -0.2142926 -0.0098956432 0
0.045416597 -0.21395034 -0.0075648786 0
0.045333385 -0.21419992 -0.0045341412 0
0.045357365 -0.21412793 -0.0013867611 0
0.045370758 -0.21408774 0.0014515278 0
0.0454189 -0.21394323 0.0045445887 0
0.045406379 -0.21398076 0.0077094892 0
0.046364691 -0.2143853 0.0099043129 0
0.049334835 -0.21433976 -0.0098126102 0
0.050000001 -0.21439724 -0.0075182384 0
0.049999993 -0.21457021 -0.0045882091 0
0.049999978 -0.21441959 -0.001421653 0
0.049999975 -0.21446489 0.0013990714 0
0.049999963 -0.21444094 0.0046887295 0
0.049999952 -0.21454389 0.0074702124 0
0.049336635 -0.2144057 0.0098191267 0
-0.0059999833 -0.21279256 -0.0047829221 0
-0.0052857264 -0.21150525 -0.0052126953 0
-0.0059999935 -0.21127538 -0.0015100543 0
-0.0060000052 -0.21160261 0.0013048005 0
-0.0060000191 -0.21143652 0.0046477891 0
-0.0042728349 -0.21116742 0.0060007521 0
-0.0013384811 -0.21163918 -0.0059992392 0
-0.0015921306 -0.21178 0.0060007633 0
0.0022817343 -0.21235064 -0.0059992233 0
0.0015255958 -0.21145914 -0.0059992294 0
0.0028446915 -0.21270192 0.00600078 0
0.0014439425 -0.21168828 0.0060007712 0
0.0042242459 -0.21164411 -0.0059992191 0
0.0045112595 -0.2116355 -0.0058939727 0
0.0060000094 -0.21281363 -0.0027205916 0
0.0040188124 -0.21100317 0.0060007777 0
0.0046769702 -0.21154538 0.0060007833 0
0.0060000164 -0.21148683 -0.0045751249 0
0.0060000089 -0.21144363 -0.0013647552 0
0.0059999945 -0.21120588 0.0015481117 0
0.0059999838 -0.21141481 0.0043530967 0
0.046763375 -0.21179961 -0.0098463027 0
0.046206962 -0.21157917 -0.0074096057 0
0.046228196 -0.21151549 -0.0043492541 0
0.046214312 -0.21155709 -0.0014625924 0
0.046259049 -0.21142283 0.0014693645 0
0.046193402 -0.21161979 0.004559597 0
0.046281688 -0.21135485 0.0074559851 0
0.046795376 -0.21149276 0.0098545039 0
0.049314376 -0.21159068 -0.0097845988 0
0.050000001 -0.21149275 -0.0075212619 0
0.04999999 -0.21150537 -0.0044651194 0
0.049999982 -0.21145807 -0.0015748277 0
0.049999971 -0.2115566 0.0013620945 0
0.049999952 -0.21161807 0.0047131283 0
0.049999952 -0.21158344 0.0074108904 0
0.049345773 -0.21151596 0.0098121911 0
-0.0059999856 -0.20902653 -0.004081279 0
-0.005999994 -0.20832683 -0.0017414779 0
-0.0052459841 -0.2084126 -0.0052245986 0
-0.0059999949 -0.2084095 -0.0013803522 0
-0.006000007 -0.20847064 0.0014536121 0
-0.0060000187 -0.20837258 0.0046814997 0
-0.0046106046 -0.20834906 0.00600074 0
-0.0015693455 -0.20850514 -0.0059992508 0
-0.0015988806 -0.20841229 0.0060007488 0
0.0014076587 -0.20852375 -0.0059992424 0
0.001555943 -0.20859885 0.0060007623 0
0.0033192362 -0.20946634 -0.0059992303 0
0.0046283887 -0.20847952 -0.0059256013 0
0.0060000084 -0.20935749 -0.0024991152 0
0.0049222349 -0.20857882 0.0060007721 0
0.0047057248 -0.20836703 0.0060007712 0
0.0060000173 -0.20844755 -0.0044094622 0
0.006000007 -0.20846198 -0.0015096865 0
0.0059999935 -0.20865549 0.0016528392 0
0.0059999865 -0.20845971 0.0044195554 0
0.047269236 -0.20861837 -0.0096579436 0
0.047296427 -0.20831086 -0.0074431035 0
0.047226086 -0.20852183 -0.0045381114 0
0.047277711 -0.20836692 -0.0015709513 0
0.047236696 -0.20848987 0.0015373317 0
0.047248092 -0.20845564 0.0045877486 0
0.047263347 -0.20840992 0.007449355 0
0.047389366 -0.20843227 0.0095523046 0
0.049506791 -0.20832363 -0.0096983323 0
0.050000001 -0.20866157 -0.0073984386 0
0.049999986 -0.20849691 -0.0045080543 0
0.049999975 -0.20832385 -0.0015357455 0
0.049999975 -0.20842433 0.0012899163 0
0.049999963 -0.20854133 0.0045080399 0
0.049999945 -0.20853584 0.0074633532 0
0.049370386 -0.20850475 0.0097770877 0
-0.0059999824 -0.20521043 -0.0050460314 0
-0.0059999945 -0.20512158 -0.0017086471 0
-0.0052449107 -0.20539661 -0.0051742434 0
-0.0059999977 -0.20548189 -0.0014317157 0
-0.0060000047 -0.20541409 0.0015600541 0
-0.0060000159 -0.20557915 0.0044812891 0
-0.0043935659 -0.20531708 0.0060007297 0
-0.0014737024 -0.20538081 -0.0059992629 0
-0.0016633307 -0.20546271 0.00600074 0
0.0022898018 -0.20618804 -0.0059992457 0
0.0018375968 -0.20538363 -0.0059992522 0
0.0028166857 -0.20580189 0.0060007549 0
0.0014192211 -0.20550674 0.0060007516 0
0.0042307111 -0.20538022 -0.0059992415 0
0.0044130986 -0.20545113 -0.0059520439 0
0.0060000089 -0.20441185 -0.0026058021 0
0.0051659383 -0.20568533 0.0060007633 0
0.0047795563 -0.20539954 0.0060007609 0
0.0060000168 -0.20543049 -0.0045217858 0
0.0060000056 -0.20547697 -0.0014160046 0
0.0059999926 -0.20573463 0.0016326217 0
0.0059999879 -0.20545124 0.0043817302 0
0.047873572 -0.2065919 -0.0094289202 0
0.047850423 -0.20664887 -0.0076511595 0
0.047848396 -0.20665486 -0.0043413634 0
0.047872879 -0.20658138 -0.0013778454 0
0.047872093 -0.20658369 0.001558897 0
0.04782737 -0.20671785 0.004299962 0
0.047842458 -0.20667253 0.0078002517 0
0.047873363 -0.20657979 0.0091190776 0
0.049194608 -0.20537168 -0.0097706635 0
0.049226988 -0.20524722 -0.0074749137 0
0.049167328 -0.20532767 -0.0044511938 0
0.049325284 -0.20543966 -0.0014672746 0
0.04923711 -0.2053564 0.0015480245 0
0.049264017 -0.2051546 0.0045420234 0
0.04920065 -0.20537949 0.0075655254 0
0.049237277 -0.20547184 0.009724752 0
-0.0059999828 -0.2026965 -0.0049327952 0
-0.0059999903 -0.20251304 -0.0028380663 0
-0.0053459834 -0.20262915 -0.0053317002 0
-0.005999994 -0.20253712 -0.0016579723 0
-0.006000008 -0.20268589 0.0015182999 0
-0.0060000168 -0.20244132 0.0045599039 0
-0.0043144566 -0.20243439 0.0060007162 0
-0.0015891208 -0.20236717 -0.0059992759 0
-0.0013532289 -0.20236716 0.0060007293 0
0.001939044 -0.20239329 -0.005999261 0
0.0016132676 -0.20240936 -0.0059992629 0
0.0015535105 -0.20240785 0.0060007395 0
0.0045331591 -0.20306119 -0.0059992489 0
0.0045662527 -0.20248106 -0.0058676568 0
0.0050963541 -0.20217024 0.0060007502 0
0.0046743895 -0.20240791 0.0060007498 0
0.0060000164 -0.20259948 -0.0046022912 0
0.0060000042 -0.20270564 -0.001594072 0
0.0059999949 -0.20243594 0.0015902334 0
0.0059999828 -0.20289056 0.0044919206 0
0.049585082 -0.20264974 -0.0096899178 0
0.049669553 -0.20248094 -0.007679028 0
0.049533695 -0.20265552 -0.0045495885 0
0.049598735 -0.20254326 -0.001595118 0
0.049667511 -0.20233856 0.0015075164 0
0.049636874 -0.20253444 0.0044737929 0
0.049579822 -0.20254566 0.0075503443 0
0.049499817 -0.20267963 0.009706147 0
-0.0059999791 -0.19916053 -0.005932509 0
-0.0059999903 -0.20074284 -0.0027704323 0
-0.0051622223 -0.19954531 -0.0053095077 0
-0.0059999973 -0.19960211 -0.0013475425 0
-0.0060000094 -0.19964343 0.0016101685 0
-0.0060000191 -0.19967711 0.0046007251 0
-0.0045201704 -0.19951357 0.0060007083 0
-0.0014682934 -0.19937263 -0.0059992867 0
-0.0017116069 -0.19942372 0.0060007181 0
0.0029472753 -0.19883004 -0.0059992699 0
0.0011832693 -0.19958933 -0.005999275 0
0.0025217819 -0.19963124 0.0060007316 0
0.0013329204 -0.19942713 0.0060007256 0
0.0035486394 -0.19997552 -0.0059992634 0
0.0046690051 -0.19935468 -0.0059051155 0
0.0060000103 -0.19992001 -0.0028993294 0
0.0041021784 -0.19980256 0.0060007381 0
0.0045075011 -0.19966145 0.0060007395 0
0.006000015 -0.19966364 -0.0044608847 0
0.006000007 -0.19966549 -0.0015238979 0
0.0059999954 -0.19944589 0.0013806761 0
0.0059999856 -0.19938433 0.0047056866 0
0.049899511 -0.20065221 -0.0094463564 0
0.049952973 -0.2005036 -0.0076577677 0
0.049941685 -0.20062219 -0.0044289427 0
0.049954575 -0.2004928 -0.0016861991 0
0.049927346 -0.20068336 0.001477197 0
0.049950644 -0.2005716 0.0044270316 0
0.049896192 -0.20063952 0.0075405468 0
0.049925204 -0.20066872 0.0097087519 0
-0.005999981 -0.19521306 -0.0053844498 0
-0.0059999968 -0.19554806 -0.0010221056 0
-0.0051480783 -0.19649266 -0.0053856205 0
-0.0059999954 -0.1964865 -0.0016552478 0
-0.0060000066 -0.19632792 0.0016090929 0
-0.0060000164 -0.19629027 0.0045240135 0
-0.0046270629 -0.19624081 0.0060006953 0
-0.0013691536 -0.19655398 -0.0059992936 0
-0.0014303891 -0.19643961 0.0060007093 0
0.0014650518 -0.19676428 -0.0059992829 0
0.0014776333 -0.19649492 -0.005999282 0
0.0015179383 -0.19634718 0.0060007167 0
0.0049837469 -0.19681472 -0.0059992699 0
0.0047043394 -0.19647156 -0.0059168967 0
0.0060000089 -0.1956443 -0.0025929192 0
0.0044920295 -0.19556557 0.0060007237 0
0.0046028895 -0.19655883 0.0060007297 0
0.0060000173 -0.19679277 -0.0046253009 0
0.0060000066 -0.19645062 -0.0013802405 0
0.005999994 -0.19652255 0.0015578601 0
0.0059999852 -0.1965344 0.0045031509 0
-0.0059999833 -0.1935129 -0.0047805249 0
-0.0059999921 -0.19331254 -0.0023469457 0
-0.004994648 -0.19350182 -0.0053408877 0
-0.005999994 -0.19344316 -0.0012907223 0
-0.0060000056 -0.19346647 0.0014692391 0
-0.0060000164 -0.19364987 0.0045018476 0
-0.0047340016 -0.19335552 0.006000686 0
-0.0015776338 -0.19356957 -0.0059993076 0
-0.0016159918 -0.19384305 0.0060006981 0
0.0013721565 -0.19393732 -0.0059992932 0
0.0012370091 -0.19370726 -0.0059992964 0
0.0025731439 -0.19256078 0.006000706 0
0.0015545583 -0.19350813 0.006000706 0
0.0040583862 -0.19296415 -0.0059992871 0
0.0047399723 -0.19331385 -0.005832551 0
0.004459993 -0.19245483 0.0060007125 0
0.0046715895 -0.19354163 0.0060007181 0
0.0060000145 -0.19342929 -0.0043716184 0
0.0060000056 -0.19359465 -0.001495545 0
0.0059999949 -0.19360238 0.0015349671 0
0.0059999842 -0.19362743 0.0044862414 0
-0.0059999861 -0.19065417 -0.0040323539 0
-0.0051733768 -0.1904832 -0.0052442532 0
-0.0059999935 -0.19053777 -0.0014641394 0
-0.0060000047 -0.19036447 0.0012758469 0
-0.0060000164 -0.19037184 0.0043865088 0
-0.0042984276 -0.19055463 0.0060006748 0
-0.0014136342 -0.19032162 -0.0059993146 0
-0.0015541415 -0.19061144 0.0060006846 0
0.0021524439 -0.19036208 -0.0059993034 0
0.0013808251 -0.19044399 -0.0059993062 0
0.0016549712 -0.19053912 0.0060006958 0
0.003247851 -0.19046313 -0.0059992992 0
0.0043505826 -0.1904624 -0.0059080417 0
0.0053144991 -0.19055815 0.0060007083 0
0.0047005038 -0.19038732 0.0060007079 0
0.0060000159 -0.19069207 -0.0047140652 0
0.0060000066 -0.19053423 -0.0013920654 0
0.0059999963 -0.19040915 0.0014793216 0
0.0059999852 -0.19063455 0.0045970781 0
-0.0059999842 -0.18773958 -0.0045191795 0
-0.0059999935 -0.18783472 -0.0019474619 0
-0.0052631972 -0.1876131 -0.0052087656 0
-0.0059999968 -0.18744148 -0.0012910056 0
-0.006000008 -0.18723895 0.0015182167 0
-0.0060000191 -0.18759136 0.0046630059 0
-0.0045145447 -0.18757935 0.0060006641 0
-0.001428412 -0.18760514 -0.0059993286 0
-0.0015702994 -0.18740912 0.0060006748 0
0.00094357849 -0.18686944 -0.0059993207 0
0.0013557022 -0.18737502 -0.0059993188 0
0.0025574507 -0.18749948 0.0060006883 0
0.0014125559 -0.18734612 0.0060006846 0
0.0044783601 -0.18785878 -0.0059993044 0
0.0043962016 -0.18761717 -0.0059680669 0
0.0060000098 -0.18822581 -0.0028418766 0
0.0048031341 -0.18682484 0.006000693 0
0.0044102939 -0.18739446 0.0060006934 0
0.0060000177 -0.18749036 -0.004436851 0
0.0060000028 -0.18743752 -0.0013333767 0
0.0059999949 -0.18767774 0.0015112518 0
0.0059999814 -0.18742938 0.0047595678 0
-0.0059999824 -0.18491171 -0.0049887421 0
-0.0059999949 -0.1843866 -0.0015744762 0
-0.0052710227 -0.18453653 -0.0052729328 0
-0.005999994 -0.18427905 -0.001735626 0
-0.0060000061 -0.1844717 0.0015292073 0
-0.0060000191 -0.18449733 0.0044869739 0
-0.0045387866 -0.18473244 0.0060006552 0
-0.0003842258 -0.18361095 -0.0059993374 0
-0.001510736 -0.18433994 -0.0059993421 0
-0.0013924921 -0.18444259 0.0060006627 0
0.0027795439 -0.18514679 -0.0059993202 0
0.0016512846 -0.18466185 -0.0059993258 0
0.0020029193 -0.18401121 0.0060006729 0
0.0014867954 -0.18442611 0.0060006748 0
0.0053084586 -0.1852652 -0.0059993109 0
0.0045655309 -0.18458098 -0.0059462418 0
0.006000008 -0.18426187 -0.0023650341 0
0.0052361991 -0.18359758 0.0060006832 0
0.0046208962 -0.18450233 0.0060006846 0
0.0060000173 -0.18428738 -0.0045699449 0
0.0060000075 -0.18439564 -0.0014034347 0
0.0059999977 -0.18453273 0.0016139719 0
0.005999987 -0.18462339 0.0044983863 0
-0.0059999852 -0.18206628 -0.0042707897 0
-0.0059999935 -0.18062203 -0.0019664916 0
-0.0052733393 -0.1815559 -0.0051733525 0
-0.0059999954 -0.18125695 -0.0014660145 0
-0.0060000056 -0.18129997 0.0016293756 0
-0.0060000164 -0.18141781 0.0044573103 0
-0.004418327 -0.18150398 0.0060006427 0
-0.0015440711 -0.18154889 -0.0059993467 0
-0.00151207 -0.18157302 0.0060006501 0
0.00030311133 -0.18291527 -0.0059993374 0
0.0015672012 -0.18161032 -0.0059993356 0
0.0020806117 -0.18175767 0.006000665 0
0.0014089443 -0.18138024 0.0060006632 0
0.0041307122 -0.18214142 -0.0059993262 0
0.0046785655 -0.18140994 -0.005916202 0
0.006000008 -0.18166198 -0.0022136008 0
0.0047119162 -0.18161269 0.0060006748 0
0.0047000288 -0.18172149 0.0060006757 0
0.0060000191 -0.18144007 -0.0045905896 0
0.0060000066 -0.18145159 -0.0016867876 0
0.0059999959 -0.18150051 0.0015739854 0
0.0059999828 -0.18145242 0.0046556243 0
-0.0059999847 -0.17926829 -0.0044084792 0
-0.0059999935 -0.17800066 -0.0019609658 0
-0.0051277657 -0.17845611 -0.0053252466 0
-0.0059999935 -0.17831327 -0.0013826782 0
-0.0060000066 -0.1783476 0.0017097266 0
-0.0060000196 -0.17848271 0.0042173788 0
-0.0044682324 -0.17841835 0.006000631 0
-0.0014967739 -0.17837875 -0.0059993612 0
-0.0014393677 -0.17844841 0.0060006422 0
0.0016551847 -0.17825408 -0.0059993491 0
0.0015854271 -0.17863497 -0.0059993477 0
0.0020984795 -0.17805813 0.0060006515 0
0.0013383861 -0.17831159 0.0060006496 0
0.004409723 -0.17887133 -0.005999337 0
0.0047863713 -0.178637 -0.0058387895 0
0.006000007 -0.17843084 -0.0019029159 0
0.0042253127 -0.17842969 0.0060006608 0
0.0045906976 -0.17840482 0.006000665 0
0.0060000154 -0.17853224 -0.0042904173 0
0.006000007 -0.17860137 -0.0015800694 0
0.0059999949 -0.17873466 0.0015237934 0
0.0059999865 -0.17832412 0.0044552842 0
-0.0059999945 -0.17498955 -0.0016076977 0
-0.0060000028 -0.17497896 0.0006743563 0
-0.0051659485 -0.17543812 -0.0053590694 0
-0.0059999935 -0.17547716 -0.0016888381 0
-0.0060000056 -0.17550993 0.0015088189 0
-0.006000021 -0.17549188 0.0046490091 0
-0.004464238 -0.17547235 0.0060006194 0
-0.00045903848 -0.17678903 -0.0059993626 0
-0.0015052665 -0.17556623 -0.0059993733 0
-0.0015696525 -0.17542376 0.0060006296 0
0.0020624411 -0.17552057 -0.0059993579 0
0.0016260402 -0.17536625 -0.0059993574 0
0.0014344525 -0.17536454 0.0060006403 0
0.0047412496 -0.17603025 -0.0059993463 0
0.0046365703 -0.17544 -0.0059166644 0
0.0038564468 -0.17461739 0.0060006455 0
0.0045868936 -0.17560734 0.0060006529 0
0.0060000182 -0.17538203 -0.0046933033 0
0.006000007 -0.17555264 -0.0017655932 0
0.0059999949 -0.17549703 0.001544766 0
0.0059999824 -0.17539138 0.0045589409 0
-0.0059999987 -0.17366841 -0.00050913077 0
-0.0052354219 -0.17261067 -0.0053164973 0
-0.0059999968 -0.17253914 -0.0012766122 0
-0.0060000084 -0.1723396 0.0016016109 0
-0.0060000177 -0.17271386 0.0043379506 0
-0.0044660033 -0.17255448 0.0060006096 0
-0.00044027931 -0.17333587 -0.0059993747 0
-0.0016483357 -0.17265022 -0.0059993817 0
-0.0015240009 -0.17251186 0.0060006226 0
0.0017069014 -0.17261012 -0.0059993723 0
0.0025328479 -0.1732239 0.0060006361 0
0.0011773668 -0.17266592 0.0060006278 0
0.0045610252 -0.17245567 -0.0059494954 0
0.0045814593 -0.1727183 0.0060006417 0
0.004673982 -0.17246309 0.0060006427 0
0.0060000154 -0.17229003 -0.0042556846 0
0.0060000042 -0.17239289 -0.0015954238 0
0.0059999973 -0.17251676 0.0014166334 0
0.0059999865 -0.17246731 0.0043897787 0
-0.0059999963 -0.16913575 -0.0011870317 0
-0.0053023277 -0.16941842 -0.0053794147 0
-0.0059999959 -0.16946353 -0.0012860481 0
-0.0060000061 -0.16944203 0.0015710519 0
-0.0060000168 -0.16953795 0.0045421892 0
-0.0045065656 -0.169383 0.0060005994 0
-0.00084386062 -0.16832745 -0.0059993942 0
-0.0013938161 -0.16922805 -0.0059993928 0
-0.0017335276 -0.16947921 0.0060006091 0
0.0016642385 -0.16956547 -0.0059993817 0
0.0015458158 -0.16931677 0.006000618 0
0.0014526994 -0.16942927 0.0060006198 0
0.0042778668 -0.16958022 -0.0059993691 0
0.006000007 -0.16883704 -0.0020481977 0
0.0039080149 -0.16897638 0.0060006254 0
0.0044518788 -0.16958882 0.0060006301 0
0.0060000173 -0.16928177 -0.0044279201 0
0.0060000047 -0.16933741 -0.0014719471 0
0.0059999959 -0.16961072 0.001681818 0
0.0059999856 -0.1696026 0.0046182834 0
-0.005309857 -0.16649985 -0.005086266 0
-0.0059999973 -0.16652016 -0.0014571719 0
-0.0060000084 -0.16644686 0.0016720884 0
-0.0060000168 -0.16649741 0.0045594657 0
-0.004512324 -0.16639346 0.0060005877 0
-0.00088293845 -0.16552189 -0.0059994045 0
-0.0015038152 -0.16650897 -0.0059994049 0
-0.001472658 -0.16656698 0.0060005975 0
0.0012488622 -0.16662194 -0.005999391 0
0.001728864 -0.16658996 0.0060006096 0
0.0047233133 -0.16647057 -0.0058710855 0
0.0060000047 -0.16606475 -0.0014608145 0
0.0059999977 -0.16616821 0.00053761125 0
0.0047375662 -0.1670655 0.0060006217 0
0.0042132596 -0.16644444 0.0060006161 0
0.0060000168 -0.16645099 -0.0045170416 0
0.0060000089 -0.16659321 -0.0015458681 0
0.0059999963 -0.16640338 0.001382282 0
0.0059999847 -0.16648161 0.0043827822 0
-0.0052872165 -0.163505 -0.0051825838 0
-0.0059999945 -0.16368876 -0.0015786309 0
-0.0060000052 -0.16365045 0.0014789302 0
-0.0060000159 -0.16342835 0.0045164037 0
-0.0042980514 -0.16328469 0.0060005742 0
-0.001587208 -0.1635655 -0.0059994156 0
-0.001592145 -0.16339989 0.0060005845 0
0.0014896726 -0.16343985 -0.0059994003 0
0.00080690597 -0.16410601 0.0060005966 0
0.0014113304 -0.16371909 0.0060005994 0
0.0044945087 -0.16356586 -0.0059591806 0
0.0060000094 -0.16263582 -0.0027454868 0
0.0046697562 -0.16342884 0.0060006073 0
0.0060000173 -0.16363598 -0.004415141 0
0.0060000084 -0.16360004 -0.0016874834 0
0.0059999935 -0.16347414 0.0013846225 0
0.0059999828 -0.16357617 0.0045801094 0
-0.0060000019 -0.15913182 0.00036177036 0
-0.005269466 -0.16063394 -0.0053642355 0
-0.0059999959 -0.16042514 -0.0012645004 0
-0.006000008 -0.16047275 0.0014916053 0
-0.0060000159 -0.16031364 0.0045117885 0
-0.0046490515 -0.16069882 0.0060005635 0
-0.001498758 -0.16044112 -0.0059994264 0
-0.0017464125 -0.1602226 0.0060005742 0
0.00018602361 -0.16013379 -0.0059994203 0
0.0015376128 -0.16048448 -0.0059994156 0
0.0021554499 -0.16010298 0.0060005873 0
0.0014752949 -0.16056681 0.0060005877 0
0.0043488182 -0.16025667 -0.0059548952 0
0.0060000061 -0.16024762 -0.0018240616 0
0.0045869933 -0.16045953 0.006000597 0
0.0060000177 -0.16040376 -0.004516039 0
0.006000008 -0.16034733 -0.001487878 0
0.0059999954 -0.16024785 0.0013078214 0
0.0059999875 -0.16039106 0.0043824688 0
-0.0054337811 -0.1573787 -0.0050643017 0
-0.0059999945 -0.1575851 -0.001668475 0
-0.0060000084 -0.15738635 0.0015390808 0
-0.0060000145 -0.15748404 0.0045263479 0
-0.004407153 -0.15741168 0.0060005537 0
-0.0015418057 -0.15754342 -0.0059994366 0
-0.0015546285 -0.15743588 0.0060005677 0
0.00029939 -0.15698206 -0.0059994315 0
0.001520918 -0.15745941 -0.0059994282 0
0.0015953885 -0.15794812 0.0060005775 0
0.001411188 -0.15752907 0.0060005775 0
0.0045227767 -0.15734316 -0.0059994156 0
0.0059999949 -0.15701555 0.0013663457 0
0.0035699236 -0.15615197 0.0060005779 0
0.004448513 -0.15753324 0.0060005868 0
0.0060000159 -0.15749651 -0.0044199973 0
0.0060000061 -0.15742366 -0.0015513207 0
0.0059999959 -0.15757763 0.0013401075 0
0.005999987 -0.15754375 0.0047741737 0
-0.0050749718 -0.15453535 -0.005231759 0
-0.0059999959 -0.15433455 -0.0015947983 0
-0.0060000094 -0.15460163 0.00144745 0
-0.0060000182 -0.15453972 0.0044446513 0
-0.0046924506 -0.15428001 0.006000543 0
-0.0016242828 -0.154424 -0.0059994473 0
-0.0020291756 -0.15536343 0.0060005547 0
-0.0014802982 -0.15467539 0.0060005547 0
0.0015713301 -0.15460053 -0.0059994352 0
0.0016037055 -0.15437695 0.0060005644 0
0.004727372 -0.1544662 -0.0059408844 0
0.0060000042 -0.15426156 -0.0013361408 0
0.0047037294 -0.15456018 0.0060005751 0
0.0060000168 -0.15470846 -0.0045764735 0
0.006000008 -0.1543397 -0.0015540589 0
0.0059999949 -0.15427233 0.0013372088 0
0.0059999833 -0.15453352 0.0042820452 0
-0.0059999987 -0.15058938 -0.00049503124 0
-0.0052537941 -0.15148658 -0.0051576723 0
-0.0059999963 -0.15164509 -0.0016200403 0
-0.0060000094 -0.15148352 0.0014745508 0
-0.006000015 -0.15180565 0.004415188 0
-0.0044971351 -0.15158148 0.0060005346 0
-0.0015247059 -0.15133715 -0.0059994585 0
-0.0015754174 -0.15146829 0.0060005449 0
0.0016740417 -0.15143695 -0.0059994459 0
0.0016440697 -0.15137549 0.0060005547 0
0.0044517359 -0.1514547 -0.005999438 0
0.0060000061 -0.1506654 -0.0017643045 0
0.0043901713 -0.15133396 0.0060005649 0
0.0060000168 -0.1515159 -0.0045929006 0
0.0060000061 -0.1514142 -0.0012700885 0
0.0059999968 -0.15139101 0.0012289935 0
0.0059999861 -0.15161666 0.004396141 0
-0.0051764394 -0.14843781 -0.0053454037 0
-0.0059999973 -0.14856862 -0.0013569702 0
-0.0060000084 -0.14846356 0.0016700161 0
-0.0060000187 -0.14860357 0.0045597171 0
-0.0046156063 -0.14847857 0.0060005244 0
-0.0014512027 -0.14810459 -0.0059994697 0
-0.001380814 -0.14840326 -0.0059994664 0
-0.0026268444 -0.14738186 0.0060005239 0
-0.0017438509 -0.14849652 0.0060005304 0
0.0014682733 -0.14852026 -0.0059994594 0
0.001681298 -0.14847653 0.0060005439 0
0.0044887247 -0.14835577 -0.0059994482 0
0.0060000075 -0.14811315 -0.0021915291 0
0.0044318992 -0.14852932 0.0060005565 0
0.0060000168 -0.14866944 -0.0045883502 0
0.0060000052 -0.14842394 -0.0014791815 0
0.0059999968 -0.14836696 0.0015073159 0
0.0059999879 -0.14851747 0.0044785072 0
-0.0060000005 -0.14696777 2.3703959e-05 0
-0.0053962376 -0.14539649 -0.0052260063 0
-0.0059999982 -0.14546627 -0.0014195655 0
-0.0060000052 -0.14566676 0.001477413 0
-0.0060000177 -0.14573431 0.0045266049 0
-0.0046958677 -0.14541396 0.0060005113 0
-0.00040609337 -0.14678711 -0.0059994706 0
-0.0015518442 -0.14548868 -0.0059994804 0
-0.0021803833 -0.14581953 0.0060005197 0
-0.0013777455 -0.14555007 0.0060005202 0
0.0015869191 -0.1454545 -0.0059994711 0
0.0023260203 -0.14611936 0.006000537 0
0.0015017494 -0.14516798 0.0060005337 0
0.0043470077 -0.14560257 -0.005999459 0
0.0060000061 -0.14516687 -0.0018311021 0
0.0059999921 -0.14554369 0.0020955512 0
0.0045562172 -0.145749 0.0060005463 0
0.0060000173 -0.14539534 -0.0046006721 0
0.0060000061 -0.1454376 -0.0015422011 0
0.0059999921 -0.14564894 0.001652346 0
0.0059999861 -0.14539987 0.0045198677 0
-0.0053101089 -0.14249399 -0.005266197 0
-0.0059999973 -0.14247531 -0.0015278109 0
-0.0060000075 -0.14253533 0.0013709498 0
-0.0060000187 -0.14226912 0.0044533508 0
-0.0044907574 -0.14233723 0.0060005006 0
-0.001430218 -0.1430673 -0.0059994878 0
-0.0015657153 -0.14258069 -0.0059994939 0
-0.0010771774 -0.14186402 0.0060005095 0
-0.0015936414 -0.14259754 0.0060005127 0
0.00071177172 -0.14128755 -0.0059994864 0
0.0013226445 -0.14262167 -0.0059994794 0
0.0012782329 -0.14343591 0.0060005235 0
0.0015333138 -0.14241996 0.0060005235 0
0.0045451187 -0.14260188 -0.0059994678 0
0.0059999903 -0.14135878 0.0026299183 0
0.0059999865 -0.14137642 0.0035729867 0
0.0043460471 -0.14253992 0.0060005314 0
0.0060000191 -0.14253049 -0.0046488238 0
0.006000007 -0.14235057 -0.0012960128 0
0.0059999973 -0.14252439 0.0014926586 0
0.0059999861 -0.14263839 0.0044646612 0
-0.006000008 -0.13904792 0.0021049201 0
-0.0051516974 -0.13958533 -0.0052787233 0
-0.0059999949 -0.13950534 -0.0013823115 0
-0.0060000052 -0.13949777 0.0013017377 0
-0.005960667 -0.13944601 0.0044185887 0
-0.0044820132 -0.13948143 0.0060004885 0
-0.0015077448 -0.13864546 -0.0059995041 0
-0.0014955298 -0.13927488 -0.0059995032 0
-0.0013463782 -0.13936757 0.0060004983 0
0.0016530243 -0.13956547 -0.0059994911 0
0.0014113574 -0.13958858 0.0060005095 0
0.0045592301 -0.13936058 -0.0059994822 0
0.005999994 -0.14013243 0.0015593162 0
0.0059999875 -0.13868792 0.0033806812 0
0.0044940133 -0.1396226 0.006000523 0
0.0060000187 -0.13955794 -0.004419297 0
0.0060000066 -0.13951971 -0.0014667183 0
0.0059999954 -0.13946913 0.0014780721 0
0.0059999865 -0.13981548 0.004420762 0
-0.0060000042 -0.13718641 0.0010683436 0
-0.0053119487 -0.13657704 -0.0053460547 0
-0.0059999963 -0.13679799 -0.0013890559 0
-0.0060000056 -0.13638848 0.0018040272 0
-0.0059831799 -0.13650107 0.0047056028 0
-0.0044684433 -0.13649485 0.0060004778 0
-0.0013619468 -0.13638227 -0.005999513 0
-0.0014530865 -0.13636182 0.0060004899 0
0.0015009731 -0.13629855 -0.0059995013 0
0.0014727255 -0.13633516 0.0060005016 0
0.0044103172 -0.13668813 -0.0059994888 0
0.0060000024 -0.13529241 -0.00081424398 0
0.0059999852 -0.137578 0.0039676949 0
0.0044911401 -0.13649279 0.0060005127 0
0.0060000201 -0.13635749 -0.0045908145 0
0.0060000056 -0.13631982 -0.0015601023 0
0.005999994 -0.13669281 0.001432732 0
0.0059999828 -0.13639599 0.0044103577 0
-0.005252338 -0.13344987 -0.0053158896 0
-0.0059999921 -0.13357921 -0.0016933064 0
-0.0060000042 -0.13321848 0.0015460398 0
-0.0060000173 -0.13336116 0.0044127409 0
-0.0048263147 -0.13337399 0.0060004676 0
-6.2468396e-05 -0.13272968 -0.00599952 0
-0.0014445068 -0.13358639 -0.0059995223 0
-0.0025486194 -0.13352078 0.0060004736 0
-0.0015657791 -0.1333818 0.0060004797 0
0.0010175188 -0.13467641 -0.0059995092 0
0.0014467136 -0.1335032 -0.0059995139 0
0.00058499927 -0.13425954 0.0060004881 0
0.001469412 -0.13350083 0.0060004899 0
0.0043169139 -0.13345504 -0.0059995037 0
0.0046787569 -0.13344534 0.0060004992 0
0.0060000201 -0.13344474 -0.0043935948 0
0.0060000084 -0.13350172 -0.0017210288 0
0.0059999963 -0.13351877 0.0014352491 0
0.005999987 -0.13342755 0.0045052175 0
-0.0060000094 -0.13055927 0.0024119546 0
-0.0054172887 -0.13042557 -0.0051341103 0
-0.0059999954 -0.13066368 -0.0013719989 0
-0.0060000089 -0.13028033 0.0018014212 0
-0.0058515351 -0.13064912 0.0043207677 0
-0.004356931 -0.13051693 0.0060004592 0
-0.0014102863 -0.13106848 -0.0059995311 0
-0.0016511319 -0.13054325 -0.0059995339 0
-0.0017199581 -0.13097836 0.0060004676 0
-0.0014315685 -0.13041106 0.0060004699 0
0.0015827984 -0.13059002 -0.0059995251 0
0.0012735763 -0.13040632 0.0060004764 0
0.00445825 -0.13052948 -0.0059995116 0
0.0059999935 -0.12985037 0.0018372196 0
0.0059999852 -0.12999204 0.0040779081 0
0.004617237 -0.13035658 0.0060004899 0
0.0060000187 -0.13060233 -0.0045319293 0
0.0060000061 -0.13066944 -0.001338528 0
0.0059999973 -0.13055344 0.0011144611 0
0.0059999828 -0.13057548 0.0046566357 0
-0.0059999987 -0.12801851 -0.00054538628 0
-0.0060000033 -0.12622923 0.00081763585 0
-0.0052516544 -0.12750635 -0.0053053214 0
-0.0059999949 -0.12770313 -0.0015281894 0
-0.0060000075 -0.12752417 0.0015362342 0
-0.0059462795 -0.12747006 0.0044327085 0
-0.0043271976 -0.12756462 0.0060004485 0
-0.0014791903 -0.12750046 -0.0059995442 0
-0.0024004714 -0.12816937 0.006000455 0
-0.0012949517 -0.12764354 0.0060004587 0
0.0017222678 -0.12754266 -0.0059995339 0
0.0015576882 -0.12766977 0.006000468 0
0.004351174 -0.12739924 -0.0059995246 0
0.0059999828 -0.12775306 0.0046581761 0
0.0047412808 -0.12750778 0.0060004801 0
0.0060000154 -0.12762463 -0.0043851594 0
0.006000007 -0.12722422 -0.0015003103 0
0.0059999963 -0.12749381 0.0014082323 0
0.0059999847 -0.12744106 0.0046182987 0
-0.0060000061 -0.12538335 0.0015250683 0
-0.0060000182 -0.12524585 0.0048704753 0
-0.0051336549 -0.12470825 -0.0052560018 0
-0.0059999977 -0.1244019 -0.0015105946 0
-0.0060000061 -0.12435978 0.0016415892 0
-0.0060000182 -0.1243479 0.0045462144 0
-0.0044694981 -0.12461651 0.006000435 0
-0.0013107486 -0.12327582 -0.0059995591 0
-0.0016183913 -0.12452352 -0.0059995572 0
-0.0014544203 -0.12508078 0.0060004471 0
-0.0015382689 -0.12450787 0.0060004485 0
0.0001790274 -0.12400912 -0.0059995512 0
0.0013988452 -0.12428115 -0.0059995474 0
0.0016142933 -0.12472033 0.0060004569 0
0.0044952389 -0.12457982 -0.0059995344 0
0.0059999907 -0.12581901 0.0024523705 0
0.0059999884 -0.12561329 0.0030740574 0
0.0046232073 -0.12438194 0.0060004685 0
0.0060000182 -0.12460014 -0.0043743532 0
0.0060000056 -0.12476194 -0.0014330259 0
0.0059999977 -0.12419305 0.0015334849 0
0.0059999865 -0.12452304 0.0043445053 0
-0.0059999987 -0.12247522 -0.00045974355 0
-0.0060000056 -0.12116991 0.0013795486 0
-0.0060000182 -0.12161189 0.0049252594 0
-0.0053963158 -0.12152284 -0.00599958 0
-0.0052006398 -0.12134109 -0.0052022622 0
-0.0059999959 -0.12157497 -0.001569358 0
-0.0060000038 -0.12157428 0.0013857819 0
-0.0058700088 -0.12127437 0.0047999392 0
-0.0046690516 -0.12146105 0.0060004224 0
-0.00078885432 -0.12162424 -0.0059995633 0
-0.0016851843 -0.12153925 -0.0059995642 0
-0.0014398592 -0.12156736 0.0060004331 0
0.0015146753 -0.12145916 -0.0059995577 0
0.0015977893 -0.121439 0.0060004457 0
0.004625381 -0.12146264 -0.0059995432 0
0.0059999959 -0.12092314 0.0010836431 0
0.004468773 -0.12135009 0.0060004578 0
0.0060000201 -0.12156939 -0.0045890608 0
0.0060000094 -0.12128555 -0.0016280344 0
0.0059999959 -0.12166619 0.0015650021 0
0.0059999856 -0.12168386 0.0044226227 0
-0.0059999987 -0.11863562 -0.00050244801 0
-0.0060000052 -0.11847157 0.001337468 0
-0.0060000196 -0.11853883 0.0052690073 0
-0.0040176637 -0.11789723 -0.0059995879 0
-0.0050151832 -0.11855531 -0.005382596 0
-0.0059999973 -0.11847201 -0.0016275462 0
-0.0060000033 -0.11841035 0.0014055506 0
-0.0059507154 -0.11853529 0.0044480828 0
-0.0044306177 -0.11817602 0.0060004103 0
-0.001676483 -0.11817084 -0.0059995786 0
-0.0016299532 -0.11830803 -0.0059995782 0
-0.0027171138 -0.11998336 0.0060004243 0
-0.0016284364 -0.11848125 0.0060004252 0
0.0016045279 -0.11872523 -0.005999567 0
0.0016382444 -0.11856536 0.0060004378 0
0.0045451922 -0.11847229 -0.0059995572 0
0.0059999852 -0.11755888 0.0040302384 0
0.0044803815 -0.11861033 0.006000448 0
0.0060000154 -0.11848327 -0.0041816942 0
0.006000008 -0.11840947 -0.0014025996 0
0.0059999954 -0.11846482 0.0014179371 0
0.0059999847 -0.11834212 0.0045691309 0
-0.0060000038 -0.11501198 0.00088706223 0
-0.0060000168 -0.11556978 0.0045126979 0
-0.004490471 -0.11577572 -0.0059995977 0
-0.0052618654 -0.1154815 -0.005277466 0
-0.0059999973 -0.11553041 -0.0014359186 0
-0.0060000047 -0.11567596 0.0013956283 0
-0.0059793624 -0.11553533 0.0045223371 0
-0.0044138758 -0.11563393 0.0060004033 0
-0.0026726222 -0.11554656 -0.0059995921 0
-0.0014050957 -0.11552087 -0.0059995865 0
-0.0019442922 -0.11694936 0.0060004159 0
-0.0015555576 -0.11547728 0.006000414 0
0.0015048699 -0.11549769 -0.0059995782 0
0.0013800599 -0.115423 0.0060004266 0
0.0044932975 -0.1155339 -0.0059995656 0
0.0059999921 -0.11546198 0.0020444482 0
0.0059999852 -0.11572891 0.0039898297 0
0.0045216302 -0.11538779 0.0060004368 0
0.0060000177 -0.11550797 -0.0043437122 0
0.006000008 -0.11559452 -0.0014815347 0
0.0059999935 -0.11552437 0.0017007709 0
0.0059999852 -0.11532813 0.0045846687 0
-0.0060000168 -0.11305807 0.0044592014 0
-0.004817232 -0.11164366 -0.0059996136 0
-0.0051846565 -0.11250597 -0.0052284217 0
-0.0059999935 -0.11251679 -0.0013952149 0
-0.0060000061 -0.11258616 0.0014272264 0
-0.0059768627 -0.11235537 0.0046157278 0
-0.0044852924 -0.11237692 0.0060003898 0
-0.00012370855 -0.11243108 -0.005999594 0
-0.00155013 -0.1125905 -0.0059995977 0
-0.0025745004 -0.11332249 0.0060004005 0
-0.0016503894 -0.11270298 0.0060004005 0
0.0012994668 -0.1124845 -0.0059995907 0
0.0015196557 -0.11251029 0.0060004136 0
0.0043090144 -0.1124588 -0.0059995772 0
0.0059999917 -0.11169975 0.0021601012 0
0.0059999884 -0.11312727 0.0030510086 0
0.0044103093 -0.11252665 0.0060004261 0
0.0060000154 -0.11291163 -0.0045543713 0
0.0060000075 -0.11248471 -0.0014564089 0
0.0059999949 -0.11271748 0.0014619901 0
0.0059999847 -0.11233292 0.004355791 0
-0.0060000187 -0.10975996 0.0050696442 0
-0.004760819 -0.10976024 -0.0059996205 0
-0.005248507 -0.1094403 -0.0051431749 0
-0.0059999973 -0.10927897 -0.0011933276 0
-0.0060000061 -0.10951902 0.0015338593 0
-0.0059571196 -0.10956965 0.0044774129 0
-0.0045382725 -0.10950048 0.0060003824 0
-0.0014768041 -0.10898452 -0.0059996112 0
-0.0014930384 -0.10978042 -0.005999607 0
-0.0023621118 -0.10904326 0.0060003861 0
-0.0014940165 -0.10959212 0.0060003935 0
0.0013702356 -0.10956121 -0.0059995968 0
0.0012430787 -0.10931713 0.006000401 0
0.0045358585 -0.10937822 -0.0059995917 0
0.0059999917 -0.1084998 0.002123069 0
0.005999987 -0.10989117 0.0034314655 0
0.004424226 -0.10933588 0.006000414 0
0.0060000191 -0.10960081 -0.0045888717 0
0.0060000061 -0.10929219 -0.0015402493 0
0.0059999959 -0.10960336 0.0011283151 0
0.0059999824 -0.10943892 0.004311413 0
-0.0060000084 -0.10722949 0.002190012 0
-0.0060000122 -0.10770102 0.0031809886 0
-0.0040544788 -0.10584103 -0.0059996322 0
-0.0052866586 -0.1065428 -0.0053016655 0
-0.005999994 -0.10623734 -0.0016960104 0
-0.0060000047 -0.10627728 0.0017206637 0
-0.0058124 -0.10657986 0.0045604389 0
-0.0042651719 -0.10653697 0.0060003689 0
-0.00088715507 -0.10705195 -0.0059996163 0
-0.001380734 -0.10643714 -0.0059996215 0
-0.002176781 -0.10619052 0.0060003763 0
-0.0014293793 -0.10652318 0.0060003819 0
0.0013614584 -0.10648216 -0.0059996117 0
0.0013751242 -0.10645621 0.0060003893 0
0.0046058744 -0.10651055 -0.0059995991 0
0.0059999847 -0.1075317 0.0040562646 0
0.0046770941 -0.10639475 0.0060004038 0
0.0060000187 -0.10651209 -0.0045619793 0
0.0060000052 -0.10642835 -0.0014614387 0
0.0059999945 -0.10647181 0.0016403247 0
0.0059999824 -0.10625254 0.0044327178 0
-0.0060000047 -0.10340038 0.0011870284 0
-0.0060000126 -0.10378928 0.003359549 0
-0.0037867327 -0.10499026 -0.005999634 0
-0.0053214193 -0.10368749 -0.0052406276 0
-0.0059999968 -0.10372627 -0.0015190672 0
-0.006000007 -0.10336788 0.0015654871 0
-0.0059194975 -0.10350295 0.0045592701 0
-0.0045319512 -0.10359965 0.00600036 0
-0.0025929043 -0.1025001 -0.0059996387 0
-0.0016948297 -0.1032975 -0.0059996336 0
-0.0018885917 -0.10217739 0.0060003623 0
-0.0013344963 -0.10339684 0.0060003698 0
0.0014501452 -0.10360249 -0.0059996191 0
0.0015391073 -0.10365561 0.0060003833 0
0.004546802 -0.10352416 -0.0059996112 0
0.0059999917 -0.10377393 0.0022336082 0
0.0059999838 -0.10308193 0.0043899412 0
0.0047602681 -0.10362355 0.0060003921 0
0.0060000168 -0.10347796 -0.0042801895 0
0.0060000052 -0.10331156 -0.0014863142 0
0.0059999973 -0.10350728 0.001393027 0
0.0059999852 -0.10330532 0.0043095136 0
-0.0060000052 -0.10081165 0.0012443898 0
-0.006000015 -0.10061354 0.0040407423 0
-0.0046819416 -0.099949263 -0.0059996555 0
-0.0052504749 -0.10043078 -0.0052924477 0
-0.005999994 -0.10051405 -0.0015441552 0
-0.0060000056 -0.10059834 0.0011447278 0
-0.0058503458 -0.10060955 0.00464063 0
-0.0043735499 -0.1006409 0.006000347 0
-0.0018757023 -0.10055371 -0.0059996424 0
-0.0023969996 -0.099854253 0.0060003521 0
-0.0012671408 -0.10032775 0.00600036 0
0.0015472296 -0.10057043 -0.005999634 0
0.0013726093 -0.10054376 0.0060003712 0
0.0044416268 -0.10064493 -0.005999621 0
0.0059999917 -0.099943563 0.0022346994 0
0.0059999796 -0.10085256 0.0056964909 0
0.0045069116 -0.1005441 0.0060003819 0
0.006000014 -0.10065495 -0.004273443 0
0.0060000042 -0.10069951 -0.001651522 0
0.0059999977 -0.10038446 0.0014120304 0
0.0059999838 -0.1001474 0.0043693348 0
-0.006000008 -0.097786225 0.0019953463 0
-0.0060000215 -0.097638451 0.0057291212 0
-0.0043900018 -0.097135417 -0.0059996648 0
-0.0051182066 -0.097443767 -0.0053849062 0
-0.0059999959 -0.097505242 -0.001348975 0
-0.0060000066 -0.09762881 0.0016454435 0
-0.0059836358 -0.097720198 0.0044565536 0
-0.0042703361 -0.097615056 0.0060003363 0
-0.0021877391 -0.096728124 -0.0059996583 0
-0.0014148229 -0.097543672 -0.0059996541 0
-0.0027757406 -0.098900042 0.0060003474 0
-0.0014226724 -0.097372383 0.0060003479 0
0.0012957872 -0.097612627 -0.0059996424 0
0.0015410861 -0.097459897 0.0060003605 0
0.0046519921 -0.097321354 -0.0059996312 0
0.0059999917 -0.098850332 0.0021888018 0
0.0059999861 -0.097317964 0.0038417848 0
0.0046998472 -0.097410463 0.0060003703 0
0.0060000187 -0.097573146 -0.0046542934 0
0.0060000047 -0.097396046 -0.001285732 0
0.0059999959 -0.097716898 0.0014961362 0
0.005999987 -0.097519003 0.0044245478 0
-0.0060000108 -0.095116265 0.0028759167 0
-0.0060000191 -0.094483048 0.0051611643 0
-0.004832468 -0.094661832 -0.0059996755 0
-0.0053872727 -0.094312057 -0.0052503129 0
-0.0059999959 -0.094417848 -0.0014930933 0
-0.0060000056 -0.094276771 0.0014660822 0
-0.0058452794 -0.094537079 0.0049185571 0
-0.0046658763 -0.094610661 0.0060003269 0
-0.001956536 -0.095053159 -0.0059996634 0
-0.0015059063 -0.094397329 -0.0059996638 0
-0.0020898588 -0.093806259 0.0060003316 0
-0.0014522497 -0.094542459 0.0060003372 0
0.001438737 -0.094480649 -0.0059996545 0
0.0013172565 -0.094470851 0.0060003488 0
0.0045530512 -0.09429922 -0.0059996448 0
0.0059999912 -0.095147327 0.0024857039 0
0.0059999828 -0.094226338 0.0047223899 0
0.0046372493 -0.09455587 0.0060003614 0
0.0060000164 -0.09445294 -0.0044892565 0
0.0060000061 -0.094577402 -0.0015700776 0
0.0059999945 -0.094370224 0.0015483 0
0.0059999838 -0.094545737 0.0045767399 0
-0.0060000066 -0.09107352 0.0016162774 0
-0.0060000177 -0.092058159 0.00481149 0
-0.004992167 -0.091038749 -0.005999689 0
-0.0053352304 -0.091429882 -0.0051672924 0
-0.0059999982 -0.091537796 -0.0017039628 0
-0.0060000061 -0.091686115 0.0017639149 0
-0.0058622137 -0.091398232 0.0046987375 0
-0.0042398064 -0.091572247 0.0060003153 0
-0.0018458986 -0.091991 -0.0059996741 0
-0.0015811712 -0.091493748 -0.0059996769 0
-0.0026650068 -0.091178142 0.00600032 0
-0.001272675 -0.091496967 0.0060003283 0
0.0013739315 -0.091567948 -0.0059996657 0
0.0016582302 -0.091657586 0.0060003409 0
0.0044930074 -0.091588922 -0.0059996545 0
0.0059999903 -0.091223568 0.0026156616 0
0.0059999828 -0.091425113 0.0046709562 0
0.0044570225 -0.091462746 0.0060003488 0
0.0060000168 -0.091600657 -0.0045050336 0
0.0060000047 -0.09136644 -0.001660592 0
0.0059999963 -0.091595843 0.001365508 0
0.0059999856 -0.091399774 0.0043478562 0
-0.0060000075 -0.087193727 0.0018836936 0
-0.0060000164 -0.08948309 0.0043738941 0
-0.0050798622 -0.088266298 -0.0059996992 0
-0.0053772153 -0.088352382 -0.0051357476 0
-0.0059999959 -0.088354491 -0.0016129107 0
-0.006000008 -0.088632651 0.0015087723 0
-0.0059602698 -0.088535167 0.0046120626 0
-0.0044481312 -0.088653199 0.006000306 0
-0.0019976932 -0.089214928 -0.0059996848 0
-0.0015071707 -0.088574015 -0.0059996862 0
-0.0028737548 -0.087301835 0.0060003055 0
-0.001415603 -0.088541985 0.0060003167 0
0.0014531441 -0.088556297 -0.0059996769 0
0.0014456533 -0.088474765 0.0060003279 0
0.0045135617 -0.088515818 -0.0059996652 0
0.0059999912 -0.087962307 0.0022765573 0
0.0059999856 -0.087966561 0.0038772409 0
0.0045180935 -0.088524476 0.0060003381 0
0.0060000159 -0.088693954 -0.0042570797 0
0.0060000075 -0.088379048 -0.0014337696 0
0.0059999959 -0.088551432 0.0016240124 0
0.0059999838 -0.088533849 0.004639281 0
-0.0060000056 -0.085026927 0.0014477859 0
-0.0060000177 -0.086312659 0.0047847414 0
-0.0044147656 -0.085949652 -0.0059997053 0
-0.0053689647 -0.085450083 -0.0052842521 0
-0.0059999968 -0.085512698 -0.0015905955 0
-0.006000007 -0.085423224 0.0015021837 0
-0.0059066415 -0.085505188 0.0047567538 0
-0.004258893 -0.085595004 0.0060002925 0
-0.0019118371 -0.085514717 -0.0059996978 0
-0.0016711169 -0.085544333 -0.005999695 0
-0.00151513 -0.085527174 0.006000306 0
0.0013470431 -0.08536844 -0.0059996876 0
0.0014214609 -0.085726604 0.0060003167 0
0.0046449481 -0.085368685 -0.0059996732 0
0.0059999907 -0.085940368 0.0025171863 0
0.0059999828 -0.085800745 0.0046737255 0
0.0047720177 -0.085310347 0.0060003274 0
0.0060000145 -0.085610367 -0.0044312524 0
0.0060000084 -0.085282549 -0.0016920322 0
0.0059999987 -0.085489534 0.0011821517 0
0.0059999865 -0.085455731 0.0044133505 0
-0.0060000089 -0.083085693 0.0023243614 0
-0.0060000131 -0.083596587 0.0034367328 0
-0.003708747 -0.082107 -0.0059997169 0
-0.0051797135 -0.082441039 -0.0052864146 0
-0.0059999959 -0.082353368 -0.0014888071 0
-0.006000008 -0.082525343 0.0015637679 0
-0.0058677816 -0.082527712 0.0044355486 0
-0.0046284227 -0.082426712 0.0060002808 0
-0.0017350835 -0.082519233 -0.0059997081 0
-0.0014892112 -0.082492933 -0.0059997072 0
-0.002439738 -0.082378671 0.0060002888 0
-0.001514678 -0.082525894 0.0060002948 0
0.0017407769 -0.082567669 -0.0059996988 0
0.0014440783 -0.082530573 0.0060003055 0
0.0045588985 -0.082648464 -0.0059996871 0
0.0059999828 -0.082353577 0.0046563679 0
0.0045356802 -0.082568027 0.0060003148 0
0.0060000173 -0.082619317 -0.0046742773 0
0.0060000056 -0.08251185 -0.0014293814 0
0.0059999945 -0.082445234 0.001696434 0
0.0059999828 -0.082322776 0.004488721 0
-0.0060000094 -0.078418054 0.0024879773 0
-0.0060000145 -0.078722343 0.0038973878 0
-0.0043557598 -0.079107322 -0.00599973 0
-0.0052588396 -0.079474315 -0.0052802954 0
-0.0059999949 -0.079753317 -0.0014234826 0
-0.0060000052 -0.079422347 0.0014164253 0
-0.0059423796 -0.079513013 0.0045970795 0
-0.0046187034 -0.079478346 0.0060002734 0
-0.0026408841 -0.080238558 -0.0059997197 0
-0.001627345 -0.079364143 -0.0059997193 0
-0.0023258876 -0.079409026 0.0060002785 0
-0.0013863563 -0.079474814 0.0060002841 0
0.0014289683 -0.079465464 -0.0059997085 0
0.0013728873 -0.079306871 0.0060002939 0
0.0044615055 -0.079830252 -0.0059996941 0
0.0059999903 -0.079457827 0.0025745491 0
0.00599998 -0.080687091 0.0054465286 0
0.0048064482 -0.079533383 0.0060003046 0
0.0060000164 -0.079675294 -0.00486163 0
0.006000008 -0.079726398 -0.0014882673 0
0.0059999959 -0.07959298 0.0013500206 0
0.0059999833 -0.079506814 0.0045024031 0
-0.0060000094 -0.076501392 0.0024618539 0
-0.0060000205 -0.075583734 0.0055697071 0
-0.0043035336 -0.076379038 -0.0059997393 0
-0.0052632908 -0.076569751 -0.0051695914 0
-0.0059999982 -0.076415516 -0.0013869628 0
-0.006000007 -0.076793946 0.0018142355 0
-0.0059605916 -0.076454312 0.0043563591 0
-0.004555678 -0.076402105 0.0060002599 0
-0.0019933227 -0.076831311 -0.0059997295 0
-0.0015813677 -0.076710738 -0.0059997295 0
-0.0023693952 -0.077446409 0.0060002715 0
-0.0013098257 -0.076494873 0.0060002743 0
0.0015071217 -0.076720163 -0.0059997155 0
0.0015411809 -0.07634069 0.0060002832 0
0.0045344485 -0.076525092 -0.0059997095 0
0.0059999907 -0.076276906 0.0024942395 0
0.0059999805 -0.076218769 0.005282308 0
0.0046327342 -0.076641522 0.0060002976 0
0.0060000159 -0.076353997 -0.0043527144 0
0.0060000056 -0.076531 -0.0014431012 0
0.0059999963 -0.076803312 0.0013827202 0
0.0059999852 -0.076671518 0.0045115417 0
-0.0060000103 -0.074460894 0.0026531864 0
-0.0060000164 -0.073279388 0.0043793404 0
-0.0043375669 -0.073897108 -0.0059997491 0
-0.0051919227 -0.073538378 -0.0052339067 0
-0.0059999968 -0.073395044 -0.0014962223 0
-0.0060000047 -0.073413655 0.0015202267 0
-0.0060000168 -0.0732572 0.0045079943 0
-0.0045078676 -0.073572047 0.0060002492 0
-0.0019801322 -0.073128104 -0.005999743 0
-0.0015268417 -0.073387146 -0.0059997402 0
-0.00195696 -0.073955961 0.0060002604 0
-0.0013255246 -0.07359758 0.0060002641 0
0.0016668382 -0.07358449 -0.0059997276 0
0.0015004608 -0.073548354 0.0060002734 0
0.0045176647 -0.073628597 -0.005999716 0
0.0059999833 -0.073603004 0.0044956435 0
0.0045853276 -0.073307239 0.0060002808 0
0.0060000177 -0.073639348 -0.0044533969 0
0.006000007 -0.073399417 -0.0015323728 0
0.0059999963 -0.073437534 0.0014615443 0
0.0059999838 -0.073441595 0.0046317335 0
-0.0091876686 -0.069580317 -0.00154814 0
-0.0092019225 -0.069688864 0.001276745 0
-0.0064929379 -0.069588356 -0.0065603135 0
-0.0072457213 -0.069835991 -0.0043832953 0
-0.0074075083 -0.069996618 -0.0016404298 0
-0.0074372441 -0.069992207 0.0015614621 0
-0.0072287703 -0.069919884 0.0044640321 0
-0.0064424835 -0.069762878 0.0065228851 0
-0.0042923987 -0.069814146 -0.0074364883 0
-0.005295272 -0.071037136 -0.0052482132 0
-0.0059999931 -0.070858218 -0.0016033723 0
-0.0060000042 -0.071120493 0.0015241925 0
-0.0059591555 -0.070920795 0.0045024571 0
-0.0043793577 -0.070256114 0.0069168378 0
-0.001241331 -0.069547169 -0.0092093088 0
-0.0016418583 -0.07001964 -0.0074888514 0
-0.0013058722 -0.07094615 -0.0059997463 0
-0.0029497936 -0.071496725 0.0060002478 0
-0.0016420104 -0.070404969 0.0069442564 0
-0.0010497929 -0.069480084 0.009240631 0
0.001292802 -0.06957294 -0.0091974586 0
0.0015823011 -0.069971211 -0.0076112445 0
0.0014180506 -0.071033329 -0.0059997365 0
0.0015778152 -0.070447609 0.0069809216 0
0.0014738126 -0.069576263 0.009191053 0
0.004352509 -0.069855936 -0.0074408874 0
0.0042791511 -0.07090389 -0.0059997272 0
0.0059999805 -0.071925305 0.0053333943 0
0.0044440082 -0.070300482 0.0067434153 0
0.0064028604 -0.069678515 -0.0065571321 0
0.0067059016 -0.070367359 -0.004359473 0
0.0068993242 -0.070390753 -0.0014648164 0
0.0068299673 -0.070420988 0.0015985887 0
0.0068925498 -0.070236236 0.0043626903 0
0.0064467872 -0.069649793 0.0065698358 0
0.0092338277 -0.069540307 -0.0010765077 0
0.0092790434 -0.069538087 0.00094392325 0
-0.0092345811 -0.067453422 -0.0012940576 0
-0.0092415521 -0.067493699 0.0012356857 0
-0.0064858077 -0.067597225 -0.0066590458 0
-0.0080129812 -0.067529514 -0.0046219644 0
-0.0089009199 -0.067646116 -0.0028576499 0
-0.0089458525 -0.067533419 0.002754777 0
-0.008079865 -0.067330278 0.0045119035 0
-0.0066200271 -0.067301303 0.006534284 0
-0.0044501084 -0.067524895 -0.0081153838 0
-0.0046715843 -0.067535579 0.0079960926 0
-0.0013692328 -0.067600705 -0.0092244856 0
-0.0028050793 -0.067245074 -0.0089236321 0
-0.0027131883 -0.067569472 0.0089640804 0
-0.0014271666 -0.067503028 0.0092168804 0
0.0013315364 -0.067386128 -0.0092299096 0
0.0027712684 -0.067387849 -0.0089383395 0
0.0028041257 -0.067758799 0.0089245345 0
0.0012822282 -0.067553774 0.009238814 0
0.0045781597 -0.067480996 -0.0080404915 0
0.004336908 -0.067287087 0.008162016 0
0.0066971295 -0.067633972 -0.0064392406 0
0.0080758315 -0.067433462 -0.0045421948 0
0.008912568 -0.068055414 -0.0028308425 0
0.008938496 -0.067218147 0.0027717121 0
0.0080414331 -0.067387491 0.0045602196 0
0.0066075698 -0.067432776 0.0065414924 0
0.0092199463 -0.067597404 -0.0014034302 0
0.0092274165 -0.067614287 0.0013263845 0
-0.0092360983 -0.064518809 -0.0012793203 0
-0.0092395404 -0.06444741 0.0012573475 0
-0.0064372751 -0.064662337 -0.0067015775 0
