# .PCD v0.7 - Point Cloud Data file format
VERSION 0.7
FIELDS x y z rgb
SIZE 4 4 4 4
TYPE F F F F
COUNT 1 1 1 1
WIDTH 1167
HEIGHT 1
VIEWPOINT 0 0 0 1 0 0 0
POINTS 1167
DATA ascii
-0.02216574 -0.23240307 -0.0016974199 0
-0.022150869 -0.23242673 0.0016617484 0
-0.023197489 -0.23275514 0.0044510108 0
-0.028030457 -0.22973852 -0.0043220543 0
-0.029077945 -0.22932225 -0.0015929808 0
-0.029063864 -0.2296541 0.0013138035 0
-0.027992494 -0.22952488 0.0044162483 0
-0.025609747 -0.22949988 -0.0057287924 0
-0.025610317 -0.22945833 0.0057646795 0
-0.023364833 -0.22967538 -0.0041841688 0
-0.022466408 -0.22943833 -0.0014358852 0
-0.022521291 -0.22948842 0.0018161617 0
-0.023386434 -0.22949167 0.0041813515 0
-0.027974183 -0.22671862 -0.0042839386 0
-0.028949859 -0.22669403 -0.0015547422 0
-0.02889318 -0.22645219 0.0015221001 0
-0.027856417 -0.22655721 0.0043935939 0
-0.025453381 -0.22646686 -0.0057488647 0
-0.025568442 -0.22653586 0.0057413676 0
-0.023100931 -0.22642979 -0.0041678529 0
-0.02211263 -0.22625276 -0.0015018655 0
-0.022148676 -0.22645858 0.0013952489 0
-0.022991678 -0.22640942 0.0040075923 0
-0.027447494 -0.22354043 -0.0039121304 0
-0.0281366 -0.22336107 -0.0015720588 0
-0.028148791 -0.22346835 0.001614503 0
-0.027429536 -0.2234775 0.0039140554 0
-0.025603326 -0.22348867 -0.0055878083 0
-0.02539614 -0.22340681 0.0056266105 0
-0.022652648 -0.22335093 -0.0045145424 0
-0.021433013 -0.2234389 -0.0016049966 0
-0.021453317 -0.22351223 0.0016081303 0
-0.022854041 -0.223453 0.0047712419 0
-0.020999005 -0.22246355 -0.00021938063 0
-0.020949222 -0.22213295 0.0007208637 0
-0.02716011 -0.2212837 -0.0034119007 0
-0.02749718 -0.22063527 -0.001312661 0
-0.027526747 -0.22076827 0.0014071553 0
-0.02713844 -0.22111657 0.0033882894 0
-0.025604334 -0.22036485 -0.0051096729 0
-0.026938472 -0.21939491 -0.0028305319 0
-0.025733124 -0.22056545 0.0050055375 0
-0.022352625 -0.22044149 -0.0048858314 0
-0.021119939 -0.22141847 -0.0025922162 0
-0.021149233 -0.2215472 0.0024649191 0
-0.022368494 -0.22055805 0.0049256743 0
-0.020810762 -0.21912481 -0.0032464247 0
-0.02061999 -0.22043571 -0.0011767687 0
-0.020677432 -0.22045557 0.0014701552 0
-0.020822104 -0.21924609 0.0032360374 0
-0.027072769 -0.21863005 -0.00079919666 0
-0.027068265 -0.21863991 0.00089938444 0
-0.02541529 -0.21757577 -0.0046376144 0
-0.026674556 -0.21740919 -0.0015924473 0
-0.02669145 -0.21741866 0.0014024808 0
-0.025426349 -0.21761884 0.0046443809 0
-0.022255577 -0.21768217 -0.0054658824 0
-0.02233181 -0.2176609 0.0054808171 0
-0.02058219 -0.21704577 -0.0038184845 0
-0.01993385 -0.21735708 -0.001592343 0
-0.019932587 -0.21741772 0.0015134594 0
-0.020461515 -0.21719758 0.0035163937 0
-0.025048524 -0.21471559 -0.0042559942 0
-0.025916239 -0.21435589 -0.0016335149 0
-0.025979601 -0.21447685 0.0013400968 0
-0.024832763 -0.21457624 0.0045187017 0
-0.022620121 -0.21440811 -0.0057744668 0
-0.022586139 -0.21452779 0.005795652 0
-0.020122079 -0.21439533 -0.0041820486 0
-0.019209491 -0.21467541 -0.0014620398 0
-0.01912979 -0.21437719 0.0015288019 0
-0.02019529 -0.21455011 0.0042106248 0
-0.024475243 -0.2118326 -0.0039256471 0
-0.025113449 -0.21147907 -0.0016390549 0
-0.025144953 -0.21146592 0.0013111881 0
-0.024483439 -0.2117244 0.0038411207 0
-0.022555532 -0.21129279 -0.0054451348 0
-0.022655858 -0.21135241 0.0053194556 0
-0.019424388 -0.21161926 -0.0049329679 0
-0.018294921 -0.21263835 -0.001761 0
-0.018252434 -0.21263987 0.0017207625 0
-0.019428059 -0.21154243 0.0049719159 0
-0.017675078 -0.21059458 -0.0038828559 0
-0.017203562 -0.21119525 -0.0014754148 0
-0.017162118 -0.21121114 0.0012328232 0
-0.017671494 -0.21080247 0.0036275398 0
-0.024205359 -0.20965455 -0.00095027155 0
-0.024195962 -0.20968208 0.0010521192 0
-0.02235953 -0.2087501 -0.0041544009 0
-0.023070583 -0.20818482 -0.0016575145 0
-0.023033472 -0.20812041 0.0016082046 0
-0.02237088 -0.20879456 0.0041852673 0
-0.019228984 -0.20846237 -0.0057648206 0
-0.019695761 -0.20831238 0.0057038991 0
-0.016702991 -0.20835453 -0.0045322804 0
-0.015735211 -0.20906559 -0.0014167378 0
-0.015764812 -0.20904356 0.0016527111 0
-0.016665263 -0.20849083 0.0043880404 0
-0.014828129 -0.20713255 -0.0030664804 0
-0.014679097 -0.20755656 -0.0012630943 0
-0.014629683 -0.20749044 0.0013191478 0
-0.01487076 -0.20712933 0.0031436132 0
-0.021355862 -0.20650393 -0.0034267737 0
-0.021610139 -0.20601588 -0.0015484665 0
-0.021716366 -0.20620331 0.0015836088 0
-0.021294594 -0.20640346 0.0034439571 0
-0.019624695 -0.205466 -0.0046902811 0
-0.020578602 -0.20453258 -0.0016029075 0
-0.020572076 -0.20452532 0.0015472422 0
-0.019681957 -0.20546633 0.0045636385 0
-0.016212821 -0.20561938 -0.00548473 0
-0.016278934 -0.20571524 0.00553582 0
-0.014127184 -0.20528126 -0.0040274579 0
-0.013343801 -0.20554249 -0.0014872435 0
-0.013339142 -0.20557551 0.0014724117 0
-0.014183476 -0.20526008 0.0040787891 0
-0.018569848 -0.20286544 -0.0038813048 0
-0.019286722 -0.20255983 -0.0013122103 0
-0.019099018 -0.20237745 0.0016506169 0
-0.018632459 -0.20288396 0.0038473213 0
-0.016880607 -0.20241342 -0.0051773558 0
-0.016615417 -0.2022028 0.0051952335 0
-0.013290056 -0.20274544 -0.0048579224 0
-0.012191529 -0.20382421 -0.0016432332 0
-0.012203168 -0.20365329 0.0023326213 0
-0.013332163 -0.20257191 0.0049547167 0
-0.011351449 -0.2016145 -0.0036802092 0
-0.010744625 -0.20201097 -0.0012786 0
-0.010911864 -0.20219289 0.0014120447 0
-0.011400931 -0.20164421 0.0037177633 0
-0.018122494 -0.2007883 -0.0012598352 0
-0.018107351 -0.20073198 0.0010488635 0
-0.015967051 -0.19980748 -0.0045305868 0
-0.017150069 -0.19950557 -0.0015272379 0
-0.01696738 -0.19933788 0.0018395638 0
-0.015976213 -0.19975229 0.0044549806 0
-0.013640424 -0.19950706 -0.0057174377 0
-0.013645707 -0.19963259 0.0057132328 0
-0.010573246 -0.19953039 -0.0050408086 0
-0.0094407843 -0.20073318 -0.0019276565 0
-0.0093619935 -0.20077601 0.0013094352 0
-0.010356824 -0.19960524 0.0048475475 0
-0.0078364061 -0.19871563 -0.0040022722 0
-0.0074204765 -0.19941035 -0.0015177855 0
-0.007638989 -0.1995475 0.0016115523 0
-0.0079971245 -0.19879349 0.0040615005 0
-0.00575234 -0.19829859 -0.001169325 0
-0.0056695263 -0.19826317 0.0011244413 0
-0.015380763 -0.19781129 -0.0034907523 0
-0.015662646 -0.19731985 -0.0013715959 0
-0.015670983 -0.19734187 0.001371177 0
-0.015368243 -0.19784392 0.0035724759 0
-0.013321 -0.19680376 -0.0043381555 0
-0.013722519 -0.19585495 -0.0017415765 0
-0.013735398 -0.19590333 0.0019185443 0
-0.013366654 -0.19679926 0.004339451 0
-0.010532564 -0.19622543 -0.0054311617 0
-0.010667168 -0.19651419 0.0054799705 0
-0.0072966511 -0.19658665 -0.0054445332 0
-0.0073617664 -0.19678642 0.0052894098 0
-0.0046047634 -0.19608931 -0.0044157025 0
-0.0041656359 -0.19713764 -0.0014668553 0
-0.0044163894 -0.19728385 0.0015882613 0
-0.0048690746 -0.19623791 0.0044511217 0
-0.0028333033 -0.19542523 -0.0037109037 0
-0.0020200394 -0.19561267 -0.001523983 0
-0.0019215492 -0.19558805 0.0012880343 0
-0.002608774 -0.19507416 0.0040490776 0
-0.012378025 -0.19478726 -0.0010938136 0
-0.012323375 -0.19478329 0.0013093401 0
-0.010170296 -0.19438165 -0.0041253623 0
-0.010342778 -0.19343679 -0.0014681832 0
-0.010409813 -0.19348557 0.0014128971 0
-0.009921859 -0.19411542 0.0040096352 0
-0.007489549 -0.19324902 -0.0047851754 0
-0.0086232806 -0.19229078 -0.0017193677 0
-0.0085253157 -0.19230042 0.0021464792 0
-0.0075845653 -0.19360295 0.0050797104 0
-0.0043773632 -0.19346228 -0.0057107853 0
-0.0044554253 -0.19356583 0.0057675978 0
-0.0014368296 -0.1936136 -0.0046489118 0
-0.00067796279 -0.19465493 -0.0015687654 0
-0.0006327249 -0.19461766 0.0016786715 0
-0.001543071 -0.19358228 0.004665595 0
0.00093214231 -0.19251041 -0.0040770192 0
0.0013950736 -0.19322495 -0.0015173876 0
0.0014594938 -0.19316395 0.0016102142 0
0.00077613903 -0.1926159 0.0040818308 0
0.0031623449 -0.19211918 -0.00073493621 0
0.003072479 -0.19218157 0.00073591725 0
-0.0064530852 -0.19155303 -0.0038085268 0
-0.0070393803 -0.19109362 -0.0013345111 0
-0.0072429348 -0.19130999 0.0017146826 0
-0.0065727686 -0.19154066 0.0036579308 0
-0.0044097146 -0.1904079 -0.0045395764 0
-0.0056467778 -0.18949029 -0.0017846264 0
-0.0057195812 -0.1897997 0.0016257107 0
-0.0045409203 -0.19051638 0.0044942545 0
-0.001469968 -0.19033656 -0.0057929708 0
-0.00134502 -0.19054818 0.0058492115 0
0.0016879244 -0.19061202 -0.0051856902 0
0.0029077232 -0.1919847 -0.002424703 0
0.0029745491 -0.19188759 0.002592305 0
0.0016525422 -0.19060874 0.0051854919 0
0.0039059464 -0.19012818 -0.0041577048 0
0.0048128036 -0.19068508 -0.0014407219 0
0.0047858264 -0.19069414 0.001676912 0
0.0040940917 -0.18996282 0.0041200002 0
-0.0045320056 -0.18761048 -0.0044740001 0
-0.0057181376 -0.18731186 -0.0015177812 0
-0.0057404502 -0.18732734 0.0014428399 0
-0.0045015458 -0.18740034 0.0045597539 0
-0.0014356907 -0.18740648 -0.0057247658 0
-0.0014608174 -0.18755254 0.0057180263 0
0.0015207937 -0.18762371 -0.0056985156 0
0.0015129313 -0.18717714 0.0056921639 0
0.0046236394 -0.18741928 -0.0045114867 0
0.0056917123 -0.18733603 -0.0016269487 0
0.0056543574 -0.18766294 0.0016788335 0
0.0047257338 -0.18740891 0.004323483 0
-0.0047875377 -0.18434164 -0.0048033232 0
-0.0056999787 -0.18438861 -0.001566568 0
-0.0057369946 -0.18458007 0.0013998146 0
-0.0047652679 -0.18443304 0.0047601089 0
-0.0013834699 -0.18468168 -0.0057455548 0
-0.0013612675 -0.18469496 0.0057475902 0
0.0014696595 -0.18423897 -0.0057135108 0
0.0015107569 -0.18451609 0.0057057221 0
0.0048247697 -0.18449725 -0.0048585935 0
0.005726215 -0.18448228 -0.0014306019 0
0.0056749051 -0.18438089 0.0016448884 0
0.0047379117 -0.18445747 0.0048971619 0
-0.0049494863 -0.18123899 -0.0050140885 0
-0.0057816049 -0.18141466 -0.0013853823 0
-0.0056931106 -0.18146388 0.0016551493 0
-0.0049939943 -0.18139116 0.0049741999 0
-0.0052813715 -0.18019564 0.0060006334 0
-0.0014632304 -0.1813111 -0.0057379035 0
-0.0015785233 -0.18160303 0.0057143066 0
-0.0014779341 -0.18008536 0.0060006473 0
0.0014143077 -0.18122925 -0.0057290453 0
0.0017633974 -0.18130001 0.0056923111 0
0.001699782 -0.18010496 0.006000658 0
0.0049493206 -0.18149872 -0.0050106524 0
0.0057246308 -0.18150634 -0.0015886684 0
0.0057088467 -0.18152475 0.001641324 0
0.0049407077 -0.18139827 0.0051622121 0
0.0046421015 -0.18013492 0.0060006692 0
0.0060000168 -0.18007763 -0.0046566362 0
0.0059999959 -0.18008189 0.0013373897 0
0.0059999865 -0.18009612 0.0037455061 0
-0.0059999828 -0.1786456 -0.0048595308 0
-0.0060000075 -0.17709444 0.001985861 0
-0.0053779627 -0.17852382 -0.0051834844 0
-0.0059999968 -0.17837022 -0.001466787 0
-0.0060000066 -0.1784263 0.0014272985 0
-0.0060000136 -0.17868967 0.0043058535 0
-0.0044461605 -0.17850091 0.0060006324 0
-0.0014318494 -0.1786232 -0.0059993607 0
-0.00046721674 -0.1786478 0.006000645 0
-0.0012008827 -0.17857152 0.0060006403 0
0.0015084147 -0.17860216 -0.0059993505 0
0.0015920558 -0.17835486 0.0060006538 0
0.0045541115 -0.17774607 -0.0059993407 0
0.0045408802 -0.17846766 -0.0059688101 0
0.0059999963 -0.17772599 0.00086248713 0
0.0051924395 -0.17767917 0.0060006618 0
0.0044428348 -0.17845203 0.0060006646 0
0.0060000182 -0.17843683 -0.0043127942 0
0.0060000066 -0.17846543 -0.0014353007 0
0.0059999949 -0.17854109 0.0015760112 0
0.0059999852 -0.17839353 0.0045177471 0
-0.0059999852 -0.17593075 -0.0041873329 0
-0.0060000038 -0.17410909 0.00085832801 0
-0.0052240086 -0.17552724 -0.0052553001 0
-0.0059999973 -0.17554592 -0.0014480576 0
-0.0060000066 -0.17539613 0.0016877123 0
-0.0060000159 -0.17533499 0.0045357971 0
-0.0045025903 -0.17541216 0.0060006226 0
-0.0014059459 -0.1754586 -0.0059993705 0
-0.0018379334 -0.17699435 0.0060006338 0
-0.0013932893 -0.17541449 0.0060006296 0
0.0015247599 -0.17542398 -0.0059993607 0
0.0017330748 -0.17559242 0.0060006455 0
0.0050711646 -0.17532617 -0.0059993477 0
0.0046118679 -0.17579825 -0.0059363605 0
0.0059999968 -0.17595856 0.00071150757 0
0.0049582827 -0.17509378 0.0060006515 0
0.0043575037 -0.17562848 0.0060006534 0
0.0060000177 -0.17535752 -0.0044889254 0
0.006000007 -0.17552741 -0.0015890759 0
0.0059999968 -0.1756603 0.0014913077 0
0.0059999842 -0.17547351 0.0044537173 0
-0.0059999824 -0.1727013 -0.0050601298 0
-0.0060000066 -0.17327441 0.0017102287 0
-0.0050666877 -0.17247581 -0.0053994171 0
-0.0059999987 -0.17226073 -0.0014827707 0
-0.0060000066 -0.17242879 0.0014022912 0
-0.0060000177 -0.17261769 0.0045387638 0
-0.0044151032 -0.17264147 0.0060006091 0
-0.0016056027 -0.17244017 -0.0059993812 0
-0.00075563492 -0.1727813 0.0060006226 0
-0.0011912982 -0.1723275 0.0060006212 0
0.0013022188 -0.17245102 -0.0059993705 0
0.001615082 -0.17236227 0.0060006334 0
0.0048556472 -0.17248179 -0.0059993584 0
0.0043930667 -0.1724226 -0.0059800213 0
0.0044273296 -0.17253701 0.0060006399 0
0.0044529713 -0.17256153 0.0060006431 0
0.0060000164 -0.17257528 -0.0043841857 0
0.006000007 -0.17253371 -0.0016023322 0
0.0059999968 -0.17231417 0.0017253819 0
0.0059999861 -0.17251004 0.00446777 0
-0.0059999838 -0.16979492 -0.0046252441 0
-0.0052061705 -0.16948891 -0.0053459471 0
-0.0059999945 -0.16960602 -0.0016402486 0
-0.0060000075 -0.16936567 0.0014243888 0
-0.0060000173 -0.16948226 0.0046476973 0
-0.0045308294 -0.16921395 0.0060005975 0
-0.0017185014 -0.16937344 -0.0059993952 0
-0.0011220163 -0.16884401 0.0060006073 0
-0.0014145678 -0.16934967 0.0060006105 0
0.0022997509 -0.16999181 -0.005999377 0
0.0012571665 -0.16945201 -0.0059993803 0
0.0014928065 -0.16976315 0.0060006217 0
0.0045694578 -0.16995175 -0.0059993686 0
0.0046229437 -0.16948386 -0.0059661493 0
0.0059999959 -0.17012653 0.0010391601 0
0.0043210555 -0.1702292 0.0060006315 0
0.0041841492 -0.16969994 0.0060006296 0
0.0060000205 -0.16959785 -0.0046908022 0
0.0060000056 -0.16949078 -0.0013582961 0
0.0059999968 -0.16959776 0.0012916526 0
0.0059999838 -0.16940339 0.0045675635 0
-0.0059999814 -0.16520202 -0.0052706636 0
-0.0050738305 -0.16650873 -0.0054019131 0
-0.0059999963 -0.16631681 -0.0017134896 0
-0.006000007 -0.16649011 0.0016055298 0
-0.0060000196 -0.16659319 0.0046391245 0
-0.0044051497 -0.16656485 0.0060005868 0
-0.0010889937 -0.16655932 -0.0059993993 0
-0.001303202 -0.16613106 0.0060005961 0
-0.0015399602 -0.16656925 0.0060005989 0
0.0020454542 -0.16621946 -0.0059993914 0
0.0014867516 -0.16651446 -0.0059993905 0
0.0015527665 -0.1664169 0.0060006101 0
0.0032904192 -0.16516529 -0.0059993905 0
0.0045694313 -0.1666594 -0.0059382063 0
0.0059999945 -0.16631886 0.0014502567 0
0.0044254339 -0.16732486 0.0060006217 0
0.0044021816 -0.16652626 0.006000618 0
0.0060000164 -0.16660896 -0.0043554464 0
0.0060000089 -0.16653416 -0.0016542155 0
0.0059999931 -0.16650125 0.001491679 0
0.0059999856 -0.16629429 0.0044215703 0
-0.0059999819 -0.16360672 -0.0051508434 0
-0.0060000052 -0.16381983 0.0012629515 0
-0.0050384523 -0.16369118 -0.0053269812 0
-0.0059999968 -0.16357766 -0.0015417695 0
-0.006000007 -0.16362408 0.001582003 0
-0.0060000201 -0.16351672 0.004506974 0
-0.0044052699 -0.16367352 0.0060005779 0
-0.00148198 -0.16336212 -0.0059994143 0
-0.0015575385 -0.16338731 0.0060005859 0
-0.0014225767 -0.16335692 0.0060005868 0
0.0024851079 -0.16320322 -0.0059994007 0
0.0014265253 -0.16352916 -0.0059994049 0
0.0015687537 -0.16340119 0.0060006012 0
0.0047259284 -0.16339767 -0.0059993919 0
0.0047053359 -0.1634558 -0.0059057986 0
0.004824704 -0.1625763 0.0060006059 0
0.0046550338 -0.16366164 0.0060006096 0
0.0060000159 -0.16335317 -0.0043687294 0
0.0060000052 -0.16345115 -0.001346002 0
0.0059999968 -0.16352108 0.0015216027 0
0.0059999875 -0.16332847 0.0045288238 0
-0.0059999824 -0.15973426 -0.005045915 0
-0.0059999917 -0.16131771 -0.0023909674 0
-0.0054675601 -0.16042879 -0.0051860167 0
-0.0059999949 -0.16052596 -0.0015815747 0
-0.0060000066 -0.16055471 0.0018262282 0
-0.0060000187 -0.16073151 0.0045052273 0
-0.0044585778 -0.16061637 0.0060005668 0
-0.0014945319 -0.16037203 -0.0059994254 0
-0.0015789308 -0.16054012 0.0060005751 0
-0.0012678441 -0.16042539 0.0060005775 0
0.0013306314 -0.16042952 -0.0059994152 0
0.001435017 -0.16051941 -0.0059994124 0
0.0013990222 -0.16047485 0.0060005868 0
0.0052492484 -0.15996455 -0.0059994021 0
0.0047969702 -0.16035514 -0.0058427691 0
0.0059999921 -0.16010825 0.0020916504 0
0.0038725487 -0.16043217 0.0060005947 0
0.0046469625 -0.16037704 0.006000597 0
0.0060000168 -0.16047168 -0.0045524612 0
0.0060000075 -0.16032426 -0.0015888743 0
0.0059999963 -0.1606454 0.0016120413 0
0.0059999847 -0.16057126 0.0046018963 0
-0.0059999856 -0.15809743 -0.0041356971 0
-0.0059999912 -0.15839204 -0.0025291359 0
-0.0060000089 -0.15875462 0.0022890083 0
-0.005323403 -0.15749031 -0.0051969662 0
-0.0059999973 -0.15758079 -0.0014514851 0
-0.0060000066 -0.15732695 0.0015578972 0
-0.0060000187 -0.15758689 0.0043225097 0
-0.0041115736 -0.15753442 0.0060005561 0
-0.0016686195 -0.15755214 -0.0059994385 0
-0.0015733731 -0.15804642 0.0060005663 0
-0.0014266309 -0.15736812 0.0060005668 0
0.001208631 -0.15664645 -0.0059994292 0
0.0015687881 -0.15744993 -0.0059994236 0
0.0014875728 -0.157478 0.0060005775 0
0.005185937 -0.15703394 -0.0059994133 0
0.0046738507 -0.15739872 -0.0058859773 0
0.0060000098 -0.15876622 -0.002785845 0
0.0059999935 -0.15843055 0.0016513967 0
0.0045930939 -0.1583474 0.0060005896 0
0.0044386466 -0.15760736 0.0060005873 0
0.0060000177 -0.1574709 -0.0044480409 0
0.006000008 -0.15759127 -0.0014921455 0
0.005999994 -0.15764523 0.0014377477 0
0.0059999865 -0.15730971 0.0044965977 0
-0.0059999842 -0.15404223 -0.0045459107 0
-0.0060000098 -0.1545911 0.0026375744 0
-0.00529614 -0.15446819 -0.0052185934 0
-0.0059999977 -0.15420569 -0.0015051394 0
-0.006000008 -0.15454924 0.0014864476 0
-0.0060000177 -0.15459825 0.004460535 0
-0.0043109385 -0.15442409 0.0060005435 0
-0.0016294051 -0.15467151 -0.0059994492 0
-0.0016205679 -0.15453681 0.0060005556 0
0.00094651885 -0.15385337 -0.0059994403 0
0.0013805135 -0.15430515 -0.0059994347 0
0.0029674855 -0.15541518 0.0060005728 0
0.0015646674 -0.15454361 0.0060005682 0
0.0041690837 -0.15598588 -0.0059994208 0
0.004542171 -0.15437056 -0.0059253108 0
0.0060000103 -0.15330862 -0.002990369 0
0.0059999935 -0.15516739 0.0017205874 0
0.0043399786 -0.15475246 0.0060005756 0
0.0045862673 -0.15452017 0.0060005742 0
0.0060000145 -0.15451542 -0.0044265664 0
0.006000008 -0.15450041 -0.0015889846 0
0.0059999973 -0.15446126 0.0014424725 0
0.0059999838 -0.15441775 0.0046393755 0
-0.0059999861 -0.15091504 -0.0040373439 0
-0.0059999921 -0.15144385 -0.0023713785 0
-0.0060000061 -0.15281932 0.0016046758 0
-0.0052264347 -0.15152591 -0.0052904934 0
-0.0059999931 -0.15131065 -0.001490963 0
-0.0060000052 -0.15163758 0.0014229047 0
-0.0060000168 -0.15141603 0.0045803171 0
-0.0044575674 -0.15178435 0.0060005346 0
-0.0014992011 -0.15134829 -0.0059994599 0
-0.0014120431 -0.15139368 0.0060005435 0
0.0016524433 -0.15162593 -0.0059994454 0
0.0015613039 -0.15141912 -0.0059994464 0
0.0026535434 -0.15043747 0.0060005537 0
0.0014815425 -0.15170746 0.0060005551 0
0.0044420995 -0.15159546 -0.0059994357 0
0.0044024922 -0.15141839 -0.0059482022 0
0.0046410901 -0.15132511 0.006000564 0
0.0044626831 -0.15171541 0.0060005677 0
0.0060000196 -0.15146066 -0.004815341 0
0.0060000089 -0.1515265 -0.0014034807 0
0.0059999963 -0.15162134 0.0014505814 0
0.0059999842 -0.15140338 0.0044601932 0
-0.0059999824 -0.14747353 -0.0049699633 0
-0.0059999954 -0.14743064 -0.0014767612 0
-0.0054143942 -0.14842243 -0.0053067976 0
-0.0059999959 -0.14857136 -0.0015065544 0
-0.006000007 -0.14840698 0.0015466963 0
-0.0060000177 -0.14844061 0.0045403941 0
-0.0044756108 -0.14854021 0.006000523 0
-6.8303481e-05 -0.14717972 -0.0059994683 0
-0.0014782761 -0.14832537 -0.0059994701 0
-0.0016786027 -0.14852403 0.0060005323 0
0.0024811053 -0.14901726 -0.0059994524 0
0.0013751354 -0.14844039 -0.0059994557 0
0.0016270253 -0.14839843 0.0060005458 0
0.0034453254 -0.14891361 -0.0059994487 0
0.0045448742 -0.14868282 -0.0059272349 0
0.0060000089 -0.14769179 -0.0025850472 0
0.0046910932 -0.14849843 0.0060005537 0
0.0060000182 -0.14835764 -0.0045910366 0
0.006000008 -0.14840014 -0.0013787211 0
0.0059999977 -0.1486211 0.0015522259 0
0.0059999861 -0.1485097 0.0042416686 0
-0.0059999861 -0.14517309 -0.0039909873 0
-0.0059999935 -0.14579412 -0.0018954473 0
-0.0052444232 -0.14558055 -0.0053094383 0
-0.0059999954 -0.1454761 -0.0016670059 0
-0.0060000066 -0.14545858 0.0012053776 0
-0.0060000201 -0.14564064 0.004417731 0
-0.0044696238 -0.14563859 0.0060005146 0
-0.00030539761 -0.14424469 -0.0059994794 0
-0.0015523795 -0.14548481 -0.0059994776 0
-0.0015469352 -0.14553376 0.0060005211 0
0.0016291259 -0.14526133 -0.0059994687 0
0.0016146384 -0.14536978 -0.0059994683 0
0.0013556165 -0.14550363 0.0060005332 0
0.0046313065 -0.14513423 -0.0059994585 0
0.0045925686 -0.14567311 -0.0059254421 0
0.0060000066 -0.14449354 -0.0019598859 0
0.004922051 -0.14549276 0.0060005439 0
0.0045175129 -0.14547715 0.0060005453 0
0.0060000154 -0.1456095 -0.0044886936 0
0.0060000089 -0.14554839 -0.0015259646 0
0.0059999973 -0.14561099 0.0015510655 0
0.0059999847 -0.14545102 0.0046213176 0
-0.0059999828 -0.14227208 -0.0048365928 0
-0.0059999931 -0.1438994 -0.0020487814 0
-0.0051952549 -0.14236583 -0.0053156572 0
-0.0059999935 -0.14251462 -0.001557783 0
-0.0060000038 -0.14232616 0.0014414827 0
-0.0060000173 -0.14252914 0.0046556639 0
-0.0047182934 -0.14258566 0.0060005002 0
-0.0015562928 -0.14250691 -0.0059994902 0
-0.0014280021 -0.14223319 0.0060005123 0
0.0015990083 -0.1427861 -0.005999478 0
0.0013871439 -0.14249575 -0.005999479 0
0.0015101897 -0.14322679 0.0060005235 0
0.001558849 -0.14260972 0.0060005216 0
0.0038098011 -0.14229052 -0.0059994715 0
0.0043994645 -0.14241473 -0.0059555545 0
0.0040406152 -0.14286639 0.0060005314 0
0.0045519508 -0.1423741 0.0060005346 0
0.0060000191 -0.14252661 -0.0044298819 0
0.0060000075 -0.14233607 -0.0017196145 0
0.0059999954 -0.14242692 0.0014066552 0
0.0059999828 -0.14272185 0.0045213993 0
-0.0053509772 -0.13940658 -0.0052367095 0
-0.0059999949 -0.13965684 -0.0014429038 0
-0.0060000108 -0.13950056 0.0016154557 0
-0.0060000177 -0.13952133 0.0044885837 0
-0.0045480328 -0.13946469 0.0060004913 0
-0.0015462951 -0.13962708 -0.0059995009 0
-0.0014712269 -0.13959564 0.006000503 0
0.0015180521 -0.1393712 -0.0059994939 0
0.0016725607 -0.13930869 0.0060005118 0
0.0044602244 -0.1395994 -0.005999479 0
0.0044976743 -0.13901852 0.0060005193 0
0.0045532919 -0.13971649 0.0060005239 0
0.0060000182 -0.13933831 -0.004603717 0
0.0060000038 -0.13941869 -0.0014716729 0
0.005999994 -0.13934173 0.0016635255 0
0.0059999838 -0.13920856 0.0043602805 0
-0.0050679366 -0.13663484 -0.0052733426 0
-0.0059999963 -0.13674995 -0.0015400928 0
-0.0060000094 -0.13667594 0.0014302561 0
-0.0060000164 -0.13645355 0.0045173876 0
-0.0045745182 -0.13641 0.0060004774 0
-0.00146094 -0.1365186 -0.0059995116 0
-0.0016191471 -0.13675547 0.0060004871 0
0.00035310752 -0.13747209 -0.0059995013 0
0.0016174255 -0.13632798 -0.0059995027 0
0.0013048251 -0.13638972 0.0060004997 0
0.0045645293 -0.13653636 -0.0059994902 0
0.0060000047 -0.13711993 -0.0014150632 0
0.0049041249 -0.13672255 0.0060005123 0
0.0045865774 -0.1363783 0.0060005109 0
0.0060000191 -0.13638321 -0.0045696269 0
0.0060000047 -0.1366062 -0.0014665618 0
0.0059999963 -0.13655642 0.0013594908 0
0.0059999842 -0.13662647 0.0044638221 0
-0.005139627 -0.13356912 -0.0051977793 0
-0.0059999968 -0.1333493 -0.0014471104 0
-0.0060000094 -0.13364303 0.0013992949 0
-0.0060000196 -0.13350421 0.0044358927 0
-0.0044620307 -0.13353159 0.0060004694 0
-0.0012442833 -0.13457999 -0.0059995181 0
-0.0014872192 -0.13353626 -0.0059995246 0
-0.001523645 -0.13348787 0.0060004792 0
0.0015110573 -0.13346726 -0.005999513 0
0.0016297461 -0.13323498 0.006000489 0
0.0049582836 -0.1337032 -0.0059994999 0
0.0060000103 -0.13204901 -0.0029697847 0
0.0046600234 -0.13372211 0.0051068175 0
0.0046391687 -0.13355866 0.0060005025 0
0.0060000168 -0.13353094 -0.0042215898 0
0.0060000056 -0.13337192 -0.0013703676 0
0.0059999968 -0.13343097 0.0014176419 0
0.0059999847 -0.13348809 0.0046568513 0
-0.0051730406 -0.13030329 -0.0053530843 0
-0.0059999977 -0.13067214 -0.0014180237 0
-0.0060000094 -0.1305635 0.0016484851 0
-0.0059621851 -0.13057952 0.0045553986 0
-0.0045107547 -0.13035057 0.0060004583 0
-0.0014429584 -0.13037196 -0.0059995353 0
-0.0015657255 -0.13052236 0.0060004671 0
0.0014177802 -0.13094024 -0.0059995214 0
0.0016334702 -0.1304374 -0.0059995241 0
0.0015728362 -0.13055064 0.0060004788 0
0.0046763467 -0.13045374 -0.0058394619 0
0.006000007 -0.13173531 -0.0020814261 0
0.0059999968 -0.1294699 0.00073588459 0
0.0045784465 -0.13052736 0.0060004918 0
0.0060000201 -0.13028871 -0.004479317 0
0.0060000066 -0.13030514 -0.0014268819 0
0.0059999982 -0.13043731 0.0016960651 0
0.0059999861 -0.13050953 0.0044625495 0
-0.0054391366 -0.12760654 -0.0050735124 0
-0.0059999991 -0.12767845 -0.0014611302 0
-0.0060000052 -0.1277802 0.0015036772 0
-0.0060000187 -0.1275396 0.0044868686 0
-0.0046175062 -0.12733145 0.0060004448 0
-0.0015991174 -0.12746565 -0.0059995465 0
-0.0017734925 -0.12742183 0.0060004536 0
0.0015818075 -0.12756382 -0.0059995344 0
0.0019648068 -0.12638737 0.0060004643 0
0.0013966842 -0.12752256 0.006000469 0
0.0046621347 -0.12754723 -0.0059995204 0
0.006000001 -0.12753306 -0.00025286168 0
0.0059999959 -0.12836781 0.0010183147 0
0.0044514942 -0.12742011 0.0060004764 0
0.0060000182 -0.12755562 -0.0046703327 0
0.0060000066 -0.12737884 -0.0014434642 0
0.0059999945 -0.12753333 0.0015085116 0
0.0059999856 -0.12728098 0.0043324018 0
-0.0052416562 -0.1244665 -0.0050997939 0
-0.0059999963 -0.12453689 -0.0016661726 0
-0.0060000075 -0.12445521 0.0014188847 0
-0.005953351 -0.12429707 0.0045295376 0
-0.0047340686 -0.1246031 0.0060004378 0
-0.0015444583 -0.12460325 -0.0059995567 0
-0.001706499 -0.12455024 0.0060004485 0
0.0012953531 -0.12437697 -0.0059995465 0
0.0022596882 -0.12339213 0.0060004545 0
0.001429274 -0.12461261 0.0060004583 0
0.0046313372 -0.12469183 -0.0059995335 0
0.0060000066 -0.12580152 -0.0019469169 0
0.0044407574 -0.12452605 0.0060004685 0
0.0060000168 -0.12449607 -0.0044592395 0
0.0060000056 -0.12442037 -0.0014818991 0
0.0059999977 -0.12451787 0.0015038836 0
0.0059999833 -0.12460966 0.0045020431 0
-0.0052517462 -0.1213996 -0.0050940844 0
-0.005999994 -0.12145754 -0.0014478802 0
-0.006000007 -0.12145796 0.0015901857 0
-0.0060000187 -0.12178277 0.0044535641 0
-0.0047062607 -0.12157208 0.0060004229 0
-0.0015930254 -0.12165878 -0.0059995656 0
-0.001547031 -0.12137722 -0.0059995675 0
-0.00079676771 -0.12188347 0.0060004382 0
-0.0014573877 -0.12140609 0.0060004359 0
0.0016241121 -0.12177231 -0.0059995553 0
0.0008713791 -0.12264935 0.0060004466 0
0.0014626686 -0.1214043 0.0060004443 0
0.004611454 -0.12160193 -0.0059995446 0
0.0059999987 -0.12085266 0.00029266445 0
0.0045580026 -0.12143685 0.0060004587 0
0.0060000187 -0.12151214 -0.0045056129 0
0.0060000098 -0.12140344 -0.001518167 0
0.0059999968 -0.1215559 0.0015577979 0
0.0059999847 -0.12160309 0.0043943329 0
-0.0060000001 -0.11753482 -0.00015005212 0
-0.0051660566 -0.11846846 -0.0053012455 0
-0.0059999954 -0.11847588 -0.0014197364 0
-0.0060000056 -0.11830578 0.0015682314 0
-0.0059802132 -0.11834887 0.0045361472 0
-0.0046035498 -0.11861175 0.006000415 0
-0.00019473179 -0.11825718 -0.0059995735 0
-0.0015349046 -0.11865637 -0.0059995786 0
-0.0014781152 -0.11889715 0.0060004257 0
0.0014812032 -0.11832164 -0.0059995693 0
0.0015396854 -0.11939868 0.0060004373 0
0.001486397 -0.11868716 0.0060004368 0
0.0045007602 -0.11846507 -0.0059995581 0
0.0060000052 -0.11837839 -0.0015478334 0
0.005999994 -0.11915679 0.0014798983 0
0.0059999865 -0.11840425 0.0036202939 0
0.0045660213 -0.11868772 0.0060004466 0
0.0060000159 -0.11862767 -0.0042773173 0
0.006000007 -0.11861315 -0.0014969768 0
0.0059999963 -0.11836407 0.0016466996 0
0.0059999879 -0.11862609 0.004431427 0
-0.0059999991 -0.1169953 -0.00034147926 0
-0.0051839035 -0.11547171 -0.0052011027 0
-0.0059999968 -0.11541995 -0.0015021861 0
-0.006000007 -0.11556173 0.0012898396 0
-0.0059702424 -0.11526501 0.0045099575 0
-0.0044041527 -0.11530623 0.0060004019 0
-0.0016616989 -0.11547718 -0.005999587 0
-0.0020739161 -0.11510795 0.0060004089 0
-0.0014637045 -0.11533248 0.006000414 0
0.0015689937 -0.11535137 -0.0059995768 0
0.0016076139 -0.11553507 0.0060004252 0
0.0043464517 -0.11541075 -0.0059995698 0
0.0059999828 -0.11544342 0.0045852414 0
0.0045109312 -0.11561684 0.0060004368 0
0.0060000182 -0.11551292 -0.0046624234 0
0.0060000098 -0.11564292 -0.0016032391 0
0.0059999954 -0.1155038 0.0013711888 0
0.0059999828 -0.11550123 0.0046098675 0
-0.0060000052 -0.11208823 0.0012951166 0
-0.0052294866 -0.11253197 -0.005345474 0
-0.0059999963 -0.11230521 -0.0014307072 0
-0.0060000047 -0.11256171 0.0013711292 0
-0.0059576565 -0.112441 0.0044674906 0
-0.0044988827 -0.11250862 0.0060003926 0
-0.001612771 -0.11278135 -0.0059995982 0
-0.0015696934 -0.11257428 -0.0059996024 0
-0.0018235543 -0.11339134 0.0060004033 0
-0.0012830652 -0.11248057 0.0060004042 0
0.0013983607 -0.11246837 -0.0059995884 0
0.0014014096 -0.11219846 0.0060004108 0
0.0045579537 -0.11238533 -0.0059995791 0
0.0059999917 -0.11215622 0.0022401744 0
0.0059999819 -0.1137844 0.004949763 0
0.0046584886 -0.11279549 0.0060004238 0
0.0060000182 -0.11253031 -0.0045919032 0
0.0060000075 -0.11222254 -0.0014573671 0
0.0059999959 -0.11234038 0.0015660136 0
0.0059999865 -0.11254527 0.0043848469 0
-0.0060000168 -0.11063398 0.0044554793 0
-0.0052724932 -0.10935252 -0.0053062723 0
-0.005999994 -0.10977326 -0.0014369135 0
-0.006000007 -0.10955057 0.0013671214 0
-0.0060000164 -0.10957163 0.004400284 0
-0.0042425892 -0.1094955 0.00600038 0
-0.0016196342 -0.10949251 -0.0059996098 0
-0.0014993645 -0.10931538 0.0060003903 0
-0.0014266525 -0.10970975 0.0060003907 0
0.0015400598 -0.10948937 -0.0059995996 0
0.0014429784 -0.10966434 0.0060004024 0
0.0043160119 -0.10945296 -0.0059995884 0
0.0044428678 -0.10939779 0.0060004145 0
0.0060000201 -0.10963067 -0.0044349171 0
0.0060000056 -0.10948342 -0.0014763824 0
0.0059999959 -0.10949451 0.0014984221 0
0.0059999861 -0.10957853 0.0044963346 0
-0.0059999991 -0.10705364 -0.00032893306 0
-0.0060000103 -0.10570122 0.0027621021 0
-0.0060000159 -0.10588674 0.0042637521 0
-0.0042317691 -0.10685351 -0.0059996289 0
-0.0052216342 -0.10640875 -0.0052218065 0
-0.0059999945 -0.1064749 -0.0014856152 0
-0.0060000066 -0.10657203 0.0012093692 0
-0.0059399791 -0.10639855 0.0045901951 0
-0.00444111 -0.10658789 0.0060003721 0
-0.0024473285 -0.1059098 -0.0059996261 0
-0.0014987313 -0.10663937 -0.0059996191 0
-0.0012785633 -0.10624368 0.0060003805 0
0.0013091008 -0.10640516 -0.0059996126 0
0.0015786366 -0.10640094 0.0060003931 0
0.0044363765 -0.10642988 -0.0059996005 0
0.0059999907 -0.10577712 0.0023966213 0
0.0059999814 -0.10618299 0.0049879178 0
0.0044335811 -0.10650513 0.0060004015 0
0.0060000182 -0.10632288 -0.004633151 0
0.0060000094 -0.10647899 -0.0014904843 0
0.0059999963 -0.10650251 0.0014084629 0
0.0059999828 -0.1063694 0.0046979063 0
-0.0060000052 -0.10294275 0.0012831854 0
-0.0060000173 -0.10321659 0.0046572685 0
-0.0050891084 -0.10309741 -0.0059996461 0
-0.0052772718 -0.10347392 -0.0050836247 0
-0.0059999921 -0.10367779 -0.0017402797 0
-0.006000007 -0.10349523 0.0015370434 0
-0.0059772157 -0.10361802 0.0045075752 0
-0.0044487696 -0.1034776 0.0060003572 0
-0.0010146088 -0.10414419 -0.0059996271 0
-0.0013351605 -0.10350819 -0.0059996303 0
-0.00088715955 -0.10395407 0.0060003726 0
-0.0014685073 -0.10346529 0.0060003698 0
0.0015792858 -0.10333713 -0.0059996238 0
0.0016615127 -0.10354622 0.0060003791 0
0.0043051005 -0.10364656 -0.0059996122 0
0.0059999828 -0.10356248 0.0046992893 0
0.0044304775 -0.10364176 0.0060003935 0
0.0060000187 -0.10337251 -0.0045352438 0
0.0060000089 -0.10338206 -0.0014577959 0
0.0059999968 -0.10365424 0.0016305115 0
0.0059999852 -0.10355078 0.0045141359 0
-0.006000001 -0.099071234 0.00017445209 0
-0.0060000173 -0.10040651 0.0046682134 0
-0.0053334883 -0.10048349 -0.0051952461 0
-0.0059999959 -0.10042325 -0.0015621978 0
-0.0060000047 -0.10033774 0.0015988853 0
-0.0059037898 -0.10039143 0.0046666348 0
-0.0044347933 -0.10074694 0.0060003502 0
-0.0020052725 -0.099933378 -0.0059996461 0
-0.0015572966 -0.10046205 -0.0059996461 0
-0.0025524518 -0.10083923 0.0060003554 0
-0.0014301726 -0.10052691 0.0060003619 0
0.00011500606 -0.10015376 -0.0059996373 0
0.0015550967 -0.10040344 -0.0059996322 0
0.0014434718 -0.10048465 0.0060003675 0
0.0044425405 -0.10052368 -0.0059996224 0
0.0059999828 -0.10020973 0.0046628863 0
0.0044624284 -0.10064417 0.0060003819 0
0.0060000154 -0.10062198 -0.0042426949 0
0.006000008 -0.10047765 -0.0015430157 0
0.0059999977 -0.1003756 0.0013985821 0
0.0059999856 -0.10055801 0.0045922529 0
-0.0060000084 -0.096760683 0.0022258582 0
-0.0060000182 -0.097707078 0.0048589678 0
-0.0046524419 -0.097714193 -0.0059996634 0
-0.0052590785 -0.097303152 -0.0051994734 0
-0.0059999959 -0.097360082 -0.0015351239 0
-0.0060000084 -0.09761522 0.0014502086 0
-0.005804643 -0.097440645 0.0047199605 0
-0.0044475012 -0.097526789 0.0060003353 0
-0.00065506558 -0.097630031 -0.0059996494 0
-0.0015447799 -0.097503714 -0.0059996527 0
-0.0022044971 -0.097296588 0.0060003437 0
-0.0014510414 -0.097766086 0.0060003493 0
0.0016349731 -0.097401075 -0.0059996429 0
0.0014212986 -0.097477674 0.0060003581 0
0.004497041 -0.097759329 -0.0059996326 0
0.0059999907 -0.097214662 0.0024926886 0
0.0059999856 -0.09621574 0.0038960373 0
0.0043836301 -0.097423196 0.0060003703 0
0.0060000177 -0.097437873 -0.004519158 0
0.0060000052 -0.097500518 -0.0015839789 0
0.0059999963 -0.097451381 0.0014660665 0
0.0059999856 -0.097535878 0.0045919307 0
-0.0060000047 -0.0931172 0.0011784384 0
-0.0060000126 -0.09397532 0.0034064888 0
-0.0052763233 -0.09487354 -0.005999676 0
-0.0050788708 -0.094668575 -0.0052875308 0
-0.0059999959 -0.094490223 -0.0015290988 0
-0.0060000066 -0.094538055 0.0014106443 0
-0.0059642661 -0.094600573 0.0045113536 0
-0.004593824 -0.09447182 0.0060003265 0
-0.0024804506 -0.093832768 -0.0059996699 0
-0.0016421267 -0.094632216 -0.0059996666 0
-0.0014763597 -0.094410151 0.0060003395 0
0.0014903294 -0.094424233 -0.0059996555 0
0.0016960182 -0.094287127 0.0060003498 0
0.0045624254 -0.09460099 -0.005999642 0
0.0059999889 -0.094973169 0.0029437346 0
0.0059999824 -0.094695099 0.0047605066 0
0.0044898107 -0.094371729 0.0060003595 0
0.0060000182 -0.094502077 -0.0043867449 0
0.0060000075 -0.094404005 -0.0014208067 0
0.0059999954 -0.094621547 0.0016765977 0
0.0059999856 -0.094423674 0.0044874162 0
-0.0060000052 -0.090757765 0.0012275802 0
-0.0060000154 -0.091247499 0.0041375803 0
-0.0052342368 -0.091603056 -0.0052563916 0
-0.0059999959 -0.091472015 -0.0016186645 0
-0.0060000066 -0.091509536 0.0017124139 0
-0.0059042061 -0.091330953 0.0048235352 0
-0.0045724246 -0.091583036 0.0060003153 0
-0.0014395666 -0.091600716 -0.0059996741 0
-0.0014865047 -0.091621719 -0.0059996773 0
-0.0023121748 -0.092891209 0.0060003274 0
-0.0013875689 -0.091557287 0.0060003307 0
0.0014272458 -0.091465779 -0.0059996643 0
0.0015886046 -0.091611043 0.0060003409 0
0.0043490413 -0.091643609 -0.0059996527 0
0.0059999889 -0.091682792 0.0029338566 0
0.0059999842 -0.090956748 0.0043075602 0
0.0046071033 -0.0915263 0.0060003507 0
0.0060000182 -0.091565385 -0.0044330978 0
0.0060000056 -0.091364436 -0.0013868884 0
0.0059999963 -0.091477253 0.0014301005 0
0.0059999852 -0.09154819 0.004596048 0
-0.006000007 -0.088205568 0.0017631407 0
-0.0037160155 -0.088374458 -0.0059996941 0
-0.0051381602 -0.088548467 -0.0052836998 0
-0.0059999954 -0.088264458 -0.0013317718 0
-0.0060000047 -0.088340767 0.0012221517 0
-0.0058444948 -0.088381387 0.004522827 0
-0.0046942919 -0.088438109 0.0060003023 0
-0.0013689606 -0.088803835 -0.0059996843 0
-0.0026823224 -0.088237397 0.0060003093 0
-0.0015020077 -0.088371374 0.0060003144 0
0.0014555284 -0.088375501 -0.0059996741 0
0.0016550669 -0.088508472 0.0060003307 0
0.0043988489 -0.088523939 -0.0059996624 0
0.0059999921 -0.087745063 0.0020694498 0
0.0059999852 -0.087491587 0.0041188146 0
0.0044858167 -0.088364527 0.0060003377 0
0.0060000177 -0.088579632 -0.0044913255 0
0.006000008 -0.088432521 -0.0015376988 0
0.0059999982 -0.088496514 0.0013408657 0
0.0059999852 -0.088510834 0.0045774113 0
-0.0060000173 -0.085931219 0.0046127327 0
-0.0038104239 -0.085491702 -0.0059997048 0
-0.0051776529 -0.085615195 -0.0053047505 0
-0.0059999968 -0.085410014 -0.0013228344 0
-0.006000008 -0.085482307 0.0015385546 0
-0.0058436892 -0.085349083 0.0047163889 0
-0.0045033181 -0.085450225 0.006000292 0
-0.0014803096 -0.084618278 -0.0059996997 0
-0.0014933017 -0.085585356 -0.0059996955 0
-0.00286045 -0.085415773 0.006000299 0
-0.0016014167 -0.085515328 0.006000306 0
0.0013576549 -0.085535645 -0.0059996853 0
0.0015324509 -0.085486978 0.0060003172 0
0.0045753303 -0.085453674 -0.0059996773 0
0.0059999805 -0.084459424 0.0053824065 0
0.0044521466 -0.085381977 0.006000326 0
0.0060000145 -0.085472882 -0.0044839582 0
0.0060000061 -0.085451499 -0.0016066926 0
0.0059999959 -0.085533246 0.00126322 0
0.0059999861 -0.085644647 0.0046341009 0
-0.0060000052 -0.082292788 0.0013452068 0
-0.0060000131 -0.082158513 0.0034748986 0
-0.0046102991 -0.082021117 -0.0059997202 0
-0.0051852972 -0.082556799 -0.0051735272 0
-0.0059999968 -0.082559146 -0.001624627 0
-0.0060000038 -0.082531795 0.0014930314 0
-0.0059432234 -0.082570344 0.0044963532 0
-0.0044281324 -0.082288906 0.0060002804 0
-0.0017264577 -0.081930898 -0.0059997099 0
-0.0014947527 -0.082191102 -0.0059997104 0
-0.0017356264 -0.082489252 0.0060002948 0
0.0015665548 -0.082476474 -0.0059996978 0
0.0015386508 -0.082473941 0.0060003069 0
0.0042930185 -0.082647324 -0.0059996857 0
0.0059999847 -0.082630225 0.0042392532 0
0.0046210741 -0.082317829 0.0060003148 0
0.0060000145 -0.082446001 -0.0044321399 0
0.0060000089 -0.082513861 -0.0015679229 0
0.0059999945 -0.082531169 0.0014751223 0
0.0059999852 -0.082386568 0.0045032813 0
-0.006000007 -0.079895787 0.0018359992 0
-0.0060000182 -0.079237998 0.0048556575 0
-0.0046140831 -0.079172239 -0.0059997309 0
-0.0051808641 -0.079428263 -0.0053887926 0
-0.0059999963 -0.079326503 -0.0014884104 0
-0.006000007 -0.079349406 0.0015161056 0
-0.005936923 -0.079524115 0.0046397862 0
-0.0045258473 -0.079291843 0.0060002706 0
-0.0018964579 -0.078444339 -0.0059997234 0
-0.0014671808 -0.07942041 -0.0059997183 0
-0.0023541057 -0.080097921 0.0060002813 0
-0.0015149338 -0.079468742 0.0060002846 0
0.0015081193 -0.079275668 -0.0059997058 0
0.0011466924 -0.07963302 0.0060002925 0
0.004593452 -0.079460576 -0.0059996978 0
0.0045828526 -0.079404391 0.0060003055 0
0.0060000187 -0.079498991 -0.0045067952 0
0.0060000066 -0.079401881 -0.0013782553 0
0.0059999954 -0.079442188 0.0017005431 0
0.0059999861 -0.079507038 0.0044668871 0
-0.0060000098 -0.077765688 0.0025578216 0
-0.0060000196 -0.076646186 0.0052650245 0
-0.0030997468 -0.077884659 -0.00599973 0
-0.0052646426 -0.076542661 -0.0051504201 0
-0.0059999973 -0.076493397 -0.0015710529 0
-0.0060000084 -0.076429337 0.0016199009 0
-0.0059466744 -0.076677717 0.0045558084 0
-0.0044724485 -0.076567456 0.0060002608 0
-0.0013956793 -0.076576225 -0.0059997304 0
-0.0023623684 -0.075347766 0.0060002641 0
-0.001395724 -0.076471329 0.0060002739 0
0.001404449 -0.076387942 -0.0059997207 0
0.0014177712 -0.076502152 0.006000285 0
0.0044660522 -0.076634698 -0.0059997062 0
0.00599998 -0.077078313 0.0053664623 0
0.0045148176 -0.076498106 0.0060002948 0
0.0060000168 -0.076547898 -0.0042928876 0
0.0060000066 -0.076622367 -0.0013843096 0
0.0059999968 -0.076679915 0.001329062 0
0.0059999814 -0.076684497 0.0048198588 0
-0.0060000094 -0.072970174 0.00248096 0
-0.0060000154 -0.073878922 0.0040975339 0
-0.0054195998 -0.073454887 -0.0050112996 0
-0.005999994 -0.073664315 -0.001599898 0
-0.0060000075 -0.07333941 0.0014885741 0
-0.0059240027 -0.073429026 0.0044444446 0
-0.0044705686 -0.073644869 0.0060002506 0
-0.0024210622 -0.072407439 -0.0059997472 0
-0.0013279853 -0.073528022 -0.0059997416 0
-0.0022558754 -0.072879635 0.0060002552 0
-0.0014998742 -0.073461555 0.0060002627 0
0.0015169018 -0.073339961 -0.0059997286 0
0.0012455431 -0.073376387 0.0060002725 0
0.0046092602 -0.073474087 -0.0059997197 0
0.0059999931 -0.072063886 0.0018365802 0
0.0059999828 -0.073698536 0.0047776154 0
0.0044386317 -0.073555067 0.0060002827 0
0.0060000201 -0.073528498 -0.0046102479 0
0.006000008 -0.073636033 -0.0014788108 0
0.0059999935 -0.073683195 0.0014500325 0
0.0059999856 -0.073724829 0.0043676319 0
-0.0073212744 -0.069856934 -0.0074523143 0
-0.0072640171 -0.069926992 -0.0044382676 0
-0.007432723 -0.069941841 -0.0014951177 0
-0.007479229 -0.069878615 0.0015598667 0
-0.0074811243 -0.069932468 0.004484205 0
-0.00744892 -0.069858775 0.0073632477 0
-0.004610613 -0.069938608 -0.0073765204 0
-0.0048502027 -0.070383094 -0.0047841454 0
-0.0046754703 -0.070237458 -0.0013299043 0
-0.0048926449 -0.070239373 0.0014048107 0
-0.0047926973 -0.070244506 0.0045200814 0
-0.0046113301 -0.070129998 0.0071201953 0
-0.001422622 -0.069944091 -0.0073925224 0
-0.0014598573 -0.070251875 -0.0049515143 0
-0.0015673158 -0.070000082 -0.0015829731 0
-0.0016085909 -0.070000045 0.0015040039 0
-0.0015369097 -0.070029594 0.0045126257 0
-0.0015514115 -0.070109837 0.0072290045 0
0.0013954372 -0.069916777 -0.0074054026 0
0.0015910574 -0.070204973 -0.0048248922 0
0.0015280177 -0.070000067 -0.0014380929 0
0.0014588969 -0.070000045 0.0014567946 0
0.0014821652 -0.070000038 0.0044294614 0
0.0015376278 -0.070196219 0.0070213396 0
0.0044433824 -0.069898836 -0.0074663963 0
0.0044853981 -0.070234857 -0.0048446264 0
0.0045908499 -0.070000052 -0.0015856742 0
0.0043930006 -0.070007719 0.0014095147 0
0.0045273886 -0.070027888 0.0046067745 0
0.004497054 -0.070291452 0.006930864 0
0.0074418681 -0.069865607 -0.0074245711 0
0.0070464737 -0.07018508 -0.0044019935 0
0.0072315363 -0.070108801 -0.0015490124 0
0.007023022 -0.070212111 0.0014711135 0
0.0070577567 -0.070239231 0.0046315491 0
0.0073437588 -0.069816187 0.0075580841 0
-0.0079114465 -0.067581348 -0.0078637851 0
-0.0084999856 -0.067616105 -0.0046134912 0
-0.0084999967 -0.067368686 -0.0016871332 0
-0.0085000098 -0.067411952 0.0017365136 0
-0.0085000191 -0.067562811 0.0043669883 0
-0.0079005333 -0.067552313 0.0078504942 0
-0.0045032171 -0.067500122 -0.008499776 0
-0.0044303103 -0.067411877 0.0085002305 0
-0.0016654587 -0.067501158 -0.0084997658 0
-0.0012830633 -0.067461111 0.0085002426 0
0.0014959788 -0.067565694 -0.0084997537 0
0.0013566143 -0.067609444 0.0085002538 0
0.0046198023 -0.067626029 -0.0084997406 0
0.0045781601 -0.067288719 0.008500264 0
0.0078969523 -0.067509413 -0.0078865364 0
0.00850002 -0.06760563 -0.0046084402 0
0.0085000079 -0.067466833 -0.0014479081 0
0.0084999967 -0.067589648 0.0015784096 0
0.0084999865 -0.067510322 0.0046069562 0
0.0077948575 -0.067387566 0.0079531902 0
-0.0079539875 -0.064404257 -0.0077644489 0
-0.0084999874 -0.064391591 -0.0046488801 0
-0.0084999986 -0.064583041 -0.0014564608 0
-0.0085000079 -0.064559415 0.0014070881 0
-0.00850002 -0.064378448 0.0045900671 0
-0.0078459196 -0.064728573 0.0080187144 0
-0.0046132617 -0.06436272 -0.0084997872 0
-0.0045245909 -0.064337932 0.0085002203 0
-0.0016066094 -0.064693004 -0.0084997723 0
-0.0014058843 -0.064513832 0.0085002314 0
0.001543942 -0.064489581 -0.008499763 0
0.0012793989 -0.064552307 0.0085002417 0
0.0045266608 -0.064921685 -0.0084997499 0
0.0044214437 -0.064370446 0.008500251 0
0.0080594951 -0.064486556 -0.0077687381 0
0.0085000191 -0.064490378 -0.0043988358 0
0.0085000079 -0.064598873 -0.0014775788 0
0.0084999986 -0.064476311 0.0015211392 0
0.0084999884 -0.064388841 0.0043397178 0
0.0079109725 -0.064511999 0.0077932528 0
-0.0077948067 -0.061491892 -0.0079045305 0
-0.0084999856 -0.061419562 -0.0046793218 0
-0.0084999986 -0.061510865 -0.0014650899 0
-0.0085000079 -0.061452083 0.0013019952 0
-0.00850002 -0.061329525 0.0046200929 0
-0.0078638885 -0.061457746 0.0078936499 0
-0.0044624386 -0.061512504 -0.0084997974 0
-0.0044737351 -0.061496105 0.0085002091 0
-0.0014080047 -0.061480951 -0.0084997863 0
-0.0016465371 -0.061545804 0.0085002203 0
0.0016083672 -0.061369598 -0.0084997751 0
0.0011940167 -0.061333727 0.0085002296 0
0.0044832393 -0.061343841 -0.0084997658 0
0.004644094 -0.061602585 0.0085002426 0
0.0078653162 -0.06142715 -0.0078465082 0
0.0085000191 -0.061455525 -0.0044829301 0
0.0085000088 -0.061438799 -0.0015638436 0
0.0084999986 -0.061554983 0.0015366375 0
0.0084999874 -0.06147946 0.0043630875 0
0.0078602917 -0.061584841 0.0078827888 0
-0.007837777 -0.058658358 -0.0078539345 0
-0.0084999884 -0.058670174 -0.0044394587 0
-0.0084999977 -0.058462281 -0.001533046 0
-0.0085000088 -0.058270112 0.0015684161 0
-0.0085000172 -0.058350388 0.0044744755 0
-0.0078278501 -0.05843994 0.0080537889 0
-0.0043529086 -0.058374539 -0.0084998077 0
-0.0045461706 -0.058381733 0.0085001979 0
-0.0013527949 -0.058659032 -0.0084997946 0
-0.0014762634 -0.058568172 0.0085002035 0
0.0014811471 -0.058472704 -0.0084997853 0
0.0015964502 -0.058504783 0.0085002203 0
0.0045647244 -0.058529422 -0.0084997751 0
0.004430579 -0.058453593 0.0085002305 0
0.0080893114 -0.058644202 -0.0076270127 0
0.0085000182 -0.058335349 -0.0044046873 0
0.0085000088 -0.058444444 -0.0014909123 0
0.0084999939 -0.058282703 0.001507937 0
0.0084999865 -0.058427047 0.0046020821 0
0.0079628741 -0.058524288 0.0077930018 0
-0.007857251 -0.055483792 -0.0077525517 0
-0.0084999874 -0.05545846 -0.0045692422 0
-0.0084999977 -0.055570379 -0.0013881578 0
-0.0085000088 -0.055412918 0.0014052957 0
-0.00850002 -0.055637065 0.0043002539 0
-0.0077990945 -0.055514302 0.0079407841 0
-0.0046047997 -0.055518791 -0.0084998179 0
-0.0043661282 -0.055445243 0.0085001877 0
-0.0017584505 -0.05550402 -0.0084998067 0
-0.0015250292 -0.055419751 0.0085001979 0
0.0013890377 -0.055492852 -0.0084997965 0
0.0013999654 -0.055655211 0.0085002091 0
0.0045385854 -0.055430267 -0.0084997863 0
0.004659744 -0.055509087 0.0085002193 0
0.0078104143 -0.055725422 -0.0079054842 0
0.008500021 -0.05538236 -0.0046731657 0
0.0085000098 -0.055538151 -0.0016315572 0
0.0084999986 -0.055747878 0.0016622625 0
0.0084999874 -0.055327069 0.0046235858 0
0.0081298463 -0.0554308 0.0077429861 0
-0.0078763785 -0.052571099 -0.0079767453 0
-0.0084999874 -0.05247882 -0.004623218 0
-0.0084999986 -0.052577581 -0.001413719 0
-0.0085000098 -0.052452985 0.0015009105 0
-0.008500021 -0.052660923 0.004514039 0
-0.0080714924 -0.052463807 0.0077178269 0
-0.0045267581 -0.052563533 -0.00849983 0
-0.0045337868 -0.052737646 0.0085001765 0
-0.0014697325 -0.052545503 -0.0084998189 0
-0.0018059975 -0.052417435 0.0085001867 0
0.0016154158 -0.052659702 -0.0084998077 0
0.0015805763 -0.052563842 0.0085001988 0
0.0043942044 -0.052475818 -0.0084997965 0
0.0043350109 -0.052485645 0.0085002091 0
0.007910151 -0.052566405 -0.0078319414 0
0.0085000191 -0.05238742 -0.0044222604 0
0.008500007 -0.052580703 -0.0013384121 0
0.0084999977 -0.052319907 0.001587515 0
0.0084999874 -0.052482333 0.0044037891 0
0.0076022036 -0.052400902 0.0080841752 0
-0.0078515327 -0.049547505 -0.0078804716 0
-0.0084999884 -0.049362406 -0.0044322498 0
-0.0084999977 -0.049456347 -0.0014738487 0
-0.0085000098 -0.049601831 0.0016218101 0
-0.008500021 -0.049394626 0.0046437252 0
-0.0078619141 -0.049558189 0.0078576412 0
-0.004627693 -0.049410407 -0.0084998403 0
-0.0045643202 -0.049630683 0.0085001653 0
-0.001523953 -0.049437422 -0.00849983 0
-0.0015839755 -0.049332339 0.0085001765 0
0.0016658925 -0.049460564 -0.0084998198 0
0.0014395803 -0.049558885 0.0085001895 0
0.0044232863 -0.049452677 -0.0084998086 0
0.0045152651 -0.049364727 0.0085001979 0
0.0078485664 -0.049442735 -0.0079873456 0
0.0085000182 -0.049388152 -0.0046468894 0
0.0085000088 -0.049687903 -0.0015089173 0
0.0084999977 -0.049278006 0.0014433154 0
0.0084999865 -0.049289368 0.0044149878 0
0.007929977 -0.049521774 0.0078947544 0
-0.0079391785 -0.046777334 -0.0078998655 0
-0.0084999856 -0.046326067 -0.0042598005 0
-0.0084999977 -0.04648447 -0.0015411739 0
-0.0085000098 -0.046651352 0.001612891 0
-0.00850002 -0.046486661 0.0044256607 0
-0.0078440243 -0.046521429 0.007842564 0
-0.0044339211 -0.046586741 -0.0084998487 0
-0.0046314769 -0.046370499 0.0085001551 0
-0.0016039436 -0.046410143 -0.0084998403 0
-0.0013685959 -0.04666261 0.0085001681 0
0.0016754881 -0.04650278 -0.0084998282 0
