# .PCD v0.7 - Point Cloud Data file format
VERSION 0.7
FIELDS x y z rgb
SIZE 4 4 4 4
TYPE F F F F
COUNT 1 1 1 1
WIDTH 1174
HEIGHT 1
VIEWPOINT 0 0 0 1 0 0 0
POINTS 1174
DATA ascii
-0.0067424625 -0.23140378 0.0074031875 0
-0.006706473 -0.23141584 0.010667372 0
-0.0066285701 -0.23156404 0.013107298 0
-0.0046050679 -0.23226558 -0.012845277 0
-0.004438099 -0.23222262 -0.010556807 0
-0.0045316289 -0.23221019 -0.0074285506 0
-0.0044623804 -0.2323152 -0.004504757 0
-0.0045374213 -0.23221411 -0.0015035655 0
-0.0044435393 -0.23233293 0.0014321367 0
-0.0045738397 -0.23228917 0.0044808583 0
-0.0045269863 -0.23225655 0.0075943633 0
-0.0043253042 -0.23229489 0.010551407 0
-0.0045159482 -0.23219855 0.012778167 0
-0.0019892745 -0.23322169 -0.012350332 0
-0.0016411785 -0.23308147 -0.01040776 0
-0.0015377427 -0.23278725 -0.007580271 0
-0.0013840034 -0.23283178 -0.0045443559 0
-0.001476994 -0.23281027 -0.001500927 0
-0.0013659018 -0.23295718 0.001445101 0
-0.0015796439 -0.23293573 0.004572432 0
-0.0016253493 -0.23281638 0.0076198326 0
-0.0016503539 -0.23309001 0.010480084 0
-0.0021408105 -0.23319893 0.012380481 0
0.0006156392 -0.2337306 -0.009688057 0
0.0013162656 -0.23331445 -0.0074359807 0
0.001451106 -0.23277138 -0.0045020478 0
0.001566491 -0.23284185 -0.0015321592 0
0.0013864249 -0.23272851 0.0015129856 0
0.0018511271 -0.23302296 0.0047039567 0
0.0012321124 -0.23316978 0.0072010518 0
0.00043817022 -0.23365423 0.0097865518 0
0.0032482855 -0.23390293 -0.0046026222 0
0.0031701641 -0.23385155 -0.00096656743 0
0.0032519812 -0.2339031 0.0016402176 0
0.003245078 -0.23389874 0.004041628 0
0.032176811 -0.23313293 -0.0014617956 0
0.032192428 -0.23316278 0.0016885857 0
0.034278437 -0.23233768 -0.0018530756 0
0.034387857 -0.23218109 0.0018168414 0
0.037562855 -0.23250037 -0.0012347518 0
0.037397452 -0.23245734 0.0012710957 0
0.039419986 -0.23162061 -0.00051743875 0
0.03937646 -0.23170066 0.00050466292 0
-0.01202345 -0.22804821 -0.012789438 0
-0.012009634 -0.22803347 -0.010889981 0
-0.012031415 -0.22807907 -0.0077539207 0
-0.012064991 -0.22805667 -0.003938701 0
-0.012049769 -0.22805551 -0.0012733823 0
-0.012083183 -0.22804455 0.0020282269 0
-0.012073177 -0.22802563 0.0045553721 0
-0.012069536 -0.22805363 0.0068789287 0
-0.012077805 -0.2280481 0.010224497 0
-0.012094377 -0.22803706 0.013430341 0
-0.012029288 -0.2280784 0.015551912 0
-0.011014775 -0.22851065 -0.015168614 0
-0.0104999 -0.22876213 -0.013644987 0
-0.010488193 -0.22887582 -0.010508377 0
-0.010471341 -0.22890726 -0.007521851 0
-0.010431286 -0.22892998 -0.0045423699 0
-0.010531907 -0.22887707 -0.001554404 0
-0.010484448 -0.22889806 0.0015190367 0
-0.010456267 -0.22892064 0.0046350993 0
-0.010490132 -0.22893052 0.0075744805 0
-0.010437267 -0.22892022 0.010516474 0
-0.010335437 -0.22888878 0.013651747 0
-0.011073707 -0.2285089 0.015263629 0
-0.0077154753 -0.2301669 -0.013191421 0
-0.0075026448 -0.22988071 -0.010472283 0
-0.0075615994 -0.23004438 -0.0076227635 0
-0.0076960535 -0.2302535 -0.0045974948 0
-0.0076662959 -0.23034856 -0.0015844543 0
-0.0077471072 -0.23030001 0.0014947318 0
-0.0077209426 -0.23025633 0.0044699931 0
-0.0075585651 -0.23010994 0.0074843825 0
-0.0075065922 -0.22994427 0.010427509 0
-0.0077228099 -0.2301608 0.013303367 0
-0.005685214 -0.23082215 -0.012610436 0
-0.0049013165 -0.23038317 -0.0101601 0
-0.0044180588 -0.22965543 -0.0074581937 0
-0.0046515963 -0.22892706 -0.0044880109 0
-0.0043694139 -0.22910444 -0.0016805341 0
-0.0043491493 -0.22911723 0.0015281552 0
-0.0045941938 -0.22896291 0.0046788482 0
-0.0047353278 -0.22948326 0.00754009 0
-0.0050071138 -0.23031349 0.01015654 0
-0.0057286364 -0.23073894 0.012467713 0
-0.0024871281 -0.23078461 -0.0071825455 0
-0.0022162332 -0.23046151 -0.0043702438 0
-0.0021741774 -0.23048662 -0.0016080952 0
-0.0020552012 -0.23056152 0.0013804912 0
-0.0021966964 -0.23047243 0.0044213021 0
-0.0023126081 -0.23062399 0.0064747254 0
0.034820374 -0.2304917 -0.0010842386 0
0.035219178 -0.23004112 0.00084731018 0
0.037270397 -0.2293278 -0.0010556147 0
0.037490766 -0.22961599 0.0012025946 0
0.040271904 -0.22953434 -0.00045201211 0
0.040093705 -0.22943033 0.00051978865 0
-0.012340398 -0.2272197 -0.015475836 0
-0.012369259 -0.22719884 -0.013566882 0
-0.012332771 -0.22723691 -0.010458094 0
-0.0123456 -0.22719075 -0.0075681494 0
-0.012366757 -0.22705343 -0.004540124 0
-0.012367802 -0.22687171 -0.0015396185 0
-0.012395778 -0.22712848 0.0016471831 0
-0.012371834 -0.22716606 0.004467248 0
-0.012343397 -0.22700977 0.0075478777 0
-0.012365124 -0.22712834 0.010553494 0
-0.012345393 -0.22700335 0.013583352 0
-0.012319388 -0.22708955 0.015468564 0
-0.01175449 -0.22626999 -0.01524868 0
-0.010959771 -0.22682709 -0.01342216 0
-0.010492545 -0.22746283 -0.010668439 0
-0.010473755 -0.22769992 -0.0073240316 0
-0.010494178 -0.22769991 -0.0046189846 0
-0.010465721 -0.22769989 -0.0014844157 0
-0.010528766 -0.22769986 0.0015240334 0
-0.010393649 -0.22769986 0.0045041712 0
-0.010455161 -0.2276998 0.0074464455 0
-0.010230705 -0.22739771 0.010644135 0
-0.010911607 -0.22689569 0.013200887 0
-0.011806025 -0.22647028 0.015283763 0
-0.008577615 -0.22669472 -0.0097399782 0
-0.0076490468 -0.22713831 -0.0073919045 0
-0.0070870854 -0.22735223 -0.0045700176 0
-0.0073397132 -0.22743212 -0.0014663173 0
-0.0073375269 -0.22739547 0.0014753729 0
-0.0070965039 -0.22729449 0.0044739484 0
-0.0076051014 -0.22702162 0.0074201273 0
-0.0085435882 -0.22646247 0.009775836 0
-0.0059360093 -0.22519693 -0.0042848489 0
-0.0059446557 -0.22522947 -0.0015722598 0
-0.0059435279 -0.22520266 0.001693009 0
-0.0059301825 -0.22517483 0.0046966863 0
0.037809223 -0.22654134 -0.00074590882 0
0.0374352 -0.22642568 0.0007318756 0
0.040159047 -0.22658867 -0.00046136221 0
0.040315479 -0.22673994 0.0004269339 0
-0.012075684 -0.22407734 -0.015135868 0
-0.01211255 -0.22419225 -0.013671476 0
-0.012121589 -0.22425722 -0.010583465 0
-0.012111573 -0.22418508 -0.0076189614 0
-0.012108636 -0.22416379 -0.0046125469 0
-0.012120499 -0.22424908 -0.0016287188 0
-0.01209015 -0.2240306 0.0014068602 0
-0.012111542 -0.22418445 0.0045002624 0
-0.012104988 -0.22413716 0.0074837692 0
-0.012087983 -0.22401471 0.010333398 0
-0.012141518 -0.22439991 0.013406464 0
-0.012187092 -0.22476539 0.01524893 0
-0.01141352 -0.22382933 -0.015143222 0
-0.01052426 -0.22340778 -0.013709305 0
-0.011143243 -0.22321941 -0.010966659 0
-0.011897306 -0.22264291 -0.0074245473 0
-0.011888978 -0.22258294 -0.0039962847 0
-0.011911545 -0.22274525 -0.0015103085 0
-0.011899726 -0.22266009 0.0017371178 0
-0.011907769 -0.2227179 0.0042517092 0
-0.011902636 -0.22268087 0.0075522205 0
-0.011524206 -0.22299673 0.010743745 0
-0.010556789 -0.2233846 0.013593193 0
-0.011545095 -0.22371183 0.015160129 0
-0.0089222407 -0.2225049 -0.012166499 0
-0.0080958912 -0.22328244 -0.010445469 0
-0.006716968 -0.22363013 -0.0079935063 0
-0.0062082657 -0.22491042 -3.337215e-06 0
-0.0066635269 -0.22356324 0.0079354774 0
-0.008119355 -0.22342816 0.010421578 0
-0.0088993758 -0.22214259 0.012289927 0
-0.0056157866 -0.22289725 -0.0064822421 0
-0.005501349 -0.22355832 -0.0044143754 0
-0.0055190055 -0.22334367 -0.0013827321 0
-0.0055182688 -0.22337162 0.0014933874 0
-0.0055290116 -0.22366242 0.004356809 0
-0.0056634983 -0.22283146 0.0065923044 0
0.035891011 -0.22202918 -0.00053893763 0
0.035927616 -0.22218174 0.00039840967 0
0.037347414 -0.22341487 -0.00047932658 0
0.037390478 -0.22357324 0.00050475821 0
0.040209614 -0.22339001 -0.00017195233 0
0.040166494 -0.22369224 0.00021230573 0
-0.010723326 -0.22045441 -0.013827106 0
-0.011613357 -0.2205995 -0.0108904 0
-0.011585449 -0.2203985 -0.0075866994 0
-0.011589155 -0.22042511 -0.0045188181 0
-0.011619288 -0.22064188 -0.0015054799 0
-0.011583835 -0.2203867 0.0014187944 0
-0.011586368 -0.22040479 0.0044665262 0
-0.011599827 -0.22050153 0.007298185 0
-0.011592323 -0.22044744 0.010507183 0
-0.010805726 -0.22051078 0.013715969 0
-0.0086161513 -0.22010307 -0.012718215 0
-0.0073887133 -0.22035182 -0.010562518 0
-0.0062998957 -0.22064312 -0.0086189993 0
-0.0063325171 -0.22078973 0.0086099738 0
-0.0073904716 -0.22033116 0.010575959 0
-0.0085208118 -0.22037822 0.012439032 0
-0.0052462784 -0.22032325 -0.0070043844 0
-0.0046579186 -0.22037873 -0.0045250403 0
-0.0048639807 -0.22065113 -0.0015116464 0
-0.0048699873 -0.22035477 0.0013950499 0
-0.0047170641 -0.22060154 0.0045519522 0
-0.0052488148 -0.2201969 0.0070659067 0
0.035732724 -0.22117789 -0.00028400461 0
0.035727363 -0.22074391 0.00033414905 0
0.03718961 -0.2207298 -0.00021093311 0
0.037223034 -0.22062172 0.0002020879 0
0.039299272 -0.22143708 -3.7699388e-05 0
0.039434422 -0.22147036 2.624582e-05 0
-0.010548186 -0.21757478 -0.013447264 0
-0.0111461 -0.21723665 -0.01058437 0
-0.011195748 -0.21759386 -0.0074433307 0
-0.011183211 -0.21750361 -0.0046060933 0
-0.01118425 -0.21751094 -0.0015166512 0
-0.011161184 -0.21734484 0.001631607 0
-0.011171946 -0.21742223 0.0045225034 0
-0.011185986 -0.21752317 0.0075939987 0
-0.011178157 -0.21746676 0.010446128 0
-0.010541638 -0.21764909 0.013634679 0
-0.008211147 -0.21773405 -0.01308254 0
-0.0067703896 -0.21779872 -0.010660711 0
-0.0060120653 -0.21870092 -0.0089979442 0
-0.0068051065 -0.21774949 0.010741691 0
-0.008096586 -0.21741238 0.012973779 0
-0.0057729878 -0.21705356 -0.0093277935 0
-0.0048476947 -0.217583 -0.0075515304 0
-0.003908556 -0.2175537 -0.0044770297 0
-0.0042507779 -0.21743417 -0.0012291807 0
-0.0043110135 -0.21751884 0.0011803107 0
-0.0039276192 -0.21762547 0.0043380926 0
-0.0048182183 -0.21744698 0.0075639822 0
-0.0057079741 -0.21674563 0.0093569681 0
-0.010263508 -0.21465172 -0.012944067 0
-0.010782978 -0.21462323 -0.010364114 0
-0.010792994 -0.21469523 -0.0074874344 0
-0.010732695 -0.2142612 -0.004662164 0
-0.010754369 -0.21441709 -0.0014763876 0
-0.010776872 -0.21457896 0.0014169321 0
-0.01078345 -0.21462625 0.0044754692 0
-0.010759472 -0.21445353 0.0077200681 0
-0.010759452 -0.21445331 0.010546635 0
-0.010151578 -0.21473792 0.013035072 0
-0.0078377398 -0.2145053 -0.01295236 0
-0.0064719138 -0.21466608 -0.011548206 0
-0.0063790698 -0.215111 0.011198111 0
-0.0078741247 -0.21451394 0.013018758 0
-0.0053682225 -0.21453758 -0.0097655281 0
-0.0040584407 -0.21458724 -0.0075605749 0
-0.0032324286 -0.21500483 -0.0045481739 0
-0.0039321259 -0.21476032 -0.0010029763 0
-0.0038088392 -0.21479961 0.001191947 0
-0.0032466827 -0.21505846 0.0041864286 0
-0.0039976803 -0.21449462 0.007501672 0
-0.0053242231 -0.21433689 0.0097822892 0
-0.0028930146 -0.21331584 -0.0061802994 0
-0.0028436775 -0.21353935 -0.0045336457 0
-0.0028487802 -0.21348506 -0.0023504407 0
-0.0028134065 -0.21341901 0.0021436312 0
-0.0028528553 -0.21357378 0.0047282386 0
-0.0029832968 -0.21336873 0.0063087926 0
-0.0098566636 -0.21145035 -0.012492253 0
-0.010329551 -0.21135995 -0.010820855 0
-0.010323003 -0.21131282 -0.007501184 0
-0.0103337 -0.21138962 -0.0044724164 0
-0.010348506 -0.2114961 -0.0017144851 0
-0.01033608 -0.21140659 0.0016176918 0
-0.01033537 -0.21140137 0.0045420835 0
-0.010335742 -0.21140398 0.0075025009 0
-0.010353226 -0.21152966 0.010398774 0
-0.0099091735 -0.2116342 0.012504628 0
-0.0073205554 -0.21160641 -0.012561036 0
-0.006119336 -0.21247767 -0.011928109 0
-0.0061193993 -0.21262558 0.011864138 0
-0.0071968874 -0.21157409 0.01253869 0
-0.0058792476 -0.21060358 -0.012356515 0
-0.0048932387 -0.21144877 -0.010339472 0
-0.0036600747 -0.2117947 -0.0081312517 0
-0.0036955662 -0.21156149 -0.000661275 0
-0.0036683264 -0.21118282 0.00063741201 0
-0.0035627352 -0.21182957 0.007954983 0
-0.0049169813 -0.21155095 0.010335221 0
-0.0057987943 -0.21025166 0.012297463 0
-0.0026181291 -0.21100187 -0.0067451745 0
-0.002299973 -0.21148969 -0.004396243 0
-0.0025209475 -0.21152797 -0.002168502 0
-0.0024099778 -0.21138944 0.0022633323 0
-0.0023470945 -0.21166715 0.0044431328 0
-0.0026193715 -0.21131919 0.0066083781 0
-0.0096719144 -0.20925534 -0.01209214 0
-0.0099191321 -0.20876993 -0.010594654 0
-0.0099440645 -0.20858555 -0.0074077714 0
-0.0099332035 -0.20850728 -0.0046052723 0
-0.0099515244 -0.20863906 -0.0016221022 0
-0.0099078864 -0.20832488 0.0014989679 0
-0.0099147949 -0.20837452 0.0043285643 0
-0.0099533778 -0.20865215 0.0074907052 0
-0.0098395944 -0.20829409 0.010483001 0
-0.0098501565 -0.20959882 0.012147984 0
-0.0077287359 -0.20932256 -0.012130327 0
-0.0073061967 -0.20780654 -0.011811165 0
-0.0072799912 -0.20782861 0.011817285 0
-0.007340387 -0.20940192 0.012148517 0
-0.0056624431 -0.20924906 -0.012079973 0
-0.0043069441 -0.20841323 -0.010590903 0
-0.0032447954 -0.20916884 -0.0086000394 0
-0.0035284709 -0.2087737 -0.00044102085 0
-0.0034512463 -0.20884742 0.00052998413 0
-0.0033098985 -0.20923263 0.0086816987 0
-0.0042552287 -0.20834205 0.010442339 0
-0.005607686 -0.20931302 0.012104644 0
-0.0021497582 -0.20840348 -0.0071133492 0
-0.0014524432 -0.20829459 -0.0045220144 0
-0.002028421 -0.20845154 -0.001963313 0
-0.0021982531 -0.20843664 0.0017621296 0
-0.0014401361 -0.20824803 0.0045481082 0
-0.0021859705 -0.20832056 0.0072117192 0
-0.0094628204 -0.20539451 -0.010274004 0
-0.0095316488 -0.2056174 -0.0072692852 0
-0.0095102014 -0.20546292 -0.0042583891 0
-0.0095076403 -0.2054444 -0.0011971674 0
-0.0095527796 -0.20576924 0.0013176152 0
-0.0095498832 -0.20574829 0.0045571248 0
-0.0095106559 -0.20546587 0.0073792594 0
-0.0095034717 -0.20574009 0.010385809 0
-0.0076085781 -0.20529214 -0.011281826 0
-0.007573063 -0.20551515 0.011330231 0
-0.0044027446 -0.20552339 -0.010952975 0
-0.0031701177 -0.20535462 -0.00032431554 0
-0.0033158862 -0.20569108 0.0002267641 0
-0.0043079695 -0.20552996 0.01103586 0
-0.0026766716 -0.20501558 -0.0094893686 0
-0.0016485852 -0.20552634 -0.0075500612 0
-0.00069916458 -0.20545487 -0.0044508846 0
-0.0016519849 -0.20549048 -0.0018618625 0
-0.0018494006 -0.20543765 0.0016602312 0
-0.00072279858 -0.20554376 0.0044569494 0
-0.0016999224 -0.20555383 0.0076248059 0
-0.0027028949 -0.20565119 0.009253378 0
-0.0091607245 -0.20307092 -0.0099943615 0
-0.0091635343 -0.20296808 -0.0072383406 0
-0.0091536473 -0.20289683 -0.0043449504 0
-0.0091350907 -0.20276317 -0.0013527407 0
-0.0091383895 -0.20278689 0.0015870432 0
-0.0091614239 -0.20295249 0.0045039402 0
-0.009156907 -0.2029199 0.0076153413 0
-0.0091608278 -0.20298922 0.0097867688 0
-0.007572263 -0.20248909 -0.010613911 0
-0.0089312643 -0.20129646 -0.0076141274 0
-0.0089577222 -0.2014868 -0.0048494446 0
-0.0089406092 -0.20136352 -0.0016376839 0
-0.0089330422 -0.201309 0.0012618966 0
-0.0089526577 -0.20145008 0.0044420506 0
-0.0089535527 -0.20145637 0.0076031052 0
-0.0075706677 -0.20236538 0.010584927 0
-0.0045621423 -0.2024761 -0.010682899 0
-0.0031254548 -0.20367973 -0.00013626691 0
-0.0030493233 -0.20298009 0.00011663498 0
-0.0045798593 -0.20249611 0.01069217 0
-0.0023523844 -0.2024406 -0.010043317 0
-0.00098134752 -0.20257169 -0.0077442857 0
-0.00012605597 -0.20325902 -0.0043080174 0
-0.0015190662 -0.20262514 -0.0015961181 0
-0.001738545 -0.20255026 0.0013676971 0
-0.00015866401 -0.20338124 0.0041914228 0
-0.00092776306 -0.20251136 0.0076829763 0
-0.0022891876 -0.20230974 0.0099594714 0
0.00018780759 -0.20153724 -0.0062530064 0
0.00025115424 -0.20180677 -0.0045211017 0
6.4722575e-05 -0.20131971 -0.0029985099 0
3.3700668e-05 -0.20112561 0.0029420014 0
0.00020490111 -0.20198542 0.0044563548 0
0.00019876017 -0.20181599 0.0061128726 0
-0.0076975236 -0.19951215 -0.0098997187 0
-0.0086772563 -0.19946833 -0.0077282214 0
-0.0086686118 -0.19940609 -0.0045226342 0
-0.00866492 -0.19937937 -0.0013895448 0
-0.0086806882 -0.19949274 0.0014528804 0
-0.0087050805 -0.19966826 0.0044341031 0
-0.0086927135 -0.19957913 0.0073972163 0
-0.0077604237 -0.19962287 0.0099457297 0
-0.0046424782 -0.19952869 -0.010068489 0
-0.0043355189 -0.19950123 0.010064124 0
-0.0017589609 -0.19962767 -0.0097145559 0
-0.00056801381 -0.19959727 -0.0083703902 0
-0.0012685092 -0.19936036 -0.0013930487 0
-0.001267747 -0.19948688 0.0014128411 0
-0.00041672087 -0.19957171 0.0081308531 0
-0.0018028374 -0.19942516 0.0098298369 0
0.00048780433 -0.19902077 -0.0068655657 0
0.00080572325 -0.199525 -0.0042794095 0
0.00018726052 -0.19928157 -0.0028378605 0
0.00014865525 -0.19883583 0.002738788 0
0.00084826176 -0.19935134 0.0043182815 0
0.0004655729 -0.19927359 0.0067921788 0
-0.0071940813 -0.19674632 -0.0094662933 0
-0.0082660886 -0.19650918 -0.0074669421 0
-0.0082643228 -0.19649638 -0.004434688 0
-0.008270652 -0.19654186 -0.0013126325 0
-0.0082910135 -0.19668828 0.0014199824 0
-0.0082876934 -0.19666427 0.0044401917 0
-0.0082558738 -0.19643523 0.0076244147 0
-0.0073117516 -0.19666532 0.0094294064 0
-0.0042596771 -0.19677252 -0.0094882492 0
-0.0044292333 -0.19647524 0.0094270678 0
-0.0014923945 -0.19641878 -0.0093869194 0
-1.9495534e-05 -0.19682546 -0.0086816354 0
-0.001130175 -0.19652981 -0.001138099 0
-0.0011725136 -0.19648965 0.0010916016 0
-8.010825e-05 -0.19709207 0.0086660888 0
-0.0014799115 -0.19640218 0.0093917921 0
0.00013749795 -0.19533336 -0.0090796538 0
0.00086560554 -0.19655687 -0.0073252148 0
0.0016041049 -0.19633779 -0.0045209536 0
0.0004036123 -0.19630909 -0.0026412036 0
0.00032064447 -0.19613515 0.002535519 0
0.0014753882 -0.19654298 0.00454424 0
0.00084153534 -0.19650993 0.0073873769 0
0.000120795 -0.19536155 0.0090963095 0
-0.0070823855 -0.19489497 -0.0090929875 0
-0.0076051122 -0.19349255 -0.0078397859 0
-0.0078272717 -0.19335099 -0.0045346259 0
-0.0078332452 -0.19339383 -0.0014360162 0
-0.0078510586 -0.19352199 0.0015509176 0
-0.0078666778 -0.19363429 0.0045721103 0
-0.0074867532 -0.19354197 0.0078261318 0
-0.0069304672 -0.19470188 0.0090537164 0
-0.0042393059 -0.19467431 -0.0090465248 0
-0.0042460146 -0.19329374 -0.0087558841 0
-0.0045452258 -0.19315395 0.0087278401 0
-0.0045301504 -0.19476233 0.0090664513 0
-0.0018816792 -0.19473167 -0.0090585928 0
-0.0015174376 -0.19327055 -0.008750991 0
-0.00095433189 -0.19368677 -0.00091891689 0
-0.00088720059 -0.19348356 0.00095921248 0
-0.0015410631 -0.19318081 0.0087335026 0
-0.001794057 -0.19470088 0.0090535246 0
0.00016297818 -0.1947833 -0.0090646539 0
0.0013196756 -0.19354331 -0.007745319 0
0.0022081828 -0.19350478 -0.0045247553 0
0.00053603709 -0.19348685 -0.0023814947 0
0.00059176376 -0.19338934 0.0024250981 0
0.0021560376 -0.19347234 0.0043894313 0
0.0014252244 -0.1933614 0.0076643056 0
4.6091332e-05 -0.19454393 0.0090204896 0
-0.0072123446 -0.19048229 -0.0074630184 0
-0.0074521909 -0.19065151 -0.0041821925 0
-0.0074380399 -0.19054955 -0.0013508318 0
-0.007434478 -0.19052386 0.0015656984 0
-0.0074623721 -0.19072451 0.0045086043 0
-0.0071534049 -0.19058415 0.0075830799 0
-0.0044965679 -0.19052422 -0.0081728343 0
-0.0043283338 -0.1905001 0.0081691211 0
-0.0013860003 -0.1905981 -0.0081883762 0
-0.00072811701 -0.190594 -0.00071541377 0
-0.0008493588 -0.1905994 0.00059629814 0
-0.0014723861 -0.19044125 0.0081567448 0
0.0018792844 -0.19055995 -0.00760367 0
0.0022748341 -0.1908121 -0.0038047144 0
0.00087457208 -0.19032362 -0.0022805219 0
0.00077559921 -0.19026987 0.0021754811 0
0.0022325919 -0.19043635 0.0037230919 0
0.0016899641 -0.19052304 0.0077224914 0
0.0033128439 -0.18948969 -0.0063709179 0
0.0033284458 -0.19021904 -0.0053195693 0
0.0033338573 -0.19020493 0.0051241312 0
0.0032045899 -0.19007488 0.0062939357 0
-0.0068136365 -0.18748856 -0.007085701 0
-0.0070228577 -0.18756162 -0.0044483347 0
-0.0069941101 -0.18735467 -0.0015542553 0
-0.0070191813 -0.18753503 0.0016040588 0
-0.0070125484 -0.18748711 0.004534903 0
-0.0068710516 -0.18751188 0.0070515135 0
-0.0042426456 -0.18752429 -0.0075412802 0
-0.0044650701 -0.18759848 0.0075582466 0
-0.0014714939 -0.18748769 -0.0075335656 0
-0.00044853703 -0.18751462 -0.00056713191 0
-0.00054565025 -0.18758701 0.000481433 0
-0.0016024848 -0.18747482 0.0075322161 0
0.0016930475 -0.18755293 -0.0075429548 0
0.0024621638 -0.18750969 -0.0034771208 0
0.00093801541 -0.18758054 -0.0019628361 0
0.000921553 -0.18745109 0.0019297653 0
0.0023929495 -0.18770526 0.0034364872 0
0.0016657398 -0.1877223 0.0075594713 0
0.003529262 -0.18739998 -0.0068950444 0
0.0037018177 -0.18723355 -0.0048666676 0
0.0037809473 -0.1873654 0.0049900892 0
0.0035483807 -0.18749218 0.0068346746 0
-0.0064908643 -0.18473007 -0.006662983 0
-0.006600278 -0.18452029 -0.0044017551 0
-0.006598596 -0.18450812 -0.0015394782 0
-0.0065955529 -0.18448614 0.0015386567 0
-0.0066067846 -0.1845669 0.0044882558 0
-0.0064377259 -0.18472539 0.0067601861 0
-0.0044626542 -0.18450472 -0.0069055981 0
-0.0045374194 -0.18446487 0.0068985349 0
-0.001361141 -0.18445915 -0.0068959999 0
-0.0003399665 -0.18462294 -0.00027392316 0
-0.00021194819 -0.18458693 0.00039827099 0
-0.0015545221 -0.18456863 0.0069203787 0
0.0013824007 -0.18440443 -0.0068844636 0
0.0027102442 -0.18455815 -0.0033151079 0
0.001112819 -0.18447179 -0.0017056944 0
0.0012687994 -0.18437482 0.0018495644 0
0.0026547327 -0.18482873 0.0032985727 0
0.0015598893 -0.18434109 0.0068724891 0
0.003977011 -0.18457423 -0.0066964906 0
0.0039842115 -0.18439849 -0.0046079643 0
0.004095939 -0.18448931 0.0047288286 0
0.0039956043 -0.18471539 0.0067671915 0
-0.0061901622 -0.18179061 -0.0062430766 0
-0.0062005091 -0.18164317 -0.0042487988 0
-0.0062009352 -0.18164621 -0.0017865429 0
-0.0062124194 -0.18172872 0.0017627031 0
-0.0061863689 -0.18154116 0.0044710599 0
-0.0061960914 -0.18208241 0.0062920456 0
-0.0044256491 -0.18185453 -0.0063476758 0
-0.0054181777 -0.18007781 -0.004691693 0
-0.0059999945 -0.18003032 -0.0015741402 0
-0.0060000052 -0.18011391 0.0014264133 0
-0.0060000177 -0.1800739 0.004944005 0
-0.0043812394 -0.18164702 0.0063068755 0
-0.0015462964 -0.18148768 -0.0062704305 0
-0.0011359062 -0.18010439 -0.0059993528 0
-7.8734411e-05 -0.18169364 -0.00012814377 0
-0.0001854088 -0.18204939 7.2217204e-05 0
-0.0014287846 -0.18130083 0.0062353984 0
0.0015044271 -0.18162651 -0.0062996484 0
0.0022883532 -0.1809843 -0.0040835426 0
0.0015867117 -0.18156904 -0.0017763485 0
0.0014066286 -0.18148017 0.0015857869 0
0.0029375881 -0.1821512 0.0032093872 0
0.0016697309 -0.18152183 0.0062798252 0
0.0043356773 -0.18142976 -0.0062400866 0
0.004479229 -0.18151829 -0.0046870606 0
0.004358565 -0.18161391 0.0045609316 0
0.0043020672 -0.18169628 0.0062952004 0
-0.0059999805 -0.17913455 -0.0055232379 0
-0.0051651448 -0.17869695 -0.0052713314 0
-0.0059999949 -0.17825925 -0.0012878594 0
-0.0060000089 -0.17847161 0.0014355943 0
-0.0060000159 -0.17854694 0.004450364 0
-0.0043915403 -0.17865071 0.0060006334 0
-0.0014554298 -0.17864525 -0.0059993565 0
-0.0013612156 -0.17849877 0.0060006427 0
0.0018289875 -0.17911501 -0.0059993458 0
0.0015797853 -0.17849047 -0.0059993481 0
0.0014512661 -0.17853719 -0.0013223527 0
0.0016178776 -0.17850982 0.001488167 0
0.0015196798 -0.17859821 0.0060006538 0
0.0052474872 -0.17857645 -0.0059993351 0
0.0044581108 -0.17861907 -0.0050805467 0
0.003099282 -0.17847727 -0.002965735 0
0.0030926496 -0.17823139 0.0029414741 0
0.0047656447 -0.17867556 0.0047198869 0
0.0048327018 -0.17849648 0.0060006627 0
0.0060226154 -0.17742436 -0.0058833156 0
0.0060382443 -0.17768912 0.0058551622 0
-0.005999981 -0.17550796 -0.0053741122 0
-0.005999994 -0.17674059 -0.001837728 0
-0.0052170912 -0.1754632 -0.005150415 0
-0.0059999973 -0.17567781 -0.0015732796 0
-0.0060000084 -0.17557584 0.0013891055 0
-0.0060000201 -0.17542842 0.0045884345 0
-0.0045233429 -0.17548692 0.0060006236 0
-0.001580806 -0.1754719 -0.0059993705 0
-0.0014273325 -0.17552258 0.006000632 0
0.0028506012 -0.17602618 -0.0059993532 0
0.0014269063 -0.1755185 -0.0059993626 0
0.0017495047 -0.17519686 -0.0013629581 0
0.0016996525 -0.17543378 0.0013326656 0
0.0026763116 -0.17503324 0.0060006431 0
0.0015263397 -0.17560503 0.0060006431 0
0.0044615213 -0.17571111 -0.0059993481 0
0.004613827 -0.17553884 -0.0049958504 0
0.0031681084 -0.17554235 -0.0028081941 0
0.0031437571 -0.17536066 0.0027711452 0
0.0047897832 -0.1756849 0.0045050601 0
0.0044678603 -0.17554122 0.0060006524 0
0.0060552992 -0.17455478 -0.0058666794 0
0.0060408595 -0.17493355 0.0058362149 0
-0.005999981 -0.17232651 -0.005399277 0
-0.0059999935 -0.17274371 -0.0019021609 0
-0.0052456954 -0.17239188 -0.0051986189 0
-0.0059999949 -0.17242406 -0.0013368062 0
-0.0060000047 -0.1722921 0.001346421 0
-0.0060000173 -0.17258453 0.0044323122 0
-0.0046041142 -0.17223214 0.0060006082 0
-0.0013315397 -0.1725958 -0.0059993803 0
-0.0014283691 -0.17234018 0.0060006212 0
0.0018722453 -0.17268534 -0.0059993686 0
0.0014636022 -0.17265123 -0.0059993686 0
0.0018242681 -0.17256977 -0.0012350931 0
0.0017843137 -0.1723983 0.0011831825 0
0.0024927284 -0.17196186 0.006000631 0
0.0013604433 -0.17241542 0.0060006296 0
0.0047012577 -0.17241372 -0.0059993593 0
0.0046128039 -0.17262985 -0.0050702123 0
0.0033068329 -0.17273942 -0.00273073 0
0.0032151546 -0.17280097 0.0026450974 0
0.004847852 -0.17263854 0.004361134 0
0.0045442795 -0.17242292 0.0060006399 0
0.0060936338 -0.17238024 -0.0056768362 0
0.006091319 -0.17211284 0.0056600738 0
-0.0059999824 -0.16924234 -0.0049678078 0
-0.0059999963 -0.16801232 -0.0011978337 0
-0.0051234281 -0.16959092 -0.0053584967 0
-0.0059999954 -0.16952589 -0.0014281253 0
-0.0060000056 -0.16957851 0.0015024977 0
-0.0060000168 -0.16930233 0.0044773761 0
-0.0043838951 -0.1695752 0.0060005994 0
-0.001543931 -0.16944614 -0.0059993938 0
-0.0014509148 -0.16959023 0.0060006087 0
0.0018884637 -0.1704897 -0.0059993765 0
0.0017598813 -0.16920973 -0.0059993826 0
0.0018482425 -0.16967955 -0.0010361514 0
0.001882816 -0.16950718 0.0010586758 0
0.0020984544 -0.16980454 0.0060006217 0
0.0015386483 -0.16939251 0.0060006212 0
0.0051352903 -0.16922683 -0.0059993691 0
0.0047933501 -0.16942964 -0.0047733136 0
0.0034155301 -0.16905509 -0.0025552593 0
0.003405015 -0.16946764 0.0025778387 0
0.0049282522 -0.16983163 0.0043088659 0
0.0044726157 -0.16957285 0.0060006282 0
0.0061272806 -0.16913162 -0.005579059 0
0.0061200154 -0.16893856 0.00565618 0
-0.0059999833 -0.16670765 -0.0047187973 0
-0.0059999935 -0.16624002 -0.0018759309 0
-0.0050337119 -0.16659138 -0.0053556268 0
-0.0059999935 -0.16644095 -0.0013934929 0
-0.0060000075 -0.16648664 0.0016356676 0
-0.0060000187 -0.16672781 0.0047283005 0
-0.004490762 -0.16657546 0.0060005882 0
-0.0016921699 -0.16645825 -0.0059994073 0
-0.0015270176 -0.16661884 0.0060005989 0
0.0014375444 -0.16709816 -0.0059993905 0
0.0013335205 -0.16666079 -0.0059993905 0
0.0020149362 -0.16661024 -0.0009661119 0
0.0021244851 -0.16652071 0.0010699831 0
0.0023536098 -0.16660185 0.006000611 0
0.0016943656 -0.16648434 0.0060006087 0
0.0052272114 -0.16675937 -0.0059993779 0
0.0047271489 -0.16631725 -0.0049949656 0
0.0036267871 -0.16645767 -0.0025661811 0
0.0035063396 -0.16643734 0.0024454177 0
0.0049597165 -0.16649312 0.0040700873 0
0.0047159144 -0.16650426 0.0060006185 0
0.00618413 -0.16667241 -0.0054240893 0
0.0061552515 -0.16681342 0.0054584839 0
-0.005999981 -0.16327851 -0.0053434507 0
-0.0052664769 -0.16343994 -0.005305781 0
-0.0059999977 -0.16354857 -0.0014409664 0
-0.0060000061 -0.16337809 0.0015458399 0
-0.0060000159 -0.16352877 0.0046397564 0
-0.0044246679 -0.16346949 0.0060005747 0
-0.0016313407 -0.16379242 -0.0059994115 0
-0.0014389888 -0.16356435 0.0060005859 0
0.0014789159 -0.16403629 -0.0059994017 0
0.0013526423 -0.16326807 -0.005999404 0
0.002188686 -0.16354087 -0.0009031209 0
0.0022351146 -0.16345584 0.00094419852 0
0.0027088823 -0.16227779 0.006000597 0
0.001442679 -0.16352679 0.0060005975 0
0.0044197519 -0.16359454 -0.0059993924 0
0.0046552029 -0.16366929 -0.0049034846 0
0.0037063675 -0.16339044 -0.0024091902 0
0.0036974249 -0.16332634 0.0023965321 0
0.0050535728 -0.1636585 0.0040770965 0
0.004438669 -0.16350836 0.0060006077 0
0.006192469 -0.16330133 -0.0053352565 0
0.0061878869 -0.16364054 0.005394151 0
-0.0059999791 -0.1592256 -0.005954477 0
-0.0051850667 -0.16040552 -0.0054008882 0
-0.0059999949 -0.16061084 -0.0013512517 0
-0.0060000056 -0.1604265 0.0017460249 0
-0.0060000182 -0.16039957 0.0043772482 0
-0.0044141938 -0.16053012 0.0060005668 0
-0.0016962386 -0.16037886 -0.0059994278 0
-0.0014986963 -0.16054846 0.0060005775 0
0.0024222308 -0.15984116 -0.0059994129 0
0.001405588 -0.16035937 -0.0059994143 0
0.0022398201 -0.16031514 -0.00070546026 0
0.0022033406 -0.1606968 0.00069960294 0
0.0025908705 -0.16100286 0.0060005924 0
0.001241602 -0.16077818 0.0060005863 0
0.0039878716 -0.16040574 -0.0059994054 0
0.0049285386 -0.16051365 -0.004966272 0
0.0038724085 -0.16055869 -0.0023568196 0
0.0037103924 -0.16035703 0.0021804562 0
0.0053074099 -0.16029646 0.003992097 0
0.0041631553 -0.16040638 0.0060005942 0
0.0062113935 -0.16050239 -0.0051655951 0
0.0062220288 -0.16052568 0.0052077216 0
-0.0059999847 -0.15752041 -0.0043753791 0
-0.0059999917 -0.15797943 -0.0024172468 0
-0.0050865114 -0.1574447 -0.0052050254 0
-0.0059999963 -0.15747906 -0.0016492035 0
-0.0060000047 -0.15744871 0.0014618501 0
-0.0060000159 -0.15781571 0.004329775 0
-0.0043670586 -0.15738745 0.0060005565 0
-0.0015433326 -0.15762033 -0.0059994343 0
-0.0014687798 -0.157378 0.0060005663 0
0.0015719811 -0.15746574 -0.005999425 0
0.0015362301 -0.15735839 -0.0059994236 0
0.0024417753 -0.15771848 -0.00070713571 0
0.0023343391 -0.15767734 0.00059769186 0
0.0022495079 -0.15816937 0.0060005807 0
0.0015452651 -0.15752979 0.0060005775 0
0.0034990611 -0.15680045 -0.0059994203 0
0.0047873301 -0.15730035 -0.0048989775 0
0.0038195541 -0.15742821 -0.0020625184 0
0.0038667922 -0.15739071 0.0021080475 0
0.0052189147 -0.15771496 0.0039426624 0
0.0044863401 -0.15739931 0.0060005868 0
0.0062661231 -0.1576612 -0.0050104489 0
0.0062618195 -0.15735906 0.0051490716 0
-0.0059999977 -0.15503618 -0.00075884612 0
-0.0051807552 -0.15448724 -0.0053958204 0
-0.0059999949 -0.1544328 -0.0014489198 0
-0.006000007 -0.15483285 0.0015757694 0
-0.0060000187 -0.15451127 0.0044753933 0
-0.0045101754 -0.15448245 0.0060005444 0
-0.0013906814 -0.15458113 -0.005999445 0
-0.0014472128 -0.15457694 0.0060005551 0
0.0016314624 -0.15444036 -0.0059994333 0
0.0025672666 -0.15439801 -0.00057652459 0
0.0025181675 -0.15432753 0.00052312977 0
0.0012998632 -0.15444392 0.0060005654 0
0.0049409317 -0.15503724 -0.0059994217 0
0.0048930515 -0.15444309 -0.0051263231 0
0.0039699245 -0.15451241 -0.0019879981 0
0.0040701302 -0.15453191 0.0020908704 0
0.0052733258 -0.15455428 0.0037701833 0
0.0046102279 -0.15447213 0.0060005784 0
0.0062722517 -0.15446036 -0.0050532878 0
0.0062594507 -0.1545703 0.0049957563 0
-0.0059999838 -0.15091224 -0.0046785874 0
-0.0059999991 -0.15260153 -0.00041540715 0
-0.0053295153 -0.15150677 -0.0052765193 0
-0.0059999926 -0.15153943 -0.0016150741 0
-0.0060000047 -0.15150604 0.0015955281 0
-0.0060000164 -0.15169851 0.0044368505 0
-0.0045910394 -0.15158917 0.006000536 0
-0.0014937047 -0.15163906 -0.005999458 0
-0.0014592462 -0.15167101 0.0060005425 0
0.0021110929 -0.15118679 -0.0059994459 0
0.0014939625 -0.15169583 -0.0059994454 0
0.0026989747 -0.15174466 -0.00050358183 0
0.0026774898 -0.15209992 0.00051062414 0
0.0024229803 -0.15238212 0.0060005607 0
0.0015547416 -0.15147746 0.0060005565 0
0.0041637467 -0.15121217 -0.005999438 0
0.0047732187 -0.15160583 -0.0052076029 0
0.004133225 -0.1511672 -0.0018932811 0
0.0041909623 -0.15145825 0.0019746111 0
0.0054225642 -0.1517849 0.0038042387 0
0.0045016804 -0.15131421 0.0060005626 0
0.0063573066 -0.15118437 -0.0048553022 0
0.0063574067 -0.15153104 0.0045572366 0
-0.0059999861 -0.14881556 -0.0039545703 0
-0.0059999907 -0.14995939 -0.0027272191 0
-0.0052103829 -0.14850533 -0.0052371752 0
-0.0059999949 -0.14870332 -0.0014919575 0
-0.0060000042 -0.14835732 0.0016452096 0
-0.0060000182 -0.14832564 0.0046004355 0
-0.0044051888 -0.14853361 0.0060005211 0
-0.0014639626 -0.14863279 -0.0059994669 0
-0.0015588442 -0.14840661 0.0060005342 0
0.0016071375 -0.14837959 -0.0059994566 0
0.0026784458 -0.1485946 -0.00024009442 0
0.002688363 -0.14851631 0.00024506936 0
0.0027199027 -0.14897551 0.0060005486 0
0.0012738168 -0.14857829 0.0060005416 0
0.004887342 -0.14936332 -0.0059994422 0
0.0047555938 -0.14848274 -0.005529345 0
0.0041322862 -0.1482691 -0.00166882 0
0.0041954955 -0.14845738 0.0017476673 0
0.0056444216 -0.14855993 0.0035277379 0
0.0045948946 -0.14846091 0.0060005542 0
0.0064039966 -0.14818606 -0.0045910026 0
0.0063848011 -0.14838262 0.0046165022 0
-0.0059999852 -0.1451502 -0.0043048081 0
-0.0059999973 -0.14452232 -0.00094469771 0
-0.0051437682 -0.14561041 -0.0052765417 0
-0.0059999931 -0.1453418 -0.001471063 0
-0.0060000052 -0.14541449 0.0013939468 0
-0.006000015 -0.14565063 0.0045289104 0
-0.0046997815 -0.14555654 0.0060005123 0
-0.0013761893 -0.14556946 -0.0059994785 0
-0.0015136803 -0.14554325 0.0060005239 0
0.0018153921 -0.14564313 -0.0059994669 0
0.0014529835 -0.14546901 -0.0059994687 0
0.002831914 -0.14596 -0.00019035836 0
0.0028526078 -0.14546534 0.00017397403 0
0.0027170705 -0.14581691 0.0060005374 0
0.001517728 -0.14551999 0.0060005342 0
0.0046501616 -0.14545219 -0.0059994571 0
0.0047309701 -0.14551377 -0.0057397219 0
0.0043729218 -0.14557685 -0.0017018043 0
0.0043864259 -0.14554156 0.0017136849 0
0.0058985977 -0.14594756 0.0035988474 0
0.0046852729 -0.14548488 0.0060005453 0
0.0063847424 -0.14547741 -0.0045409813 0
0.0063675763 -0.14566104 0.0046289386 0
-0.0059999805 -0.1439722 -0.0055543715 0
-0.0059999987 -0.14356802 -0.00046156373 0
-0.0051280004 -0.14268361 -0.0052252226 0
-0.0059999931 -0.14261627 -0.0015608334 0
-0.0060000038 -0.14271325 0.001499141 0
-0.0060000191 -0.14238879 0.0046642707 0
-0.0047089267 -0.142463 0.0060004997 0
-0.0013917974 -0.14258571 -0.0059994906 0
-0.0014108033 -0.14240147 0.006000509 0
0.0024925245 -0.14294173 -0.0059994743 0
0.0015026538 -0.14252087 -0.0059994771 0
0.002940191 -0.14277983 -5.3352105e-05 0
0.0028866469 -0.1433754 4.680263e-05 0
0.001276738 -0.14265807 0.0060005216 0
0.0044303811 -0.14269127 -0.0058888923 0
0.0043603661 -0.14243016 -0.0014465488 0
0.0044440702 -0.14244205 0.0015322429 0
0.0047048298 -0.14282636 0.0045096539 0
0.0042479904 -0.14257659 0.00600053 0
0.0064437599 -0.14241874 -0.0041795061 0
0.0064957906 -0.14229673 0.004494057 0
-0.0059999959 -0.14003566 -0.0012712871 0
-0.0052747834 -0.13967434 -0.0052523115 0
-0.0059999945 -0.13981247 -0.0014082355 0
-0.0060000056 -0.13945885 0.0015350004 0
-0.0060000154 -0.13952392 0.0043858043 0
-0.0045896424 -0.13957696 0.0060004909 0
-0.00060618849 -0.13952537 -0.0059994976 0
-0.0015001389 -0.13967143 -0.0059995004 0
-0.00047779299 -0.13815115 0.0060004978 0
-0.0017185716 -0.13942148 0.0060005011 0
0.0018426668 -0.14063998 -0.005999485 0
0.0013638528 -0.13973917 -0.0059994897 0
0.0029250041 -0.13955383 0.0060005155 0
0.0016915518 -0.13966833 0.0060005104 0
0.0044813855 -0.13942717 -0.0059994827 0
0.0045369929 -0.13964693 -0.0014085063 0
0.00463246 -0.13958427 0.001500199 0
0.0047093676 -0.13932288 0.006000523 0
0.0064912857 -0.139515 -0.0045344881 0
0.0061386819 -0.13888085 -0.0029510963 0
0.0061679981 -0.13822713 0.002931061 0
0.0064627547 -0.13937297 0.0043804054 0
-0.0059999977 -0.13638756 -0.00082732609 0
-0.0052072965 -0.13632782 -0.0052704904 0
-0.0059999959 -0.13639134 -0.001537247 0
-0.006000007 -0.13663431 0.0015225852 0
-0.0060000205 -0.13643409 0.0045005148 0
-0.0046731792 -0.13651703 0.0060004797 0
-0.0014771613 -0.13661554 -0.005999512 0
-0.0014535709 -0.13683772 0.0060004918 0
0.0016715688 -0.13637139 -0.0059995018 0
0.0027217942 -0.13716683 0.0060005058 0
0.0015420314 -0.1364163 0.0060005025 0
0.0044579301 -0.1365186 -0.0059994897 0
0.0046952632 -0.13671225 -0.0013404274 0
0.0045665377 -0.13644575 0.0011921783 0
0.0045813918 -0.13651472 0.0060005095 0
0.0066088415 -0.13649261 -0.0042590844 0
0.0062190951 -0.13611348 -0.002818065 0
0.0062046293 -0.13601559 0.0027971028 0
0.006557697 -0.13627511 0.0044145202 0
-0.0060000033 -0.13293794 0.00079686689 0
-0.0052217236 -0.13350657 -0.0052124038 0
-0.0059999954 -0.13347186 -0.001703615 0
-0.0060000075 -0.13349971 0.0017173898 0
-0.0060000177 -0.13327213 0.0045341388 0
-0.0043858374 -0.1336952 0.0060004685 0
-0.0013488719 -0.13363379 -0.0059995209 0
-0.0014010422 -0.13361894 0.006000482 0
0.0024169635 -0.1338906 -0.0059995069 0
0.0016021113 -0.13360381 -0.0059995134 0
0.0023061149 -0.13458167 0.0060004951 0
0.0014822996 -0.13352798 0.006000489 0
0.0046453974 -0.13334028 -0.0059995046 0
0.0048588426 -0.13358864 -0.0012630885 0
0.0048368857 -0.13362882 0.0012452386 0
0.0046845539 -0.13356237 0.0060004997 0
0.0066239545 -0.1335241 -0.0043463288 0
0.0062046214 -0.1333908 -0.0025935946 0
0.0062325317 -0.13321559 0.0026090208 0
0.0065768049 -0.13354646 0.0044599175 0
-0.0052943272 -0.13060421 -0.0051364372 0
-0.0059999945 -0.13035645 -0.0016879406 0
-0.0060000066 -0.13036306 0.0014159612 0
-0.0060000196 -0.1304066 0.0047511226 0
-0.0043169572 -0.13068181 0.0060004597 0
-0.0015094853 -0.1304857 -0.0059995325 0
-0.0015373885 -0.1297515 0.0060004639 0
-0.001580319 -0.13046978 0.0060004694 0
0.00044541148 -0.13026758 -0.0059995274 0
0.0015603385 -0.130256 -0.0059995214 0
0.0013672619 -0.13036917 0.0060004755 0
0.004636921 -0.13049409 -0.0059995134 0
0.0049285782 -0.130669 -0.0011076339 0
0.0049739699 -0.13033375 0.001128155 0
0.0031233078 -0.13049738 0.0060004829 0
0.0046507232 -0.13046966 0.0060004881 0
0.0066397758 -0.13038191 -0.0043648789 0
0.0064081517 -0.1302841 -0.0025575077 0
0.0064465711 -0.13079731 0.0026365253 0
0.0066082166 -0.13041583 0.0044887122 0
-0.0052389628 -0.12745495 -0.0052863979 0
-0.0059999973 -0.12741622 -0.0015328483 0
-0.0060000038 -0.12744735 0.001399735 0
-0.0060000168 -0.12726216 0.0044532605 0
-0.0047494285 -0.12751929 0.0060004429 0
-0.0016666349 -0.12716807 -0.0059995442 0
-0.0018247146 -0.12748909 0.0060004545 0
-0.0012291875 -0.12770264 0.0060004564 0
0.0013564433 -0.12762038 -0.0059995325 0
0.0025323017 -0.12753516 0.0060004704 0
0.0016018108 -0.12749384 0.0060004685 0
0.004475195 -0.12765035 -0.0059995232 0
0.0051012314 -0.12734956 -0.0010242604 0
0.0052302103 -0.12767802 0.0011795432 0
0.0036332284 -0.12799796 0.006000476 0
0.0046051345 -0.12744661 0.0060004811 0
0.0065650907 -0.12713677 -0.0046411194 0
0.00650007 -0.12748668 -0.0024336653 0
0.0064862468 -0.12762842 0.0024317631 0
0.0066157714 -0.12727283 0.0045217364 0
-0.0051655835 -0.12461174 -0.0054033422 0
-0.0059999963 -0.12441654 -0.0013767874 0
-0.0060000075 -0.12434086 0.0016171552 0
-0.0060000187 -0.12447642 0.0045733484 0
-0.0045318985 -0.12444809 0.0060004327 0
-0.0015061178 -0.1243666 -0.0059995549 0
-0.0011470221 -0.12413159 0.0060004452 0
-0.0014695508 -0.12453578 0.0060004443 0
0.0016982956 -0.12459616 -0.0059995414 0
0.0017584191 -0.12531707 0.0060004597 0
0.0016209045 -0.12440953 0.0060004559 0
0.0044383728 -0.12452626 -0.0059995344 0
0.0051643513 -0.12458047 -0.00087380531 0
0.0052377568 -0.12442325 0.00093602901 0
0.004376743 -0.12444822 0.0060004666 0
0.0065645534 -0.12463222 -0.0046446384 0
0.0068180747 -0.12450588 -0.002525097 0
0.0065693283 -0.12473737 0.0022918417 0
0.0065875151 -0.1244297 0.0045903963 0
-0.0052804733 -0.12147912 -0.005172092 0
-0.0059999935 -0.12162991 -0.0014519428 0
-0.0060000075 -0.12157475 0.0014306725 0
-0.0059502185 -0.12146326 0.0045528933 0
-0.0044014072 -0.12143271 0.0060004252 0
-0.0014633295 -0.12152046 -0.0059995665 0
-0.0015595746 -0.12152911 0.0060004359 0
0.001499085 -0.12146087 -0.0059995577 0
0.002132226 -0.1214886 0.0060004471 0
0.0014456401 -0.12144746 0.0060004443 0
0.0044935942 -0.12150221 -0.0059995442 0
0.0053515648 -0.12174057 -0.00084198301 0
0.005337887 -0.12137835 0.00080128777 0
0.0046952805 -0.12128001 0.0060004578 0
0.0066375141 -0.12132896 -0.0044695423 0
0.0067125978 -0.12137565 -0.0021843167 0
0.0066700736 -0.12127819 0.0021448107 0
0.006579319 -0.12139279 0.0046100584 0
-0.0051977648 -0.11839994 -0.0053636017 0
-0.0059999935 -0.11851864 -0.0015656066 0
-0.0060000056 -0.11859049 0.0014773979 0
-0.0060000154 -0.1183207 0.0042722421 0
-0.0043710098 -0.11868645 0.0060004131 0
-6.117153e-05 -0.11836483 -0.0059995721 0
-0.0014833539 -0.11858818 -0.0059995791 0
-0.0017286552 -0.11921258 0.0060004252 0
-0.0014865153 -0.11836709 0.0060004233 0
0.0011878883 -0.1173365 -0.0059995716 0
0.0015589863 -0.11856988 -0.0059995675 0
0.0014026868 -0.1184314 0.0060004364 0
0.0045440062 -0.1186377 -0.0059995567 0
0.0053753741 -0.11861992 -0.00062509789 0
0.0053326483 -0.11875084 0.0005933721 0
0.0044078953 -0.11836835 0.0060004448 0
0.0066730767 -0.1184125 -0.0043842038 0
0.0067923861 -0.11859126 -0.0020758938 0
0.0067908131 -0.11853439 0.0020825895 0
0.0066525065 -0.11822055 0.0044343993 0
-0.0053642397 -0.11559656 -0.0052124406 0
-0.0059999949 -0.11544992 -0.0014273489 0
-0.0060000038 -0.1156329 0.0014445982 0
-0.0060000187 -0.11570421 0.0045010229 0
-0.0043050167 -0.11560279 0.0060004056 0
-0.0015845258 -0.11546923 -0.0059995898 0
-0.0019466478 -0.11517347 0.0060004094 0
-0.0015380557 -0.11545364 0.0060004131 0
0.0015191857 -0.11549113 -0.0059995777 0
0.0012921132 -0.11525374 0.0060004243 0
0.0043822536 -0.11546753 -0.0059995684 0
0.0054955888 -0.11559859 -0.00051228207 0
0.0054606674 -0.11550675 0.00047115513 0
0.0043279454 -0.11527862 0.0060004331 0
0.0066189026 -0.11548866 -0.0045142332 0
0.006976625 -0.11562372 -0.0021139188 0
0.0068943184 -0.11564136 0.0019813916 0
0.0066249291 -0.1157437 0.0045005744 0
-0.0060000052 -0.11299782 0.0012240895 0
-0.0053030942 -0.11257371 -0.0051504523 0
-0.0059999954 -0.11240747 -0.0011692328 0
-0.006000007 -0.11244401 0.0014234126 0
-0.0059318417 -0.11265527 0.0046264553 0
-0.0047427174 -0.11238883 0.0060003903 0
-0.0022089097 -0.1114329 -0.0059996052 0
-0.0016840796 -0.11263534 -0.0059995977 0
-0.0020080528 -0.11305797 0.0060004015 0
-0.0014233388 -0.1123958 0.0060004015 0
0.0012929703 -0.11238625 -0.0059995907 0
0.0014235753 -0.11264025 0.0060004117 0
0.0046202354 -0.11247254 -0.0059995791 0
0.0054205731 -0.11293828 -0.00023207965 0
0.0056181592 -0.11284428 0.00042327575 0
0.0045258813 -0.11234625 0.0060004229 0
0.0066088201 -0.11226566 -0.0045384439 0
0.0069192592 -0.11244538 -0.0018248806 0
0.0068971491 -0.1125152 0.0017959136 0
0.0066910689 -0.11257703 0.004341831 0
-0.0060000019 -0.10838234 0.00037716955 0
-0.0060000201 -0.10835449 0.0053537777 0
-0.005389764 -0.10957222 -0.0050586308 0
-0.0059999931 -0.10966709 -0.0015636539 0
-0.0060000038 -0.10944887 0.0014432181 0
-0.0058743209 -0.10939126 0.004488959 0
-0.0045011286 -0.10959688 0.0060003819 0
-0.00039113121 -0.10824211 -0.0059996103 0
-0.0013595138 -0.10955276 -0.0059996084 0
-0.002743392 -0.10897538 0.0060003847 0
-0.0015667994 -0.10970954 0.0060003931 0
0.0015026095 -0.1093759 -0.0059995991 0
0.0015007289 -0.10948621 0.0060004047 0
0.0046216515 -0.10951672 -0.0059995875 0
0.0057189111 -0.10957208 -0.00027078539 0
0.0057319431 -0.10952491 0.0002810155 0
0.0045750458 -0.10964259 0.0060004122 0
0.006597633 -0.10934953 -0.0045653014 0
0.0069321021 -0.10962716 -0.0016921341 0
0.0069135283 -0.1093142 0.0016034392 0
0.0065825903 -0.10951407 0.004602164 0
-0.0060000089 -0.10533651 0.0023001377 0
-0.0050196298 -0.10648743 -0.0059996331 0
-0.0054086451 -0.10646407 -0.0052346047 0
-0.0059999949 -0.1065079 -0.0014253549 0
-0.0060000066 -0.10652048 0.001430689 0
-0.0059413253 -0.10657039 0.0046931957 0
-0.0044311862 -0.10643807 0.0060003675 0
-0.0024873947 -0.10549311 -0.0059996275 0
-0.0014843403 -0.10658234 -0.0059996219 0
-0.001486557 -0.10657861 0.0060003805 0
0.0013627895 -0.10636895 -0.0059996103 0
0.0013482039 -0.10651949 0.0060003917 0
0.0046056118 -0.10661738 -0.0059995963 0
0.0058341343 -0.1070712 -0.00019311863 0
0.0058485954 -0.10686481 0.00019247786 0
0.0043965052 -0.1066398 0.0060004033 0
0.0066222646 -0.1062623 -0.0045061931 0
0.007083667 -0.10656359 -0.0017186783 0
0.0069474606 -0.10658886 0.0014858086 0
0.0066612093 -0.10651196 0.0044134702 0
-0.0060000112 -0.10465042 0.0029402608 0
-0.0060000154 -0.10331921 0.0041139666 0
-0.0035538201 -0.10466436 -0.0059996345 0
-0.0054046754 -0.10336272 -0.0050473688 0
-0.0059999949 -0.10350738 -0.0015069026 0
-0.0060000042 -0.10357469 0.0011183029 0
-0.005930258 -0.10360908 0.0045813825 0
-0.004734159 -0.10330136 0.0060003572 0
-0.0012064042 -0.10361138 -0.005999628 0
-0.0020628043 -0.10275688 0.0060003642 0
-0.0014506002 -0.10337444 0.0060003689 0
0.0014562386 -0.1038039 -0.0059996173 0
0.0013788013 -0.10354729 0.0060003814 0
0.0044181561 -0.10358591 -0.0059996098 0
0.0059520174 -0.10413472 -8.4513784e-05 0
0.0059566805 -0.10414835 9.1025562e-05 0
0.0044573648 -0.10349252 0.0060003912 0
0.0067201755 -0.1035452 -0.0042712176 0
0.0070911073 -0.10350571 -0.0015139544 0
0.0070877732 -0.1033643 0.0013667759 0
0.0066082114 -0.1033806 0.0045406525 0
-0.0060000047 -0.10120721 0.0011308731 0
-0.0060000196 -0.099975444 0.0052536139 0
-0.0044336999 -0.10085322 -0.0059996513 0
-0.0053602261 -0.10044091 -0.0049807993 0
-0.0059999926 -0.10054427 -0.0016056329 0
-0.0060000061 -0.1004616 0.0016851997 0
-0.0060000177 -0.10059877 0.0045585479 0
-0.0045809294 -0.10049596 0.0060003493 0
-0.0022664622 -0.10099775 -0.0059996434 0
-0.0012421299 -0.10051733 -0.0059996396 0
-0.0015677883 -0.10055673 0.0060003591 0
0.0015183705 -0.10070647 -0.0059996326 0
0.0015052804 -0.1003879 0.0060003693 0
0.0043936037 -0.10043988 -0.0059996205 0
0.004528651 -0.100416 0.0060003824 0
0.0066483184 -0.10052825 -0.0044436888 0
0.0070911413 -0.10037259 -0.0012372764 0
0.0072198645 -0.10050243 0.0015927695 0
0.0067139468 -0.10070638 0.0042868806 0
-0.0060000154 -0.097955793 0.0040562134 0
-0.0053445399 -0.097771235 -0.0059996662 0
-0.0053617503 -0.097494267 -0.0051039578 0
-0.0059999945 -0.097533502 -0.0016409683 0
-0.006000008 -0.097491607 0.0015485022 0
-0.0059391777 -0.097658917 0.0045608622 0
-0.0046292422 -0.09777528 0.0060003395 0
-0.0023010375 -0.098031461 -0.0059996541 0
-0.0014375551 -0.097366944 -0.0059996541 0
-0.0018329619 -0.09810745 0.0060003484 0
-0.0014687608 -0.097378403 0.006000346 0
0.0017406584 -0.097592369 -0.0059996415 0
0.0016274682 -0.097341366 0.0060003572 0
0.0044368436 -0.097377904 -0.0059996317 0
0.0045155091 -0.097506054 0.0060003716 0
0.0065990151 -0.097534671 -0.0045620273 0
0.0073029934 -0.097545773 -0.0013301357 0
0.0072760554 -0.097374476 0.0012964328 0
0.0066130431 -0.097592026 0.0045290319 0
-0.0060000094 -0.09472812 0.0024317747 0
-0.0060000173 -0.095074251 0.0046098148 0
-0.0043492997 -0.094913028 -0.0059996727 0
-0.0054665464 -0.094499052 -0.005222931 0
-0.0059999968 -0.094440773 -0.0015693855 0
-0.0060000052 -0.09461163 0.0014301619 0
-0.0058408137 -0.094335556 0.0048541618 0
-0.0046319105 -0.094650865 0.0060003274 0
-0.0015225154 -0.094623953 -0.005999662 0
-0.0014364162 -0.094364293 0.0060003386 0
0.0013787777 -0.094523109 -0.005999655 0
0.0016077713 -0.094316088 0.0060003451 0
0.0043342444 -0.094587915 -0.0059996406 0
0.004695225 -0.094291098 0.0060003609 0
0.0067249774 -0.094415784 -0.0042597251 0
0.0074275886 -0.09465839 -0.0013848452 0
0.0074104532 -0.094582468 0.0015157481 0
0.0066595771 -0.094538987 0.0044173421 0
-0.006000008 -0.092574932 0.0019988343 0
-0.0039623012 -0.091737919 -0.0059996829 0
-0.0052382927 -0.091652177 -0.005300479 0
-0.0059999949 -0.091521248 -0.0014639256 0
-0.0060000042 -0.091553159 0.0015938247 0
-0.005890036 -0.091593891 0.0045486656 0
-0.0045199846 -0.091511004 0.0060003153 0
-0.0011473458 -0.092000954 -0.0059996718 0
-0.0013675541 -0.091296293 -0.005999676 0
-0.0024643017 -0.091567285 0.0060003223 0
-0.0016389422 -0.091701858 0.0060003255 0
0.0013503135 -0.091576681 -0.0059996624 0
0.0014379632 -0.091360889 0.0060003381 0
0.0045530377 -0.091746666 -0.0059996531 0
0.0045832754 -0.091499791 0.0060003465 0
0.0066880891 -0.091466345 -0.0043482706 0
0.0074614976 -0.091603577 -0.0012112762 0
0.0075464114 -0.091596752 0.0012484451 0
0.006710236 -0.091418795 0.0042957496 0
-0.0060000028 -0.08855737 0.00059125957 0
-0.0060000164 -0.08911173 0.0043139528 0
-0.0052450891 -0.088059478 -0.0059997006 0
-0.0052283024 -0.088222541 -0.0053122365 0
-0.0059999973 -0.088527963 -0.0014514393 0
-0.0060000042 -0.088597171 0.0015254192 0
-0.0058854767 -0.088469729 0.0045739887 0
-0.0046488559 -0.088672422 0.0060003041 0
-0.002262322 -0.089084044 -0.0059996862 0
-0.0016411791 -0.088748306 -0.0059996839 0
-0.0025234984 -0.087286405 0.0060003065 0
-0.0014640675 -0.088477716 0.0060003139 0
0.0015594119 -0.088575527 -0.0059996755 0
0.0016071964 -0.088498034 0.0060003283 0
0.0043770978 -0.088353589 -0.0059996629 0
