# .PCD v0.7 - Point Cloud Data file format
VERSION 0.7
FIELDS x y z rgb
SIZE 4 4 4 4
TYPE F F F F
COUNT 1 1 1 1
WIDTH 1159
HEIGHT 1
VIEWPOINT 0 0 0 1 0 0 0
POINTS 1159
DATA ascii
0.0060000075 -0.16954046 -0.001680839 0
0.0059999963 -0.16967055 0.0014745177 0
0.0059999838 -0.16932318 0.0044834642 0
-0.0053559295 -0.16649479 -0.00521409 0
-0.005999994 -0.16641714 -0.0016247173 0
-0.0060000038 -0.16639173 0.0011776071 0
-0.0060000191 -0.16643538 0.0046605058 0
-0.0043893117 -0.16654862 0.006000591 0
-0.0014209561 -0.16654657 -0.0059994007 0
-0.0016466297 -0.16644402 0.0060005994 0
0.0007377342 -0.16603339 -0.0059993966 0
0.001742136 -0.16644396 -0.0059993938 0
0.0018381729 -0.16515145 0.006000604 0
0.001437285 -0.16647258 0.0060006063 0
0.0046474552 -0.16660395 -0.0059752432 0
0.0060000056 -0.16633654 -0.0016678743 0
0.0038338022 -0.16669005 0.0060006171 0
0.004552403 -0.16688734 0.0060006189 0
0.0060000182 -0.16641116 -0.004522624 0
0.0060000056 -0.16643554 -0.0014057418 0
0.0059999963 -0.16633308 0.0014315284 0
0.0059999847 -0.16642515 0.0043466198 0
-0.0052975123 -0.16349508 -0.0052423826 0
-0.0059999945 -0.16332939 -0.0014374444 0
-0.0060000061 -0.16360024 0.0015695819 0
-0.0060000182 -0.16345622 0.0044383584 0
-0.0046601901 -0.16378239 0.0060005775 0
-0.0014051368 -0.16329636 -0.005999417 0
-0.00081477716 -0.16490756 0.0060005938 0
-0.0015068339 -0.16365045 0.0060005854 0
0.0015352258 -0.16333601 -0.0059994031 0
0.0014590743 -0.16357864 0.0060005966 0
0.0046741152 -0.16354364 -0.0059993919 0
0.0060000001 -0.16369873 -0.00017906413 0
0.0059999954 -0.16472808 0.0011897312 0
0.0045643714 -0.16333568 0.0060006073 0
0.0060000159 -0.16337928 -0.0044217492 0
0.0060000056 -0.16371076 -0.0016959392 0
0.0059999926 -0.16357848 0.0015254341 0
0.0059999856 -0.16342127 0.0044337511 0
-0.0060000005 -0.15989107 -6.0636165e-05 0
-0.0060000047 -0.16138597 0.001188429 0
-0.0050760997 -0.16053337 -0.0052137449 0
-0.0059999949 -0.16062333 -0.0014520766 0
-0.0060000052 -0.16039783 0.0013116457 0
-0.0060000182 -0.1603809 0.0046275049 0
-0.0044093346 -0.1605489 0.0060005677 0
-0.0015267747 -0.16038738 -0.005999424 0
-0.0015471025 -0.160456 0.0060005751 0
0.0014678393 -0.16043569 -0.0059994166 0
0.0016186339 -0.16033983 0.0060005868 0
0.0044703302 -0.16062814 -0.0059994012 0
0.0059999959 -0.15958416 0.0010663817 0
0.0034327738 -0.16020086 0.0060005919 0
0.0044793109 -0.16071218 0.0060005975 0
0.0060000168 -0.16061302 -0.0046071163 0
0.0060000075 -0.16049552 -0.0016489917 0
0.0059999949 -0.16066803 0.0013867333 0
0.0059999842 -0.1604773 0.0045074769 0
-0.0053203306 -0.15751785 -0.0052086138 0
-0.0059999945 -0.15750419 -0.001708469 0
-0.0060000094 -0.15761481 0.0016891973 0
-0.0060000173 -0.1576104 0.0043685199 0
-0.0046775565 -0.15758201 0.0060005561 0
-0.0015543264 -0.15759295 -0.0059994375 0
-0.0013629275 -0.15764906 0.0060005672 0
0.0014027859 -0.15763515 -0.0059994268 0
0.0021844406 -0.15748025 0.0060005775 0
0.0015244512 -0.15756015 0.0060005761 0
0.0044189268 -0.15749046 -0.0059994143 0
0.0060000024 -0.15730533 -0.00070844125 0
0.0059999921 -0.15692797 0.002014708 0
0.0045328797 -0.15751457 0.0060005868 0
0.0060000177 -0.15742469 -0.0044788332 0
0.006000008 -0.15756649 -0.0015207937 0
0.0059999968 -0.15764292 0.0015427105 0
0.0059999842 -0.15743065 0.0044476879 0
-0.005229753 -0.15456291 -0.0053584771 0
-0.0059999949 -0.15462513 -0.0014660823 0
-0.006000007 -0.15448718 0.0015957758 0
-0.0060000164 -0.15455957 0.0044471542 0
-0.004549182 -0.15470985 0.0060005444 0
-0.0013432184 -0.15466008 -0.0059994482 0
-0.0015615978 -0.15388502 0.0060005509 0
-0.0014672313 -0.15451975 0.0060005547 0
0.0017024882 -0.15433514 -0.0059994357 0
0.0014942863 -0.15460704 0.0060005677 0
0.0043818839 -0.15450563 -0.0059994264 0
0.0060000056 -0.15382084 -0.0016187716 0
0.0033233829 -0.15453216 0.006000571 0
0.0045894189 -0.15470374 0.0060005775 0
0.0060000187 -0.15469109 -0.0044623627 0
0.006000008 -0.15439464 -0.0015358747 0
0.0059999954 -0.15448776 0.0016110933 0
0.0059999842 -0.15477853 0.0044399309 0
-0.0052013821 -0.15141691 -0.005303171 0
-0.0059999954 -0.15139394 -0.0014757063 0
-0.0060000056 -0.15159105 0.0014640912 0
-0.0060000173 -0.15146407 0.0044150981 0
-0.0044530942 -0.15131149 0.00600053 0
-0.0013882252 -0.15148717 -0.005999459 0
-0.001468951 -0.15148579 0.0060005435 0
0.0014654587 -0.15155792 -0.0059994464 0
0.0018880862 -0.1512561 0.0060005542 0
0.0013573305 -0.15145792 0.0060005556 0
0.0044412026 -0.15137227 -0.005999438 0
0.006000008 -0.15096818 -0.0023113447 0
0.0047938651 -0.15149249 0.0060005682 0
0.0060000168 -0.15132177 -0.0044530304 0
0.0060000056 -0.15138911 -0.0015660205 0
0.0059999954 -0.15156898 0.0013612958 0
0.0059999847 -0.15148048 0.0045792675 0
-0.0052334741 -0.14849669 -0.0054065725 0
-0.0059999968 -0.14850843 -0.00155961 0
-0.0060000052 -0.14848326 0.0015092395 0
-0.0060000173 -0.14849748 0.0044329874 0
-0.0046090712 -0.14849129 0.0060005193 0
-0.00049553294 -0.14961065 -0.0059994608 0
-0.0016101621 -0.14838134 -0.0059994697 0
-0.0017648934 -0.14953455 0.0060005342 0
-0.001407685 -0.14850597 0.0060005342 0
0.0015760002 -0.1483382 -0.0059994566 0
0.0025989574 -0.14853227 0.0060005467 0
0.0016444549 -0.14827387 0.0060005416 0
0.0043695071 -0.1486863 -0.0059994478 0
0.0060000056 -0.1476827 -0.0016638919 0
0.0059999921 -0.14721413 0.0020790568 0
0.0030862915 -0.14989682 0.0060005533 0
0.0043719872 -0.14838186 0.0060005523 0
0.0060000154 -0.14831555 -0.0043639848 0
0.0060000061 -0.1483257 -0.0012654415 0
0.0059999945 -0.14839713 0.0014189972 0
0.0059999838 -0.14851695 0.0045159389 0
-0.0051346039 -0.14536755 -0.0054081855 0
-0.0059999954 -0.14552711 -0.0014192242 0
-0.0060000061 -0.14550336 0.0013149295 0
-0.0059527769 -0.14542337 0.0044700475 0
-0.0046792305 -0.14533193 0.0060005095 0
-0.0015642236 -0.14554249 -0.0059994794 0
-0.0025332717 -0.144958 0.0060005151 0
-0.0016337755 -0.14552668 0.006000523 0
0.0017177503 -0.14526464 -0.0059994669 0
0.0012332877 -0.1446154 0.0060005276 0
0.0015834883 -0.1454947 0.0060005328 0
0.004476768 -0.14553894 -0.0059994566 0
0.0059999926 -0.14503549 0.0019934331 0
0.0045570005 -0.1457247 0.0060005453 0
0.0060000177 -0.14540529 -0.0043932637 0
0.0060000042 -0.14547469 -0.0014837697 0
0.0059999935 -0.14524668 0.0013515339 0
0.0059999847 -0.14559877 0.0043498096 0
-0.0059999996 -0.14241786 -0.00026778178 0
-0.0051859957 -0.14261436 -0.0053102183 0
-0.0059999959 -0.14234421 -0.0015020374 0
-0.0060000033 -0.1425284 0.0014351897 0
-0.0060000182 -0.14256649 0.0046349708 0
-0.0043842094 -0.14247461 0.0060004983 0
-0.00044536806 -0.14258783 -0.005999486 0
-0.0016076788 -0.14225602 -0.0059994892 0
-0.0014190769 -0.14252287 0.0060005113 0
0.0016239916 -0.1425714 -0.0059994776 0
0.0014303261 -0.14250349 0.0060005202 0
0.0044808364 -0.14238207 -0.0059994697 0
0.006000007 -0.14301667 -0.002038535 0
0.0047760457 -0.14267933 0.0060005351 0
0.0060000191 -0.14244293 -0.0047451654 0
0.0060000038 -0.14290218 -0.0013786919 0
0.0059999959 -0.14239155 0.001481992 0
0.0059999865 -0.14270867 0.0043823146 0
-0.0059999996 -0.13800092 -0.00028058366 0
-0.0053672516 -0.13962372 -0.0052228663 0
-0.0059999949 -0.13950743 -0.0012313775 0
-0.0060000075 -0.1395656 0.0012810552 0
-0.0060000191 -0.13937755 0.0046455334 0
-0.0043890355 -0.13973455 0.0060004913 0
-0.0016613896 -0.13956948 -0.0059995023 0
-0.0018246853 -0.13995235 0.0060004997 0
-0.0015781402 -0.13955037 0.006000502 0
0.0013941892 -0.13955572 -0.0059994883 0
0.0017103368 -0.14072219 0.0060005151 0
0.0013223862 -0.13956279 0.0060005086 0
0.0044881431 -0.13927846 -0.0059994818 0
0.0059999959 -0.13973266 0.0010909247 0
0.0059999856 -0.13900401 0.0038811844 0
0.0045174235 -0.13951807 0.0060005216 0
0.0060000177 -0.13982549 -0.0047572581 0
0.0060000042 -0.13936658 -0.0015377427 0
0.0059999949 -0.13956843 0.001374781 0
0.0059999833 -0.13949341 0.0046204799 0
-0.006000008 -0.13708909 0.0020764805 0
-0.0051941266 -0.13651152 -0.0051857587 0
-0.0059999945 -0.13633712 -0.0013645557 0
-0.006000007 -0.13653745 0.0015633362 0
-0.005929125 -0.13676751 0.0045576356 0
-0.0044487179 -0.13643569 0.0060004792 0
-0.0011651806 -0.13664396 -0.0059995102 0
-0.0015531151 -0.13621508 -0.005999513 0
-0.0017168727 -0.13644844 0.0060004899 0
0.0013020026 -0.13640766 -0.0059995032 0
0.0013880226 -0.13656457 0.006000502 0
0.0045023388 -0.13651787 -0.0059994911 0
0.0060000038 -0.13782564 -0.0012039224 0
0.0059999921 -0.13522798 0.0020535786 0
0.0059999842 -0.13657662 0.0043445458 0
0.0044097514 -0.13648865 0.0060005113 0
0.0060000177 -0.13668773 -0.0044715474 0
0.0060000047 -0.13657345 -0.0014205917 0
0.0059999973 -0.13641675 0.0014143845 0
0.0059999861 -0.13660198 0.0044968794 0
-0.0060000033 -0.1334697 0.00076488673 0
-0.0052833431 -0.13342443 -0.0051946901 0
-0.0059999949 -0.13374062 -0.0015880974 0
-0.006000008 -0.1336734 0.0015623844 0
-0.0059394892 -0.1335219 0.0045362744 0
-0.0045462456 -0.13340177 0.0060004671 0
-0.0014201489 -0.13345672 -0.0059995218 0
-0.0021162403 -0.13315326 0.0060004741 0
-0.0016733228 -0.1333158 0.0060004788 0
0.00053114718 -0.13246249 -0.005999519 0
0.0015854409 -0.13334332 -0.005999512 0
0.0011404926 -0.13282575 0.0060004848 0
0.0016110709 -0.13348982 0.0060004909 0
0.0047898381 -0.1337429 -0.0059994999 0
0.0059999945 -0.13230295 0.00141641 0
0.0059999861 -0.13327903 0.0037748904 0
0.0040334701 -0.1335801 0.0060004992 0
0.0060000159 -0.13368735 -0.0045397896 0
0.0060000052 -0.13340285 -0.0015200849 0
0.0059999968 -0.13385342 0.0015149117 0
0.0059999847 -0.13356693 0.0045985323 0
-0.0053727105 -0.13054302 -0.0052719815 0
-0.0059999973 -0.13051294 -0.0014351924 0
-0.0060000052 -0.13036713 0.0013778839 0
-0.0059579639 -0.13046592 0.0045725778 0
-0.0045469329 -0.13042577 0.006000455 0
-0.0012722107 -0.12932085 -0.0059995372 0
-0.001361941 -0.13031904 -0.0059995339 0
-0.0014621168 -0.13047524 0.0060004676 0
0.00060623192 -0.12912957 -0.0059995307 0
0.0014967599 -0.13041677 -0.0059995237 0
0.0013539309 -0.13048655 0.0060004792 0
0.0043832343 -0.1304042 -0.0059995116 0
0.006000001 -0.1318973 -0.00038021617 0
0.0059999819 -0.13087748 0.004916186 0
0.0046227383 -0.13045341 0.0060004895 0
0.006000015 -0.13044156 -0.0045465012 0
0.0060000042 -0.13051267 -0.0015835441 0
0.0059999963 -0.13040102 0.0013933136 0
0.005999987 -0.13071717 0.0042866021 0
-0.006000007 -0.12750924 0.0018430848 0
-0.0051935688 -0.12744246 -0.0054793069 0
-0.0059999949 -0.1274918 -0.001581785 0
-0.0060000066 -0.12756874 0.0014464287 0
-0.0060000168 -0.12761432 0.0044747777 0
-0.0041691987 -0.12781075 0.0060004466 0
-0.001465575 -0.12810527 -0.0059995418 0
-0.0015218952 -0.12773795 -0.0059995423 0
-0.0014803065 -0.12758246 0.0060004569 0
0.0015045295 -0.12751882 -0.0059995335 0
0.001637731 -0.12743717 0.006000469 0
0.0043052053 -0.12762904 -0.0059995251 0
0.0059999973 -0.12756976 0.0008038216 0
0.005999981 -0.12737118 0.0051463116 0
0.0044279937 -0.12752859 0.0060004788 0
0.0060000177 -0.12760872 -0.0043225219 0
0.0060000066 -0.12740596 -0.0014655979 0
0.0059999973 -0.12732238 0.0013711541 0
0.0059999847 -0.1276349 0.0044221468 0
-0.0060000094 -0.12416314 0.0024929305 0
-0.0060000196 -0.12427243 0.0053252582 0
-0.0053551164 -0.12507401 -0.0059995675 0
-0.0053245188 -0.1246014 -0.0052218488 0
-0.0059999949 -0.12467128 -0.0015781714 0
-0.0060000038 -0.12453056 0.0012995269 0
-0.0058677895 -0.12429014 0.0044152811 0
-0.0046422868 -0.12467074 0.006000435 0
-0.0024260941 -0.12483107 -0.0059995577 0
-0.0016970125 -0.1246029 -0.0059995572 0
-0.0014396854 -0.12462104 0.0060004494 0
0.0014836517 -0.12448222 -0.005999547 0
0.0012738734 -0.12439385 0.0060004531 0
0.0043675574 -0.12448293 -0.0059995358 0
0.004431881 -0.12458425 0.0060004666 0
0.0060000177 -0.12469268 -0.0044465559 0
0.006000007 -0.12453452 -0.0014875246 0
0.0059999977 -0.12427519 0.0012746515 0
0.0059999856 -0.12430242 0.0045753256 0
-0.0059999991 -0.12259203 -0.00034758454 0
-0.0060000075 -0.12124057 0.0019538964 0
-0.0060000187 -0.12153021 0.0049798354 0
-0.0043421555 -0.12084625 -0.0059995791 0
-0.005089208 -0.12154357 -0.0053844093 0
-0.0059999963 -0.12145596 -0.0014569237 0
-0.006000008 -0.12145019 0.0014139429 0
-0.0058615464 -0.12171247 0.0046143024 0
-0.0043228813 -0.12145254 0.0060004229 0
-0.00095305563 -0.12134038 -0.0059995647 0
-0.0013175858 -0.12125522 -0.0059995656 0
-0.0022537156 -0.12055651 0.0060004275 0
-0.0014969652 -0.12156626 0.0060004359 0
0.0012822184 -0.12143881 -0.0059995563 0
0.001658308 -0.1216262 0.0060004494 0
0.0045434828 -0.12135221 -0.0059995432 0
0.0059999917 -0.12079886 0.0023726125 0
0.0059999828 -0.12157282 0.004601683 0
0.0046159774 -0.12161821 0.0060004573 0
0.0060000173 -0.12134997 -0.0046086949 0
0.006000007 -0.12146064 -0.0015109022 0
0.0059999931 -0.12135354 0.0015061601 0
0.0059999852 -0.12155072 0.0045465576 0
-0.0059999996 -0.11917759 -0.00021828487 0
-0.006000007 -0.117769 0.0017986757 0
-0.006000015 -0.11954839 0.0040026349 0
-0.0039513209 -0.11808356 -0.0059995875 0
-0.0052860994 -0.1185597 -0.0051426599 0
-0.0059999926 -0.11826257 -0.0016455888 0
-0.0060000047 -0.11843988 0.0016364794 0
-0.0059218798 -0.11857997 0.0046461229 0
-0.0046053673 -0.11858538 0.006000415 0
-0.0020544992 -0.11854414 -0.0059995786 0
-0.0016880088 -0.1186107 -0.0059995763 0
-0.0023686953 -0.11806852 0.0060004191 0
-0.0014664392 -0.11864158 0.0060004275 0
0.0015502174 -0.11859465 -0.0059995656 0
0.0015228391 -0.11854799 0.006000434 0
0.0042782607 -0.1184458 -0.00599956 0
0.0059999898 -0.11985073 0.0027515166 0
0.0059999838 -0.11891393 0.0045442847 0
0.0044719568 -0.11837596 0.0060004434 0
0.0060000173 -0.11847554 -0.004376221 0
0.006000007 -0.11843542 -0.0015909995 0
0.0059999926 -0.11843108 0.0017182988 0
0.0059999819 -0.11869433 0.004557787 0
-0.0060000047 -0.11482904 0.0011343611 0
-0.0060000168 -0.11488132 0.0045368038 0
-0.004241968 -0.11486807 -0.0059996 0
-0.0053403894 -0.11531596 -0.0051864614 0
-0.0059999959 -0.11544475 -0.0015603089 0
-0.0060000066 -0.11545397 0.001725406 0
-0.0059539392 -0.11575974 0.0046125152 0
-0.0045236 -0.11559258 0.0060004024 0
-0.0025715816 -0.11655897 -0.0059995879 0
-0.0014503546 -0.11571693 -0.0059995875 0
-0.0019354009 -0.11562552 0.0060004112 0
-0.0013588287 -0.11552059 0.0060004126 0
0.001369561 -0.11544638 -0.0059995786 0
0.0014418771 -0.11551841 0.0060004238 0
0.0045758258 -0.11561386 -0.0059995661 0
0.0059999907 -0.11610597 0.0025307196 0
0.0059999865 -0.11575449 0.0035428654 0
0.0044437083 -0.11562842 0.006000435 0
0.0060000164 -0.11546042 -0.0045009572 0
0.0060000075 -0.11570596 -0.0016181336 0
0.0059999968 -0.11536998 0.0015686022 0
0.0059999833 -0.11552445 0.0043014223 0
-0.0060000098 -0.11316229 0.002575455 0
-0.0060000159 -0.11212099 0.0042127958 0
-0.0045198151 -0.11246045 -0.0059996098 0
-0.0051770685 -0.1124725 -0.0053481213 0
-0.005999994 -0.11267458 -0.0018335102 0
-0.0060000056 -0.11255384 0.0015260485 0
-0.0059293122 -0.11260934 0.0044076177 0
-0.004410712 -0.11254261 0.0060003912 0
-0.0026000307 -0.11260629 -0.0059996024 0
-0.0016855578 -0.11246498 -0.0059995977 0
-0.0015245521 -0.11238116 0.0060004042 0
0.0014539582 -0.11239012 -0.0059995865 0
0.001512422 -0.11245846 0.0060004126 0
0.0045581935 -0.11251824 -0.0059995768 0
0.0059999912 -0.11261836 0.0024763998 0
0.0059999814 -0.11275583 0.0050711823 0
0.0043545463 -0.11238199 0.006000421 0
0.0060000164 -0.11261757 -0.0045760772 0
0.0060000033 -0.11259486 -0.0013179363 0
0.0059999959 -0.11232767 0.0012334657 0
0.0059999861 -0.11247178 0.0044461382 0
-0.0060000224 -0.1103483 0.0059963916 0
-0.0038771585 -0.10976762 -0.0059996173 0
-0.0054167523 -0.10955893 -0.0051985788 0
-0.0059999945 -0.10943957 -0.0014054172 0
-0.0060000052 -0.10948455 0.001314903 0
-0.0059112636 -0.1094674 0.0046204259 0
-0.0045550698 -0.10937022 0.0060003782 0
-0.0010455626 -0.11039386 -0.0059996047 0
-0.0016114142 -0.10954764 -0.0059996112 0
-0.0026917129 -0.10975616 0.006000387 0
-0.0013909957 -0.10930222 0.0060003912 0
0.0013594631 -0.10951246 -0.0059996 0
0.0015414013 -0.10951198 0.0060004024 0
0.0045843809 -0.10959587 -0.0059995889 0
0.0059999893 -0.11045744 0.0028108917 0
0.0059999842 -0.10989703 0.0042312699 0
0.0046423441 -0.10938003 0.006000414 0
0.0060000177 -0.10954054 -0.0045476491 0
0.0060000066 -0.10931148 -0.001457443 0
0.0059999963 -0.10944498 0.0014019451 0
0.0059999828 -0.10938338 0.0044361884 0
-0.0060000066 -0.10614906 0.0016238493 0
-0.0060000182 -0.10657963 0.0049412739 0
-0.0047811815 -0.10668715 -0.0059996317 0
-0.0053659207 -0.10652574 -0.005187674 0
-0.0059999963 -0.10642174 -0.0016701313 0
-0.006000007 -0.10645875 0.0012809716 0
-0.0059138774 -0.10659923 0.0044917762 0
-0.0043317447 -0.10654472 0.0060003689 0
-0.0024139057 -0.10686795 -0.0059996224 0
-0.0016804833 -0.10645811 -0.0059996191 0
-0.0022893136 -0.10751652 0.0060003805 0
-0.0014195765 -0.10637217 0.0060003814 0
0.0015080937 -0.10663341 -0.005999608 0
0.0015248241 -0.10652632 0.0060003926 0
0.004507516 -0.1065082 -0.005999601 0
0.0059999847 -0.10643786 0.0042580781 0
0.004391809 -0.10653934 0.0060004052 0
0.0060000191 -0.10637786 -0.0046202396 0
0.0060000075 -0.10675078 -0.0015742281 0
0.0059999935 -0.1065422 0.0014400837 0
0.0059999856 -0.10655043 0.0043548564 0
-0.0060000061 -0.10444383 0.0015633007 0
-0.0060000177 -0.10373141 0.0048214146 0
-0.0040726443 -0.10415779 -0.0059996382 0
-0.0052816737 -0.10343627 -0.0051654154 0
-0.0059999982 -0.10369135 -0.001304561 0
-0.006000007 -0.1032952 0.0014969762 0
-0.0058895098 -0.10382876 0.0046153725 0
-0.0045533208 -0.10338302 0.0060003586 0
-0.00075902615 -0.10332579 -0.0059996294 0
-0.0015360052 -0.10372264 -0.0059996312 0
-0.002326803 -0.1036272 0.0060003665 0
-0.0015062649 -0.10354944 0.0060003693 0
0.0016642431 -0.10359981 -0.0059996205 0
0.0016259613 -0.10356887 0.0060003833 0
0.0044400399 -0.10350377 -0.0059996112 0
0.0059999893 -0.10317049 0.0028802508 0
0.0059999824 -0.10397486 0.0047492678 0
0.0045128926 -0.10354716 0.0060003898 0
0.0060000187 -0.10347681 -0.0046429033 0
0.0060000052 -0.10342108 -0.0014877275 0
0.0059999949 -0.10372774 0.0014868327 0
0.0059999865 -0.10347393 0.0043258923 0
-0.0060000061 -0.10002058 0.0015382902 0
-0.0060000215 -0.10031517 0.0058529079 0
-0.0046225865 -0.10058977 -0.0059996531 0
-0.005316921 -0.10046957 -0.0052179783 0
-0.0059999931 -0.1004293 -0.0015330336 0
-0.006000008 -0.10061 0.0015270227 0
-0.0059105884 -0.10024591 0.0046093534 0
-0.0044373986 -0.10039829 0.0060003465 0
-0.002375864 -0.10033634 -0.0059996457 0
-0.001406979 -0.10030294 -0.0059996438 0
-0.0027005428 -0.10174718 0.0060003581 0
-0.0014580464 -0.10070459 0.0060003581 0
0.0014046783 -0.10042094 -0.0059996326 0
0.0012256964 -0.10046192 0.0060003703 0
0.0044261012 -0.10036073 -0.0059996224 0
0.0059999921 -0.099588439 0.0020581714 0
0.0059999884 -0.099767648 0.003066245 0
0.0045520314 -0.10041203 0.0060003819 0
0.0060000187 -0.10046554 -0.004702271 0
0.006000008 -0.10045956 -0.001351668 0
0.0059999977 -0.10042653 0.0013061431 0
0.0059999814 -0.10032683 0.0047046086 0
-0.0060000108 -0.097724117 0.0028413776 0
-0.0060000177 -0.097205065 0.0047142045 0
-0.0053011929 -0.096933894 -0.0059996685 0
-0.0053267726 -0.097541831 -0.0051200013 0
-0.0059999968 -0.097340293 -0.0012963925 0
-0.0060000066 -0.097616322 0.0011931146 0
-0.005925105 -0.097668044 0.0045425193 0
-0.0044978093 -0.097427651 0.0060003377 0
-0.001283819 -0.097955056 -0.0059996508 0
-0.001441828 -0.097290792 -0.0059996527 0
-0.0020796021 -0.097357579 0.0060003446 0
-0.0013602002 -0.097461455 0.0060003484 0
0.0015965797 -0.097636923 -0.0059996406 0
0.0013505151 -0.09759929 0.0060003595 0
0.0046065734 -0.097453229 -0.0059996326 0
0.0059999903 -0.097897507 0.0025639229 0
0.0059999828 -0.098236032 0.004578162 0
0.0044593946 -0.097294196 0.0060003689 0
0.0060000177 -0.097619452 -0.0045290436 0
0.0060000075 -0.09750089 -0.001241227 0
0.0059999945 -0.09738645 0.0014015955 0
0.0059999847 -0.09729851 0.0045702853 0
-0.0060000061 -0.094591878 0.0016073374 0
-0.0060000159 -0.093861081 0.0042867386 0
-0.0044742436 -0.094913572 -0.0059996732 0
-0.0053748996 -0.094528005 -0.0051004682 0
-0.0059999954 -0.094656773 -0.0014365015 0
-0.0060000056 -0.094390839 0.0016634194 0
-0.0060000187 -0.094563484 0.0045102509 0
-0.0044890437 -0.094594561 0.0060003265 0
-0.0014788724 -0.093497552 -0.0059996671 0
-0.001423644 -0.094521731 -0.0059996652 0
-0.0022562116 -0.094710775 0.0060003339 0
-0.0015707351 -0.094699107 0.0060003377 0
0.0018503645 -0.094367951 -0.0059996503 0
0.0014551665 -0.094234698 0.0060003502 0
0.0048061023 -0.094462708 -0.0059996424 0
0.0059999912 -0.093896128 0.0023812712 0
0.0059999805 -0.094343722 0.0052226321 0
0.0045583718 -0.094702296 0.0060003605 0
0.0060000164 -0.094541989 -0.0044324938 0
0.006000007 -0.094404764 -0.001318255 0
0.0059999973 -0.09432365 0.0014521781 0
0.0059999847 -0.094447784 0.0044335988 0
-0.0060000201 -0.091330253 0.0054508308 0
-0.0041903718 -0.092596963 -0.0059996806 0
-0.0053608399 -0.0913179 -0.0051281666 0
-0.0059999968 -0.091423281 -0.0013155171 0
-0.006000007 -0.091579124 0.0014976271 0
-0.0059542898 -0.091376342 0.0046369033 0
-0.0044090417 -0.091507725 0.0060003167 0
-0.0014673184 -0.09144631 -0.0059996727 0
-0.0023356022 -0.091732077 0.0060003232 0
-0.0015227488 -0.09141551 0.0060003246 0
0.0016681846 -0.091670632 -0.0059996648 0
0.001566199 -0.091708831 0.00600034 0
0.0044161906 -0.091490246 -0.0059996555 0
0.0059999907 -0.09109246 0.0026180353 0
0.0059999828 -0.091742612 0.0046937177 0
0.0045490563 -0.091620333 0.0060003498 0
0.006000015 -0.091529764 -0.0044549517 0
0.0060000066 -0.091584906 -0.001456711 0
0.0059999963 -0.091389686 0.001472284 0
0.0059999875 -0.091540821 0.004552098 0
-0.0060000066 -0.0886086 0.0016143601 0
-0.0060000205 -0.087584965 0.0055740573 0
-0.0047813174 -0.08773414 -0.0059997002 0
-0.0053331386 -0.088515021 -0.0052468367 0
-0.0059999949 -0.088432364 -0.0015214599 0
-0.006000008 -0.088404506 0.0014757492 0
-0.0058306926 -0.088615298 0.0045342813 0
-0.0047426913 -0.088265285 0.0060003004 0
-0.0012113986 -0.088228591 -0.0059996853 0
-0.0013645324 -0.088308834 -0.0059996867 0
-0.0029464278 -0.089481927 0.006000313 0
-0.0014757286 -0.088295065 0.0060003158 0
0.0013863557 -0.088304065 -0.0059996778 0
0.001666341 -0.088579111 0.0060003265 0
0.0042933607 -0.088360302 -0.0059996652 0
0.0059999889 -0.087343164 0.0029090026 0
0.0059999833 -0.088680051 0.004510669 0
0.0046310369 -0.088555612 0.0060003386 0
0.0060000168 -0.088539697 -0.0044452972 0
0.0060000052 -0.088685259 -0.0014324969 0
0.0059999931 -0.088404268 0.0015311384 0
0.0059999828 -0.088456124 0.0042911838 0
-0.0060000094 -0.08621069 0.0024779581 0
-0.0060000164 -0.08537624 0.0044180118 0
-0.0050204736 -0.08593712 -0.0059997076 0
-0.0054451376 -0.085575663 -0.0051816842 0
-0.0059999954 -0.08558099 -0.0014101209 0
-0.0060000066 -0.085704535 0.0013770342 0
-0.0058636307 -0.085619651 0.0048043709 0
-0.004545134 -0.085158907 0.0060002916 0
-0.0018884202 -0.084116109 -0.005999703 0
-0.0016936359 -0.085789002 -0.0059996983 0
-0.0021297182 -0.085321881 0.0060003009 0
-0.001397526 -0.085508876 0.0060003041 0
0.0015529771 -0.085364774 -0.0059996857 0
0.0013566869 -0.085388511 0.0060003148 0
0.0045110076 -0.085399374 -0.0059996773 0
0.0059999814 -0.085659966 0.004983861 0
0.0046206843 -0.085597478 0.0060003269 0
0.0060000159 -0.085441366 -0.0044827289 0
0.0060000084 -0.085351348 -0.0017318616 0
0.0059999987 -0.085444607 0.0015150774 0
0.0059999838 -0.085556813 0.0044287704 0
-0.0060000052 -0.083889239 0.0013225428 0
-0.0060000168 -0.082870908 0.0044910549 0
-0.0042914627 -0.081825592 -0.0059997197 0
-0.005167196 -0.082463689 -0.0053570541 0
-0.0059999968 -0.082269944 -0.0015712184 0
-0.006000007 -0.082742766 0.0015492892 0
-0.0059782602 -0.082263567 0.0046858932 0
-0.0046116621 -0.082500592 0.0060002822 0
-0.0014813589 -0.082597993 -0.0059997053 0
-0.0015312961 -0.082638361 0.0060002948 0
0.0016382501 -0.08253707 -0.0059996955 0
0.0013442105 -0.082412697 0.0060003037 0
0.0045060185 -0.082458802 -0.0059996857 0
0.0059999907 -0.082977988 0.0024510587 0
0.0059999814 -0.082492866 0.0050718212 0
0.0044295378 -0.082363993 0.0060003144 0
0.0060000168 -0.08255516 -0.0045083635 0
0.0060000056 -0.082331732 -0.0017162102 0
0.0059999945 -0.082385175 0.0012274999 0
0.0059999828 -0.082784571 0.0044743777 0
-0.0060000094 -0.078903809 0.0024710577 0
-0.0060000159 -0.079621233 0.0042679613 0
-0.0046835127 -0.079261921 -0.0059997304 0
-0.0052149263 -0.07944449 -0.0052178679 0
-0.0059999954 -0.079661958 -0.0014642063 0
-0.0060000066 -0.079611808 0.0014283068 0
-0.0058604097 -0.079426043 0.0046746708 0
-0.0044924365 -0.079362527 0.0060002725 0
-0.0018722018 -0.08092425 -0.0059997146 0
-0.0014932167 -0.079470627 -0.0059997193 0
-0.0020648434 -0.079818584 0.0060002808 0
-0.0015661067 -0.079587907 0.0060002813 0
0.0013745045 -0.079457626 -0.0059997095 0
0.0017049283 -0.079313725 0.006000292 0
0.0043793889 -0.079509228 -0.0059996978 0
0.0059999907 -0.079119198 0.0024161933 0
0.0059999833 -0.079467192 0.0045593269 0
0.004624295 -0.079379149 0.0060003046 0
0.0060000182 -0.079640575 -0.004449653 0
0.0060000042 -0.079697415 -0.0016828976 0
0.0059999973 -0.079502471 0.0015474826 0
0.0059999852 -0.079570048 0.0044639283 0
-0.0060000075 -0.077445693 0.0019232162 0
-0.0060000168 -0.075612873 0.0044601965 0
-0.0047766399 -0.075632408 -0.0059997439 0
-0.0052464311 -0.076709099 -0.0052153049 0
-0.0059999963 -0.076681107 -0.0014672426 0
-0.0060000066 -0.076532349 0.0014247998 0
-0.0058640102 -0.07633815 0.0045002331 0
-0.0045475699 -0.076546237 0.0060002594 0
-0.0028505579 -0.076067612 -0.0059997356 0
-0.0013216602 -0.076496363 -0.00599973 0
-0.0023304648 -0.076995194 0.0060002701 0
-0.0012977258 -0.076364353 0.0060002725 0
0.0014100184 -0.076561175 -0.0059997183 0
0.0014254578 -0.076666102 0.0060002841 0
0.0044428161 -0.076568812 -0.0059997067 0
0.0059999903 -0.076168202 0.0025258823 0
0.0059999838 -0.076349124 0.0043351543 0
0.0044658044 -0.07630033 0.0060002948 0
0.0060000164 -0.076438427 -0.004840943 0
0.0060000038 -0.076305822 -0.0013386925 0
0.0059999945 -0.076428816 0.0015562157 0
0.0059999838 -0.076649882 0.0045651747 0
-0.0060000168 -0.07434845 0.0044775154 0
-0.0055631828 -0.072862886 -0.005999757 0
-0.0053105475 -0.073553406 -0.0051208637 0
-0.0059999963 -0.073447466 -0.0017221279 0
-0.0060000033 -0.073488057 0.0012854178 0
-0.0059758271 -0.07358256 0.0043717069 0
-0.0044503515 -0.073401831 0.006000251 0
-0.001501787 -0.073640466 -0.0059997411 0
-0.0012612956 -0.073431075 0.0060002613 0
0.001353503 -0.073420852 -0.0059997286 0
0.0012817566 -0.07361123 0.0060002734 0
0.0044415612 -0.073493056 -0.0059997202 0
0.00599998 -0.073267289 0.0053799185 0
0.0044009886 -0.073536232 0.0060002836 0
0.0060000191 -0.073564202 -0.0046581198 0
0.0060000066 -0.073566183 -0.0014481794 0
0.0059999973 -0.073458351 0.0013511555 0
0.0059999838 -0.073809788 0.0045710495 0
-0.0092328377 -0.069701225 -0.00096972688 0
-0.0092004528 -0.069522314 0.0013806261 0
-0.0065326151 -0.069737419 -0.0065384703 0
-0.0074642603 -0.06985499 -0.0043766345 0
-0.0076124612 -0.069974378 -0.0015809137 0
-0.00769391 -0.069976509 0.0016866444 0
-0.0074357451 -0.069854431 0.0045459224 0
-0.0065124477 -0.069594719 0.0065112994 0
-0.004384499 -0.069855385 -0.0073206141 0
-0.0052743754 -0.070890784 -0.0052379551 0
-0.0059999931 -0.071063198 -0.0014297254 0
-0.0060000033 -0.070963606 0.0013208423 0
-0.0058475658 -0.071038261 0.0045772023 0
-0.004437055 -0.070239231 0.0069102179 0
-0.0011655012 -0.069629394 -0.0092242444 0
-0.0015218211 -0.069992848 -0.007577036 0
-0.0013445455 -0.070930898 -0.0059997472 0
-0.0026372855 -0.071788758 0.0060002496 0
-0.0014535876 -0.070360377 0.0068649864 0
-0.0013405421 -0.069677092 0.0091981813 0
0.0013673297 -0.069745995 -0.0091943294 0
0.0017224124 -0.069975458 -0.0073974687 0
0.0013622452 -0.071045637 -0.0059997365 0
0.0014271555 -0.070316859 0.00708787 0
0.0013683877 -0.069674015 0.0091834301 0
0.0044521373 -0.069821127 -0.007432064 0
0.0047114557 -0.070931263 -0.0059997248 0
0.0059999917 -0.071511604 0.0021669434 0
0.0043915557 -0.070287123 0.0069242255 0
0.0063541923 -0.069739968 -0.0067032306 0
0.0068600778 -0.070260897 -0.0044291783 0
0.0068505597 -0.070355587 -0.0016941365 0
0.0069150282 -0.070389695 0.0016429971 0
0.0069777304 -0.07023263 0.0043284609 0
0.0063836505 -0.069797412 0.0064977976 0
0.0091584632 -0.06972184 -0.0014667364 0
0.0092198383 -0.069479644 0.0012853165 0
-0.0092186332 -0.067773491 -0.001431031 0
-0.0092414292 -0.067726046 0.0012582677 0
-0.006546265 -0.067432769 -0.0065906858 0
-0.0080295186 -0.067512095 -0.0046163234 0
-0.0089286938 -0.067997016 -0.0027937682 0
-0.0089123612 -0.067636631 0.0028318085 0
-0.0080953892 -0.067951366 0.0044821268 0
-0.0065558753 -0.067516789 0.0065847593 0
-0.0046682507 -0.067342952 -0.0079682544 0
-0.0045079198 -0.067599222 0.008093291 0
-0.0012393212 -0.067272097 -0.0092410296 0
-0.002786584 -0.067637227 -0.0089316713 0
-0.0028165604 -0.068196677 0.0089191375 0
-0.001318029 -0.067501493 0.0092330333 0
0.0013640024 -0.067401014 -0.0092275729 0
0.0027623898 -0.067522086 -0.0089421989 0
0.0028323662 -0.067332752 0.008912256 0
0.0012531952 -0.067555763 0.0092435963 0
0.004811944 -0.067554794 -0.0078963507 0
0.0044624633 -0.06732174 0.0081112487 0
0.0064869043 -0.0675883 -0.0066469125 0
0.0080765598 -0.067456506 -0.00450692 0
0.0088901715 -0.067192234 -0.0028823556 0
0.008922874 -0.066925794 0.0028076419 0
0.0080319699 -0.067485787 0.00458004 0
0.0065534511 -0.067157969 0.0065886271 0
0.0092275646 -0.067386083 -0.0013641451 0
0.0092274193 -0.067223601 0.001352224 0
-0.0092362845 -0.064367011 -0.00129 0
-0.0092185773 -0.064462289 0.0014190268 0
-0.0066031795 -0.064534292 -0.0065207747 0
-0.0080046766 -0.064442568 -0.004640603 0
-0.0089290012 -0.064848989 -0.0027930757 0
-0.0089376876 -0.06442681 0.0027735429 0
-0.0079522207 -0.064687796 0.0047180667 0
-0.0065376423 -0.064560682 0.0065951929 0
-0.0045796414 -0.064449348 -0.0080449022 0
-0.0046995552 -0.064482287 0.0079863137 0
-0.0011279871 -0.064688697 -0.0092545692 0
-0.0028441409 -0.064555809 -0.0089066578 0
-0.002807721 -0.064041816 0.0089229653 0
-0.0015268618 -0.064422287 0.0092055323 0
0.0014027555 -0.064404935 -0.0092189275 0
0.0028346821 -0.064784251 -0.008910777 0
0.0027955128 -0.065050691 0.008928271 0
0.0015900073 -0.06449192 0.0091929967 0
0.0044012857 -0.064493284 -0.0081400825 0
0.0044091311 -0.064377427 0.0081432434 0
0.0066374135 -0.064559318 -0.0064835199 0
0.0080038868 -0.064487554 -0.0046413266 0
0.0088967094 -0.065028585 -0.0028673247 0
0.0089328764 -0.064174607 0.0027846277 0
0.0081413286 -0.064616963 0.0044034421 0
0.0065413141 -0.064599648 0.0066010403 0
0.0092298398 -0.064516522 -0.0013315835 0
0.0092200264 -0.06436757 0.0013843084 0
-0.0092568593 -0.06147496 -0.0011281563 0
-0.0092126448 -0.061522942 0.0014872958 0
-0.0065470333 -0.061439756 -0.0065921922 0
-0.0079992805 -0.061591201 -0.0046350714 0
-0.0089475904 -0.061675023 -0.0027503292 0
-0.0089103151 -0.061270759 0.0028364896 0
-0.0080398899 -0.061439481 0.0045917337 0
-0.0066066133 -0.061601106 0.0065257219 0
-0.0046415562 -0.061560687 -0.0080081783 0
-0.0045965253 -0.061597489 0.0080299806 0
-0.001407049 -0.061163358 -0.0092231845 0
-0.0027140935 -0.061383124 -0.0089632114 0
-0.0028280956 -0.061973337 0.0089141 0
-0.0011982346 -0.061564483 0.0092473272 0
0.0012952728 -0.061764151 -0.0092326915 0
0.0027961109 -0.061562534 -0.0089275595 0
0.0028313587 -0.061265353 0.0089126714 0
0.0012427658 -0.061664827 0.0092439251 0
0.0044809314 -0.061594676 -0.0080924453 0
0.0044366298 -0.061477538 0.0081351073 0
0.006564029 -0.061627183 -0.0065677697 0
0.0079812892 -0.061586957 -0.0046732072 0
0.0089051696 -0.061639141 -0.0028478808 0
0.0089236889 -0.061919991 0.0028057492 0
0.0081300037 -0.061607745 0.0044255946 0
0.0067447247 -0.06167379 0.0064012813 0
0.0092416145 -0.061628524 -0.0012600094 0
0.0092371618 -0.061447568 0.0012761476 0
-0.0092477622 -0.058488704 -0.0011928995 0
-0.0092354752 -0.058526423 0.0012939184 0
-0.006641903 -0.058417358 -0.0064965808 0
-0.0080255643 -0.058554176 -0.0046048863 0
-0.0089111365 -0.057984781 -0.0028341846 0
-0.0089262472 -0.058725175 0.0027998358 0
-0.0081872568 -0.058482476 0.0043430263 0
-0.0065311901 -0.058526881 0.0065938607 0
-0.004661344 -0.05845461 -0.0079988446 0
-0.0044507873 -0.058313001 0.0081310533 0
-0.0013576279 -0.058432691 -0.0092278766 0
-0.0028788967 -0.058578096 -0.0088915685 0
-0.0028566469 -0.05812091 0.0089016734 0
-0.0014074857 -0.058629934 0.0092169065 0
0.001374284 -0.058471385 -0.0092259273 0
0.0028245628 -0.057920322 -0.0089152018 0
0.0028016202 -0.058373619 0.0089255907 0
0.0014021808 -0.058410525 0.0092224795 0
0.00467106 -0.058551926 -0.0079891663 0
0.0044997996 -0.058352102 0.0080833426 0
0.0065206932 -0.058509536 -0.0066143447 0
0.0080744727 -0.058539879 -0.0045212074 0
0.0088956794 -0.058181621 -0.0028697196 0
0.0089055896 -0.057768613 0.0028473623 0
0.0080894437 -0.058502872 0.0045014615 0
0.0066766068 -0.058273166 0.0064673452 0
0.0092318719 -0.058569793 -0.0013289836 0
0.0092307823 -0.058429189 0.0013158694 0
-0.0092292689 -0.05536152 -0.0013416538 0
-0.0092412047 -0.055604488 0.0012597485 0
-0.0065139788 -0.055038624 -0.0066318009 0
-0.0080634858 -0.055519845 -0.0045294575 0
-0.008918683 -0.05548051 -0.0028168377 0
-0.0089088539 -0.055712733 0.0028398333 0
-0.0080308793 -0.055474639 0.0046042288 0
-0.0065672607 -0.0555677 0.0065605091 0
-0.0045904536 -0.05549749 -0.0080485586 0
-0.0045866547 -0.055677172 0.0080236057 0
-0.0013850047 -0.055530433 -0.0092230048 0
-0.0028097872 -0.055484023 -0.0089216279 0
-0.0028314178 -0.055622455 0.0089126332 0
-0.0014249985 -0.055441272 0.0092191109 0
0.0011964695 -0.055567767 -0.0092461836 0
0.0028723443 -0.055466738 -0.0088944361 0
0.0028429052 -0.055641465 0.0089076301 0
0.00152625 -0.055345781 0.0092036156 0
0.0048120534 -0.055376105 -0.0079057291 0
0.004550471 -0.055374607 0.0080690654 0
0.0066407016 -0.055556275 -0.0064957296 0
0.0082154144 -0.055538639 -0.0042724502 0
0.0089200446 -0.055456415 -0.0028136873 0
0.0089046694 -0.055656884 0.0028494725 0
0.0080527598 -0.055541251 0.0045500817 0
0.006543634 -0.05567231 0.0065934584 0
0.0092109013 -0.055466816 -0.0014815157 0
0.0092429016 -0.055573408 0.0012321044 0
-0.009238991 -0.052558009 -0.0012517403 0
-0.0092255455 -0.052505475 0.0013807087 0
-0.0066530975 -0.05221165 -0.0064881667 0
-0.0079627931 -0.052352775 -0.004706596 0
-0.0089358855 -0.052896343 -0.002777284 0
-0.0089161657 -0.052677177 0.0028230033 0
-0.008146598 -0.052725438 0.0043817461 0
-0.0065305303 -0.052353617 0.0066020489 0
-0.0045580859 -0.052369755 -0.008051048 0
-0.0042937235 -0.052374743 0.0082116108 0
-0.0012332476 -0.052340403 -0.0092440946 0
-0.0028451427 -0.052459378 -0.0089062667 0
-0.0027012124 -0.052204583 0.0089692334 0
-0.0012977622 -0.052430443 0.0092356252 0
0.0013157285 -0.052433111 -0.0092326552 0
0.0028219647 -0.05257589 -0.0089163519 0
0.0028203581 -0.052534148 0.008917423 0
0.0010794926 -0.052521721 0.0092652515 0
0.0047223577 -0.052476097 -0.0079485737 0
0.0045661195 -0.052580636 0.0080508739 0
0.0066106706 -0.052481696 -0.0065222974 0
0.0081056748 -0.052328318 -0.0044644126 0
0.0088948337 -0.052669201 -0.0028716859 0
0.0089357384 -0.053273518 0.0027780063 0
0.0080481498 -0.052507322 0.0045736888 0
0.0064529222 -0.052668296 0.0066883769 0
0.0092163691 -0.052277151 -0.0014048055 0
0.0092217559 -0.052431099 0.0014061112 0
-0.0092199799 -0.049620483 -0.00139538 0
-0.0092391847 -0.049590074 0.001251284 0
-0.0066469712 -0.049570389 -0.0064850328 0
-0.0081316307 -0.049445376 -0.0044365092 0
-0.0089211734 -0.048866101 -0.0028111327 0
-0.0089482674 -0.049796358 0.0027491569 0
-0.008050276 -0.049471732 0.0045606517 0
-0.0064839525 -0.04921535 0.0066528656 0
-0.0045502489 -0.049569402 -0.0080595976 0
-0.0045157014 -0.049449094 0.0080746831 0
-0.0012208939 -0.049536224 -0.0092447689 0
-0.002797195 -0.049622439 -0.0089271236 0
-0.0027873428 -0.04910133 0.0089317728 0
-0.0013300679 -0.049361944 0.0092335977 0
0.0013625979 -0.049361948 -0.0092282128 0
0.0027379564 -0.049575921 -0.0089528868 0
0.0028332053 -0.049099948 0.0089118248 0
0.0012618395 -0.049404759 0.0092414115 0
0.0045765513 -0.049577679 -0.0080446387 0
0.0045171212 -0.049502298 0.0080723558 0
0.0064446419 -0.049491599 -0.0066789431 0
0.0079677431 -0.049674343 -0.0047245836 0
0.0088803424 -0.049342033 -0.0029050268 0
0.0089260861 -0.048998285 0.0028001901 0
0.0080133155 -0.049573973 0.0046194177 0
0.0064959293 -0.049339317 0.006648038 0
0.0092341648 -0.049472019 -0.001294923 0
0.0092419274 -0.049558457 0.0012632645 0
-0.0092159733 -0.046659805 -0.0014380204 0
-0.0092066312 -0.046585593 0.0015324239 0
-0.0066180853 -0.046521254 -0.0065052253 0
-0.0081364522 -0.046580926 -0.0044031036 0
-0.0089384411 -0.046108965 -0.0027714286 0
-0.0089161685 -0.046587311 0.0028229724 0
-0.0080708349 -0.046505071 0.0045159599 0
-0.0064486871 -0.046510853 0.0066852523 0
-0.0044245445 -0.046610981 -0.008124413 0
-0.0045912117 -0.046339247 0.0079989508 0
-0.0013076527 -0.046525318 -0.0092327567 0
-0.0028346046 -0.045990799 -0.0089108711 0
-0.0028541156 -0.046279691 0.0089027304 0
-0.0014815457 -0.046562511 0.0092109963 0
0.0013050676 -0.046487741 -0.009234638 0
0.0027256876 -0.046626758 -0.0089582326 0
0.0028569084 -0.045988828 0.0089015085 0
0.0014695026 -0.046347372 0.009211435 0
0.0045575886 -0.0463989 -0.0080577256 0
0.0046066795 -0.046373609 0.0080411034 0
0.0064683631 -0.046230119 -0.0066622049 0
0.0081453957 -0.046544161 -0.0043810215 0
0.0089054946 -0.046285111 -0.0028471872 0
0.0089202542 -0.046395186 0.0028135923 0
0.0080644581 -0.046321999 0.0045269448 0
0.0065309159 -0.04651944 0.0066054016 0
0.0092328954 -0.046433378 -0.0013251641 0
0.0092374086 -0.046393029 0.0012790352 0
-0.0092541175 -0.043285448 -0.0011379685 0
-0.009229634 -0.043517549 0.0013286474 0
-0.0065120333 -0.043623101 -0.0066173691 0
-0.0080650207 -0.043515235 -0.0045490768 0
-0.0089009479 -0.043383628 -0.0028576732 0
-0.0089217732 -0.043701485 0.0028100726 0
-0.0080450829 -0.043390013 0.0046046502 0
-0.0065583615 -0.043647494 0.0065674717 0
-0.0046699583 -0.043584045 -0.0079861591 0
-0.0045125056 -0.043420836 0.0080900025 0
-0.0012898307 -0.043625854 -0.0092374496 0
-0.0028496601 -0.043816589 -0.0089043342 0
-0.0028346588 -0.04324371 0.0089111794 0
-0.001306097 -0.043734793 0.0092335353 0
0.0013174977 -0.043478742 -0.0092316708 0
0.0028679541 -0.044126954 -0.0088963853 0
0.0028311661 -0.043369498 0.0089126909 0
0.0012451195 -0.043480143 0.0092423419 0
0.0046998272 -0.043508146 -0.0079823453 0
0.0043305266 -0.043246869 0.0081873499 0
0.0065254457 -0.043666329 -0.0066111689 0
0.007851759 -0.043450993 -0.0049010017 0
0.0089404406 -0.044120565 -0.0027668194 0
0.0088867107 -0.043941762 0.0028907347 0
0.008060487 -0.04344999 0.0045471452 0
0.0065482394 -0.043240651 0.0065882849 0
0.0092306482 -0.04366504 -0.001303984 0
0.0092427777 -0.043352988 0.0012524052 0
-0.009213578 -0.040494464 -0.0014530215 0
-0.0092191296 -0.040653959 0.0014192754 0
-0.0065614968 -0.040635359 -0.0065926923 0
-0.0079209963 -0.040606596 -0.0047751558 0
-0.0089413533 -0.040859312 -0.0027647505 0
-0.0088842856 -0.040314306 0.0028962819 0
-0.0080195833 -0.040635604 0.0046157143 0
-0.0065955929 -0.040494528 0.0065268842 0
-0.0045385608 -0.040386688 -0.0080479318 0
-0.0045762216 -0.040463317 0.0080484301 0
-0.0014018682 -0.040331934 -0.0092169521 0
-0.0028117837 -0.040050771 -0.0089208148 0
-0.0028288148 -0.040671978 0.0089137107 0
-0.0012743559 -0.040549997 0.0092391409 0
0.0013085081 -0.04025526 -0.0092335911 0
0.0027336064 -0.040947251 -0.008954809 0
0.0027485641 -0.040413216 0.0089485934 0
0.0014533717 -0.040546995 0.0092166187 0
0.0046628593 -0.040455263 -0.0079826247 0
0.0045482987 -0.040311877 0.0080766343 0
0.0065135104 -0.040414367 -0.0066215368 0
0.0080115022 -0.040318642 -0.0046041412 0
0.0089324154 -0.040374812 -0.0027852908 0
0.0088823056 -0.039895825 0.0029008524 0
0.0081043709 -0.040705822 0.004461938 0
0.0065315217 -0.04050903 0.0066012074 0
0.0092324661 -0.040331636 -0.0013151374 0
0.0092258034 -0.040494885 0.0013480651 0
-0.0092172381 -0.037370808 -0.0014372128 0
-0.009232807 -0.037188575 0.0013171191 0
-0.0066268048 -0.03723358 -0.0064915065 0
-0.0080400836 -0.037689123 -0.0045840624 0
-0.0089575266 -0.03755397 -0.0027275637 0
-0.0088856751 -0.037095826 0.0028930756 0
-0.0080148159 -0.037528399 0.0046153129 0
-0.006701088 -0.037523042 0.0064468039 0
-0.0045429715 -0.037585836 -0.0080592725 0
-0.0046988381 -0.037688348 0.0079798056 0
-0.0011828335 -0.037598956 -0.0092502609 0
-0.00281639 -0.037423007 -0.0089188227 0
-0.0028428056 -0.037457146 0.0089076161 0
-0.001110005 -0.037547637 0.0092593059 0
0.0014966648 -0.037461523 -0.0092089809 0
0.0027506512 -0.037914973 -0.0089474116 0
0.0027774947 -0.037619114 0.0089360038 0
0.0013155761 -0.037502255 0.0092305867 0
0.0046246271 -0.037558723 -0.0080165602 0
0.0046077515 -0.037585899 0.0080079883 0
0.0065214173 -0.037370518 -0.0065988507 0
0.0080437129 -0.03733417 -0.0045909742 0
0.0089277597 -0.037581667 -0.0027960076 0
0.0089015821 -0.03802171 0.0028565091 0
0.0080648232 -0.037562344 0.0045449813 0
0.0065821828 -0.037703231 0.0065636439 0
0.0092267059 -0.037418049 -0.0013616076 0
0.0092121363 -0.037685685 0.001485887 0
-0.0092448369 -0.034482129 -0.0012040827 0
-0.0092509482 -0.034517448 0.0011822657 0
-0.0065188333 -0.034521472 -0.0066102496 0
-0.0079821115 -0.034479752 -0.004656977 0
-0.0089373421 -0.03470958 -0.0027739971 0
-0.0089106653 -0.035170529 0.0028355888 0
-0.008089914 -0.034570429 0.0044802749 0
-0.0066441074 -0.034602508 0.0064892885 0
-0.0045666979 -0.034516059 -0.0080389548 0
-0.0045393095 -0.034556553 0.0080581829 0
-0.0013511521 -0.034548707 -0.0092251692 0
-0.0028348211 -0.034582619 -0.0089108199 0
-0.0027842647 -0.034501493 0.0089330571 0
-0.0013216424 -0.034363475 0.0092323637 0
0.001282179 -0.034659658 -0.0092394371 0
0.0028849656 -0.033665452 -0.0088890279 0
0.0027513304 -0.033895914 0.0089473668 0
0.0013257179 -0.034440365 0.0092313159 0
0.0047616777 -0.034484975 -0.0079222787 0
0.0046193362 -0.034404323 0.0080102226 0
0.0066267154 -0.034664299 -0.0065000192 0
0.0080300746 -0.034399316 -0.0045867185 0
0.0089159748 -0.034743007 -0.0028231263 0
0.0089074774 -0.034024876 0.0028429339 0
0.0080915717 -0.034477193 0.0045055565 0
0.0066008884 -0.034533948 0.0065389327 0
0.0092102168 -0.034540199 -0.0014790526 0
0.0091997376 -0.034427349 0.0015515165 0
-0.0092453035 -0.031312421 -0.0012161792 0
-0.0092318775 -0.031548161 0.0013154189 0
-0.0065670824 -0.031299878 -0.0065706521 0
-0.0081297038 -0.031451732 -0.0043898756 0
-0.0089268312 -0.031669077 -0.0027981829 0
-0.0089404928 -0.031867862 0.0027669745 0
-0.0080707539 -0.031508863 0.0045045218 0
-0.0064949701 -0.031642046 0.0066408245 0
-0.0044687674 -0.031606968 -0.0081046121 0
-0.0044033639 -0.03159298 0.0081270933 0
-0.0013636092 -0.031618327 -0.0092240842 0
-0.0028318132 -0.031519618 -0.0089121377 0
-0.0028627079 -0.031606536 0.0088989409 0
-0.0012082338 -0.031569067 0.0092469864 0
0.0013732298 -0.031598888 -0.0092266453 0
0.0027474365 -0.031800248 -0.00894883 0
0.0028587747 -0.032434892 0.0089006471 0
0.001186549 -0.031460498 0.0092497794 0
0.004665344 -0.031560741 -0.0080096731 0
0.0045516999 -0.031473652 0.0080556432 0
0.0064677936 -0.031592738 -0.0066681718 0
0.008037013 -0.031430554 -0.0045874501 0
0.0089057935 -0.031407814 -0.0028465539 0
0.0089414492 -0.031716935 0.0027647917 0
0.007979935 -0.031352736 0.0046890401 0
0.0065446775 -0.031446155 0.0065778513 0
0.0092445202 -0.031656642 -0.0012183026 0
0.0092670396 -0.031346381 0.0010400044 0
-0.0092157349 -0.028644368 -0.0014314348 0
-0.0092038624 -0.028497601 0.0015145959 0
-0.0066580893 -0.028414555 -0.0064877397 0
-0.0079892715 -0.028721999 -0.0046807975 0
-0.0089347316 -0.028958008 -0.0027800233 0
-0.0088791046 -0.028266715 0.0029081532 0
-0.0079717292 -0.028397223 0.0047052288 0
-0.0066170292 -0.028423602 0.0065241563 0
-0.0046510394 -0.028488167 -0.0079903156 0
-0.0046840431 -0.028582063 0.0080029881 0
-0.0012941497 -0.028456775 -0.0092350766 0
-0.0028179351 -0.02900693 -0.0089181801 0
-0.0028773681 -0.029092945 0.0088925576 0
-0.0012654505 -0.028701488 0.009239099 0
0.0010276965 -0.028735975 -0.0092710564 0
0.0028293228 -0.02877745 -0.0089132385 0
0.0028381054 -0.028215224 0.0089096185 0
0.001524171 -0.028523656 0.0092021311 0
0.0044845599 -0.028495437 -0.0080913119 0
0.0045870612 -0.028801277 0.0080325939 0
0.0064994995 -0.028639529 -0.0066249049 0
0.0080379136 -0.028589539 -0.0045853108 0
0.0089157335 -0.028687324 -0.0028237023 0
0.0089150956 -0.028549533 0.0028253954 0
0.0080552623 -0.028535679 0.0045644059 0
0.0065965913 -0.028782254 0.0065369643 0
0.0092119798 -0.02856956 -0.0014713462 0
0.0092159519 -0.028520467 0.0014397749 0
-0.0092177335 -0.02545687 -0.0014268585 0
-0.0092308093 -0.025666364 0.0013304002 0
-0.0066070049 -0.025785062 -0.006535654 0
-0.008062697 -0.025485191 -0.0045430935 0
-0.0089264056 -0.026378917 -0.002799181 0
-0.0089552077 -0.025063587 0.0027331088 0
-0.0080329049 -0.02544455 0.0045953174 0
-0.0065599419 -0.025705786 0.006578315 0
-0.0045657028 -0.025409669 -0.0080609042 0
-0.0043319114 -0.025574792 0.0081860656 0
-0.0012704218 -0.025414638 -0.0092391716 0
-0.0028280609 -0.02566045 -0.0089137908 0
-0.0028366831 -0.025466176 0.0089102341 0
-0.001516811 -0.025523946 0.0092047872 0
0.001449607 -0.025609594 -0.0092132865 0
0.0027943384 -0.025201941 -0.008928461 0
0.0028373606 -0.025167681 0.0089099323 0
0.001305642 -0.025498798 0.0092364093 0
0.0044403458 -0.025732895 -0.0081168246 0
0.0046991664 -0.02575396 0.0079592448 0
0.0066039781 -0.025729856 -0.0065305913 0
0.0081252521 -0.025632812 -0.0044363816 0
0.0089344289 -0.025462069 -0.0027807157 0
0.0089048389 -0.025137523 0.0028489707 0
0.0080865407 -0.02540149 0.0044908663 0
0.0066225771 -0.025575703 0.0065189544 0
0.0092411023 -0.02548469 -0.0012409142 0
0.0092351725 -0.025509261 0.0012991306 0
-0.0092482511 -0.022439819 -0.0011809083 0
-0.0092400257 -0.022601472 0.0012725376 0
-0.0064657256 -0.022342799 -0.0066789296 0
-0.0080066007 -0.022329135 -0.0046248562 0
-0.0089080604 -0.022639647 -0.0028413902 0
-0.0089200428 -0.02225304 0.0028139753 0
-0.008070929 -0.022500178 0.004501651 0
-0.0065606013 -0.022482617 0.0065690558 0
-0.0045153424 -0.022420345 -0.0080657359 0
-0.0045840722 -0.022488818 0.0080516711 0
-0.0012570365 -0.022362698 -0.0092389658 0
-0.0028995043 -0.022897946 -0.0088827386 0
-0.0027942478 -0.022556694 0.0089286743 0
-0.0012643329 -0.022397345 0.0092386911 0
0.0013810021 -0.022214033 -0.0092239892 0
0.0027911474 -0.022338597 -0.0089298589 0
0.0028320053 -0.022646695 0.0089122504 0
0.0013201801 -0.022338463 0.0092323711 0
0.0047764285 -0.022467902 -0.0079222349 0
0.0046475544 -0.022465402 0.0079763308 0
0.0065906052 -0.022397412 -0.006534358 0
0.0080613 -0.022332408 -0.004542911 0
0.0089146448 -0.022168214 -0.0028262273 0
0.0089227194 -0.022957534 0.00280784 0
0.008117646 -0.022694666 0.0044636349 0
0.0065683951 -0.022490533 0.0065718237 0
0.0092313597 -0.02245147 -0.001329881 0
0.00921218 -0.022578912 0.0014726572 0
-0.0092442082 -0.01968471 -0.001221402 0
-0.009233796 -0.019540586 0.001314662 0
-0.0065900697 -0.019741209 -0.0065608113 0
-0.0080697201 -0.019341569 -0.0045013786 0
-0.0088912994 -0.019351527 -0.0028799502 0
-0.0089073973 -0.019846756 0.0028430538 0
-0.0079991836 -0.019626169 0.0046392269 0
-0.0065134037 -0.019575519 0.0066201561 0
-0.0045747664 -0.019442348 -0.0080391066 0
-0.004588712 -0.01931113 0.0080135055 0
-0.0013351801 -0.019450102 -0.009226555 0
-0.0027824489 -0.019315695 -0.0089336447 0
-0.0028039671 -0.019259674 0.0089244358 0
-0.0014733268 -0.019435089 0.0092119295 0
0.001352525 -0.019317765 -0.0092308652 0
0.0028025522 -0.020244211 -0.0089249089 0
0.0028439965 -0.01989123 0.0089070257 0
0.0013937006 -0.019576231 0.0092188781 0
0.0045878165 -0.019600892 -0.008029351 0
0.0046632541 -0.019644413 0.0079980744 0
0.0065032504 -0.019480655 -0.0066241072 0
0.0080893738 -0.019660715 -0.0045286608 0
0.0089532668 -0.01903308 -0.0027374106 0
