# .PCD v0.7 - Point Cloud Data file format
VERSION 0.7
FIELDS x y z rgb
SIZE 4 4 4 4
TYPE F F F F
COUNT 1 1 1 1
WIDTH 1173
HEIGHT 1
VIEWPOINT 0 0 0 1 0 0 0
POINTS 1173
DATA ascii
-0.0086156912 -0.1453808 -0.0050340449 0
-0.0085875634 -0.14534539 0.0050813332 0
-0.007095763 -0.14540012 0.0069638905 0
-0.0036174599 -0.14576299 -0.0092755305 0
-0.0050091161 -0.14560036 -0.0086189248 0
-0.0050832247 -0.14550766 0.0085649379 0
-0.0037249501 -0.14545321 0.0092317974 0
-0.0013786436 -0.14555319 -0.0098337708 0
-0.0015908591 -0.14547734 0.0098075289 0
0.0016201751 -0.14555572 -0.0099994661 0
0.0014893154 -0.1454743 0.010000532 0
0.0046511646 -0.14559866 -0.009999455 0
0.0045144227 -0.14516298 0.010000542 0
0.0074111857 -0.14537913 -0.0099994466 0
0.0076129143 -0.14555752 0.010000555 0
0.0096151475 -0.14586113 -0.0097934706 0
0.010000026 -0.14550747 -0.0076470417 0
0.010000015 -0.145566 -0.0046212394 0
0.010000004 -0.14522544 -0.0014770915 0
0.0099999942 -0.14568415 0.0016421551 0
0.0099999812 -0.14550501 0.0044553094 0
0.0099999709 -0.14547561 0.0075930906 0
0.0098274127 -0.14574286 0.0095719239 0
-0.0093054241 -0.14234823 -0.0035464684 0
-0.0098270075 -0.14238217 -0.0014087162 0
-0.009828452 -0.14256498 0.0014272125 0
-0.0092618717 -0.14265846 0.0036520227 0
-0.0071225488 -0.14216319 -0.0069460557 0
-0.0083938893 -0.14227885 -0.0053680213 0
-0.0085529136 -0.14229192 0.0051475088 0
-0.0068986067 -0.14256817 0.0071448809 0
-0.0038179511 -0.14227216 -0.0091920048 0
-0.0051048519 -0.14283894 -0.008554833 0
-0.0052209911 -0.14294274 0.0084848227 0
-0.0036746706 -0.14255714 0.0092527382 0
-0.0016018067 -0.14235166 -0.0098035643 0
-0.0017789095 -0.1423445 0.0097826608 0
0.0015447354 -0.14253327 -0.0099994773 0
0.0014957639 -0.14241928 0.01000052 0
0.0046177176 -0.14264818 -0.009999468 0
0.0046114512 -0.14250053 0.010000532 0
0.0075604105 -0.14220835 -0.0099994568 0
0.0072350726 -0.1425885 0.010000541 0
0.009664231 -0.14270464 -0.0097844601 0
0.010000028 -0.1423962 -0.0076382477 0
0.010000016 -0.14236292 -0.0044527669 0
0.010000005 -0.14286695 -0.0016043631 0
0.0099999923 -0.14258234 0.0015388308 0
0.009999983 -0.14227079 0.0049379827 0
0.0099999728 -0.14254253 0.0075525534 0
0.0097683519 -0.14259005 0.0097472593 0
-0.0093113426 -0.13969287 -0.0035322756 0
-0.0098040663 -0.13960342 -0.0016114574 0
-0.0098279053 -0.13940544 0.001401583 0
-0.0092772087 -0.13953519 0.0036152028 0
-0.0069753081 -0.13949154 -0.0070758797 0
-0.0085702986 -0.13945809 -0.0050961073 0
-0.0084598232 -0.13965824 0.0052580279 0
-0.0069996645 -0.13952777 0.0070476718 0
-0.0038370213 -0.13981292 -0.009184069 0
-0.0051711728 -0.13964954 -0.0085289618 0
-0.0051567629 -0.13937005 0.0085380385 0
-0.0036722957 -0.13960259 0.009253718 0
-0.0014582418 -0.13967109 -0.0098229144 0
-0.0013166559 -0.13942459 0.0098406933 0
0.0017003299 -0.13948414 -0.0099994866 0
0.0014020222 -0.13939331 0.01000051 0
0.0044349032 -0.1395608 -0.0099994792 0
0.0044550654 -0.13948648 0.01000052 0
0.0077890856 -0.13950607 -0.0099994689 0
0.0077041378 -0.13951214 0.010000532 0
0.0097911377 -0.1395091 -0.0097621866 0
0.010000026 -0.13943696 -0.00749458 0
0.010000015 -0.13950886 -0.0045789154 0
0.010000008 -0.13964389 -0.0017207242 0
0.0099999933 -0.13948014 0.0015968126 0
0.0099999821 -0.13933221 0.0045351679 0
0.0099999728 -0.13932453 0.007846674 0
0.0097782323 -0.14032537 0.0096702883 0
-0.0091822799 -0.13649908 -0.0038420351 0
-0.0098237153 -0.13657001 -0.0015260045 0
-0.009797141 -0.13633309 0.0015839101 0
-0.0092885289 -0.13645582 0.0035880241 0
-0.0071271406 -0.13638541 -0.0069345916 0
-0.0085975612 -0.13640139 -0.0050577959 0
-0.0084361201 -0.13649544 0.0053050411 0
-0.0070814732 -0.13654575 0.0069726026 0
-0.0035858464 -0.13682008 -0.0092887348 0
-0.0051918454 -0.13651615 -0.0085162362 0
-0.0052692089 -0.1365151 0.0084612081 0
-0.0035690218 -0.13674055 0.0092967367 0
-0.0018843238 -0.13644069 -0.0097773913 0
-0.0014727205 -0.13614476 0.0098301014 0
0.0014310048 -0.13674995 -0.0099994969 0
0.0015229533 -0.13651006 0.010000501 0
0.0043469598 -0.13680984 -0.0099994866 0
0.0043336679 -0.13664338 0.010000509 0
0.0074382224 -0.13651378 -0.0099994773 0
0.0073928689 -0.13654119 0.010000519 0
0.009750356 -0.13648565 -0.0096859252 0
0.010000028 -0.13622662 -0.0073823272 0
0.010000017 -0.13668776 -0.00421962 0
0.010000002 -0.13652676 -0.0013574102 0
0.0099999933 -0.13635361 0.0018752065 0
0.0099999849 -0.1359445 0.0046653808 0
0.0099999718 -0.13642599 0.0073933508 0
0.0096143698 -0.13664894 0.0098591894 0
-0.0093325721 -0.13342041 -0.0034813485 0
-0.0098460503 -0.13358985 -0.0012685653 0
-0.00977844 -0.13373545 0.0017711408 0
-0.0092134671 -0.13296543 0.0037681616 0
-0.0070494944 -0.13346763 -0.0070407302 0
-0.0084685124 -0.13384047 -0.005257023 0
-0.0085011562 -0.13374572 0.0051979688 0
-0.0069465321 -0.1335748 0.0071261544 0
-0.0035625861 -0.13346447 -0.0092984391 0
-0.0051734424 -0.13350263 -0.0085295849 0
-0.0050956053 -0.13350132 0.0085768774 0
-0.0036462212 -0.1334811 0.0092645595 0
-0.0015201024 -0.13337667 -0.0098162526 0
-0.001492838 -0.1335115 0.0098262606 0
0.0012273259 -0.13353378 -0.0099995099 0
0.0017893721 -0.13347627 0.010000489 0
0.0046528727 -0.13378216 -0.0099994997 0
0.0043609859 -0.13349399 0.010000498 0
0.0076813092 -0.13353273 -0.0099994903 0
0.0072775041 -0.1333091 0.010000507 0
0.0097847935 -0.13334401 -0.0097205602 0
0.010000029 -0.13341215 -0.0076020961 0
0.010000015 -0.13340537 -0.0046088076 0
0.010000004 -0.13331483 -0.0014261458 0
0.0099999942 -0.13346906 0.0015715266 0
0.0099999821 -0.13338763 0.004607236 0
0.0099999746 -0.13364771 0.0073025436 0
0.0096785175 -0.13312612 0.0098235663 0
-0.009247737 -0.1302771 -0.0036849612 0
-0.0098182373 -0.1304363 -0.0015215924 0
-0.0098606981 -0.13081206 0.0011845939 0
-0.009218201 -0.13040376 0.0037567909 0
-0.0070207273 -0.13039394 -0.0070512258 0
-0.0085187079 -0.13069361 -0.0051551224 0
-0.0084961876 -0.130229 0.0052237147 0
-0.0071404935 -0.13039321 0.006940241 0
-0.0036635543 -0.13051933 -0.0092563797 0
-0.0051319422 -0.13052617 -0.0085568968 0
-0.0049470146 -0.13044137 0.0086639225 0
-0.0038464663 -0.13058046 0.009181113 0
-0.0017016021 -0.13062426 -0.0097872643 0
-0.0014527183 -0.13039993 0.0098282369 0
0.0013388788 -0.13052772 -0.0099995239 0
0.0015631639 -0.13050033 0.010000475 0
0.0045167878 -0.13049227 -0.009999509 0
0.0042490358 -0.130578 0.010000488 0
0.0077168765 -0.1305566 -0.0099994987 0
0.0074558626 -0.13040069 0.010000496 0
0.0098090982 -0.13053025 -0.0096696224 0
0.010000027 -0.13059996 -0.0075497227 0
0.010000013 -0.13040522 -0.0044152727 0
0.010000004 -0.13040559 -0.0015086925 0
0.0099999914 -0.130555 0.0016816974 0
0.0099999802 -0.13080585 0.0047464338 0
0.0099999728 -0.13016285 0.0077489675 0
0.0097302748 -0.13074574 0.0096950307 0
-0.0092725046 -0.12740433 -0.0036255296 0
-0.0098160431 -0.12751456 -0.0015394066 0
-0.0098188845 -0.12766522 0.0014828459 0
-0.0092006531 -0.12747373 0.0037988953 0
-0.0071792952 -0.12732401 -0.0068935743 0
-0.0084948782 -0.12778907 -0.0052137943 0
-0.0084972791 -0.12726353 0.0052240076 0
-0.0070396606 -0.12744059 0.0070156874 0
-0.0036949741 -0.12773253 -0.0092432983 0
-0.0051794234 -0.12748499 -0.008514449 0
-0.0052448423 -0.127443 0.0084709432 0
-0.0037187387 -0.12736554 0.0092343204 0
-0.0015118507 -0.12743491 -0.0098190922 0
-0.001204213 -0.12760165 0.0098525817 0
0.0014718394 -0.12755395 -0.0099995295 0
0.0013905305 -0.1274924 0.010000467 0
0.0044255559 -0.12712681 -0.0099995239 0
0.0042718514 -0.12739532 0.010000474 0
0.0076864944 -0.12751566 -0.0099995071 0
0.0075840042 -0.12747659 0.010000486 0
0.0097550843 -0.12788124 -0.0096387062 0
0.010000029 -0.1274855 -0.0078717805 0
0.010000017 -0.1274437 -0.0044593238 0
0.010000005 -0.12738715 -0.0014450825 0
0.0099999961 -0.12727229 0.0016172008 0
0.0099999839 -0.12733106 0.0046118884 0
0.0099999709 -0.12761228 0.0075962362 0
0.0097439326 -0.12753959 0.0098142866 0
-0.0092778215 -0.12491196 -0.0036127821 0
-0.0098243533 -0.12442676 -0.0014682483 0
-0.0098217158 -0.12421641 0.0014607395 0
-0.0092892796 -0.12442877 0.0035861763 0
-0.0069795158 -0.12472998 -0.0070865992 0
-0.0085119735 -0.12440144 -0.0051699728 0
-0.0086899726 -0.12434298 0.0049210475 0
-0.0066425488 -0.12445121 0.007389897 0
-0.0036694938 -0.12423133 -0.0092539275 0
-0.0052239513 -0.12425679 -0.0085061966 0
-0.0051768096 -0.12455515 0.0085104583 0
-0.0036970009 -0.12394336 0.0092433663 0
-0.0018173025 -0.12462718 -0.0097765094 0
-0.001331542 -0.12455317 0.0098438915 0
0.0015789062 -0.12474994 -0.0099995406 0
0.0014934244 -0.1244985 0.010000455 0
0.0046599968 -0.12459401 -0.0099995323 0
0.0044308919 -0.12467022 0.010000465 0
0.0076973173 -0.12450011 -0.0099995211 0
0.007265111 -0.12448416 0.010000475 0
0.0098126056 -0.12423351 -0.0096774381 0
0.010000025 -0.12435751 -0.0072762212 0
0.010000014 -0.12451129 -0.0044058831 0
0.010000004 -0.12466422 -0.0013329922 0
0.0099999933 -0.12447317 0.001421022 0
0.0099999839 -0.12452973 0.0045754295 0
0.0099999728 -0.12427164 0.0072528752 0
0.0098410305 -0.12467168 0.0098470096 0
-0.009211692 -0.12161026 -0.0037715023 0
-0.0098089371 -0.12148298 -0.0015740979 0
-0.0098168906 -0.12144738 0.0014971906 0
-0.0092967674 -0.12142464 0.0035681953 0
-0.007098278 -0.12138645 -0.0069569829 0
-0.0085658524 -0.12166271 -0.0051192404 0
-0.0085576959 -0.12171763 0.0051250653 0
-0.0070218896 -0.12149858 0.0070769479 0
-0.0036474664 -0.12146857 -0.0092631159 0
-0.0052681551 -0.12167273 -0.0084652957 0
-0.0051417798 -0.12154632 0.0085426616 0
-0.0036180639 -0.12153117 0.0092762485 0
-0.0013625417 -0.12148063 -0.0098390207 0
-0.001559991 -0.12166987 0.0098136794 0
0.0014683012 -0.12144379 -0.0099995527 0
0.0016444619 -0.12150615 0.010000445 0
0.0047067543 -0.12141503 -0.0099995444 0
0.0043581915 -0.12159108 0.010000454 0
0.007666179 -0.12140505 -0.0099995304 0
0.0072615035 -0.1215561 0.010000465 0
0.009754261 -0.12134707 -0.0098227523 0
0.010000027 -0.12116785 -0.0076483102 0
0.010000014 -0.12142909 -0.0044432743 0
0.010000005 -0.12140092 -0.0013254759 0
0.0099999942 -0.12124814 0.0012118386 0
0.0099999812 -0.12143221 0.0045766621 0
0.0099999728 -0.12149726 0.0080223121 0
0.0097421622 -0.1213568 0.0097165862 0
-0.0091638835 -0.11855196 -0.0038862522 0
-0.0098138954 -0.11816089 -0.0015527644 0
-0.0098479828 -0.11819967 0.001280211 0
-0.0092624323 -0.11864156 0.0036505943 0
-0.0072043184 -0.11857453 -0.0068408782 0
-0.0084636761 -0.11855415 -0.0052528912 0
-0.0085743126 -0.11865977 0.0050734174 0
-0.0070088403 -0.11848596 0.0070642689 0
-0.0036902386 -0.11840764 -0.0092453053 0
-0.0051269694 -0.11850429 -0.0085460395 0
-0.0052488735 -0.11840785 0.0084581347 0
-0.0035123599 -0.11833775 0.0093202796 0
-0.0012189685 -0.11856262 -0.0098469984 0
-0.0014545857 -0.11838445 0.0098242536 0
0.0013998315 -0.11878686 -0.0099995658 0
0.0013708383 -0.11843041 0.010000434 0
0.0042859716 -0.1185694 -0.0099995527 0
0.0043302579 -0.11838395 0.010000446 0
0.0075047747 -0.11877318 -0.0099995444 0
0.0075010941 -0.11859506 0.010000454 0
0.0098389704 -0.11840723 -0.0096768076 0
0.010000027 -0.11867198 -0.0075357552 0
0.010000018 -0.11901744 -0.0045625898 0
0.010000004 -0.11859608 -0.0016309443 0
0.0099999933 -0.11851309 0.0018145931 0
0.0099999821 -0.11863177 0.004636196 0
0.0099999728 -0.11841452 0.0075416234 0
0.0097494349 -0.11873742 0.0097621297 0
-0.0092488276 -0.11552492 -0.0036823966 0
-0.0097892834 -0.11546036 -0.0017410701 0
-0.0098177632 -0.11562373 0.0015329901 0
-0.0092886426 -0.11579891 0.0035876743 0
-0.006883326 -0.11556693 -0.0071897474 0
-0.0084706387 -0.11565318 -0.0052441275 0
-0.0084989024 -0.1154973 0.0051991851 0
-0.0070252088 -0.11561525 0.0070457752 0
-0.0035696155 -0.11565926 -0.0092955735 0
-0.0050384137 -0.11555181 -0.0085994704 0
-0.0052021379 -0.11546998 0.0084959855 0
-0.0037183883 -0.11561262 0.0092344256 0
-0.0015242047 -0.11552877 -0.0098194601 0
-0.0015417961 -0.11572191 0.00981599 0
0.001505021 -0.11559997 -0.0099995742 0
0.0013407607 -0.11565457 0.010000424 0
0.0045771664 -0.11530448 -0.0099995658 0
0.0042925673 -0.11579006 0.010000437 0
0.0074551431 -0.11551854 -0.0099995518 0
0.0075939842 -0.11533751 0.010000443 0
0.0097582992 -0.11536606 -0.0096526835 0
0.010000026 -0.11554685 -0.0074524861 0
0.010000017 -0.11562283 -0.0050252476 0
0.010000005 -0.11572548 -0.0013847745 0
0.0099999951 -0.1158638 0.0014507542 0
0.0099999839 -0.11543314 0.0045409007 0
0.0099999709 -0.11577649 0.0075855781 0
0.0097290836 -0.11565708 0.0097989123 0
-0.0092793358 -0.11302937 -0.0036091851 0
-0.0098206075 -0.11222082 -0.0014636209 0
-0.0098549686 -0.11254051 0.0012298527 0
-0.009264024 -0.11270352 0.0036467507 0
-0.0069383984 -0.11243412 -0.0071454514 0
-0.0085323416 -0.11249359 -0.0051662894 0
-0.0085490448 -0.11268692 0.0051360507 0
-0.0071294103 -0.11244358 0.006964989 0
-0.0036336568 -0.11249458 -0.0092689013 0
-0.0051767542 -0.11257315 -0.0085173463 0
-0.0051315497 -0.11261703 0.0085433787 0
-0.0037388119 -0.11260633 0.0092259031 0
-0.001866825 -0.11276425 -0.0097704688 0
-0.0016306917 -0.11247479 0.0098030027 0
0.0015617142 -0.11242867 -0.0099995844 0
0.0017808574 -0.11232487 0.01000041 0
0.0046340898 -0.11250852 -0.0099995742 0
0.004549549 -0.11254982 0.010000421 0
0.0076518906 -0.11255842 -0.0099995621 0
0.0074285083 -0.11282292 0.010000437 0
0.0098294932 -0.11269048 -0.0096406965 0
0.010000027 -0.11237856 -0.0076986249 0
0.010000015 -0.11248582 -0.0044690296 0
0.010000005 -0.11268444 -0.0016655495 0
0.0099999923 -0.11253164 0.0014733647 0
0.009999983 -0.11238991 0.0046109664 0
0.0099999709 -0.11241002 0.0073644458 0
0.0097368024 -0.11256171 0.0097894054 0
-0.0092597101 -0.1094614 -0.0036563037 0
-0.009810186 -0.10948086 -0.0015298915 0
-0.0097915586 -0.10936219 0.0017212435 0
-0.0092888093 -0.10970023 0.0035872541 0
-0.0069919317 -0.10998689 -0.0070664217 0
-0.00845508 -0.1098333 -0.0052690031 0
-0.0085771931 -0.10944948 0.005080014 0
-0.00701433 -0.10979464 0.0070569855 0
-0.0036668251 -0.10952791 -0.0092550926 0
-0.0053434093 -0.10903212 -0.0084002856 0
-0.0049694213 -0.10918477 0.0086408639 0
-0.0037917008 -0.10918947 0.0092038522 0
-0.0016910288 -0.10927147 -0.0097967964 0
-0.0016506211 -0.10950197 0.0097963857 0
0.0014232337 -0.10957615 -0.0099995993 0
0.0015039388 -0.10948604 0.010000404 0
0.004506324 -0.10951469 -0.0099995872 0
0.0044058193 -0.10982216 0.010000411 0
0.0078364098 -0.10919299 -0.0099995779 0
0.0073466422 -0.10951208 0.010000424 0
0.0098429471 -0.10954291 -0.0096928971 0
0.010000029 -0.10973009 -0.0076635443 0
0.010000016 -0.10961667 -0.0045179259 0
0.010000004 -0.1096411 -0.0017236238 0
0.0099999942 -0.10930729 0.0012608814 0
0.0099999839 -0.10934751 0.004187284 0
0.0099999728 -0.10947253 0.0074667959 0
0.0096991109 -0.10959453 0.009793424 0
-0.0092389081 -0.10631251 -0.0037062396 0
-0.0098454785 -0.10617135 -0.0012841647 0
-0.0098514352 -0.10658241 0.0012265736 0
-0.0092869317 -0.10613386 0.0035917473 0
-0.0070349327 -0.10623359 -0.0070431852 0
-0.0084615219 -0.10667472 -0.0052677132 0
-0.0085448595 -0.10635988 0.0051553538 0
-0.0070166192 -0.10654705 0.0070602316 0
-0.0035885589 -0.10660576 -0.009287714 0
-0.0049975044 -0.1063272 -0.00862482 0
-0.0051929154 -0.10643534 0.0085118776 0
-0.0037582724 -0.10727105 0.0092177764 0
-0.0013291795 -0.10627721 -0.0098442882 0
-0.0012905429 -0.10664465 0.0098462682 0
0.0015123105 -0.10623499 -0.0099996105 0
0.0014161514 -0.10696843 0.010000395 0
0.0043134307 -0.10626965 -0.0099995984 0
0.0046705483 -0.10608169 0.010000401 0
0.007771675 -0.10652225 -0.0099995844 0
0.0076076738 -0.1067197 0.010000414 0
0.0098839365 -0.10638887 -0.009646887 0
0.010000026 -0.10654251 -0.0074468199 0
0.010000017 -0.10659999 -0.0046445359 0
0.010000002 -0.10651764 -0.0013965754 0
0.0099999942 -0.10669103 0.0016906022 0
0.0099999839 -0.10654929 0.0046515856 0
0.0099999728 -0.10660629 0.0077057551 0
0.0096556135 -0.10617549 0.0097537292 0
-0.0093064057 -0.10359169 -0.0035442559 0
-0.0097922748 -0.10374161 -0.0017166695 0
-0.0098240282 -0.10335016 0.0014648761 0
-0.0093867201 -0.1032394 0.0033522397 0
-0.0070660333 -0.10316925 -0.0069985497 0
-0.0084600393 -0.10362677 -0.0052608061 0
-0.0085138883 -0.10354806 0.0052234535 0
-0.0070459833 -0.10369103 0.0070140627 0
-0.0036559014 -0.10373758 -0.0092596645 0
-0.0053186095 -0.10355774 -0.0084254816 0
-0.0051335432 -0.10383338 0.0085597532 0
-0.0036306102 -0.10354124 0.0092709558 0
-0.00127152 -0.10358704 -0.0098513821 0
-0.0016838915 -0.10330398 0.0097874086 0
0.0013421761 -0.10379997 -0.0099996198 0
0.0013311415 -0.10361823 0.010000381 0
0.004248485 -0.10352228 -0.0099996086 0
0.0045252149 -0.10348386 0.01000039 0
0.0074788425 -0.10368004 -0.0099995947 0
0.0075182724 -0.10338184 0.0100004 0
0.0098221274 -0.10371377 -0.0096987244 0
0.010000025 -0.10344472 -0.0072121131 0
0.010000014 -0.10373428 -0.0044930014 0
0.010000006 -0.10372142 -0.0012517767 0
0.0099999923 -0.10375516 0.0015535941 0
0.0099999812 -0.10361542 0.0046668765 0
0.0099999728 -0.10339005 0.0073904083 0
0.0097452533 -0.10355575 0.0097392648 0
-0.009260633 -0.10059545 -0.00365412 0
-0.0098194405 -0.10053017 -0.0014943925 0
-0.0098329373 -0.10022832 0.0013865734 0
-0.0093277171 -0.10042848 0.0034938401 0
-0.0070360475 -0.10045847 -0.0070381705 0
-0.0085482644 -0.10046241 -0.0051520299 0
-0.008536147 -0.10007641 0.0051604109 0
-0.0068136263 -0.10079136 0.007244912 0
-0.003671088 -0.10072877 -0.0092533482 0
-0.0052337656 -0.10064353 -0.0084715951 0
-0.0052322191 -0.10067944 0.0084766261 0
-0.0035229365 -0.1004854 0.0093158092 0
-0.0015661094 -0.10067854 -0.0098081771 0
-0.0016002046 -0.10036034 0.0098055815 0
0.0015923079 -0.10060269 -0.009999631 0
0.0016262097 -0.1003227 0.01000037 0
0.0044505396 -0.10018215 -0.0099996226 0
0.0043797754 -0.10065971 0.010000377 0
0.0073764576 -0.10055464 -0.0099996077 0
0.0074776462 -0.10036928 0.010000391 0
0.0096334508 -0.10045682 -0.0098382495 0
0.010000026 -0.10073749 -0.0074485778 0
0.010000015 -0.10040741 -0.004644637 0
0.010000003 -0.10043941 -0.0015091837 0
0.0099999951 -0.10033977 0.0016351159 0
0.0099999812 -0.10063464 0.0045795585 0
0.0099999718 -0.10053573 0.0073275827 0
0.0097841462 -0.1009773 0.0098283179 0
-0.0092961704 -0.097393543 -0.0035688395 0
-0.0097792661 -0.097346403 -0.001755439 0
-0.0098238504 -0.097473614 0.0014733726 0
-0.0092282631 -0.097551346 0.0037325243 0
-0.0073515885 -0.097483516 -0.006712303 0
-0.0083895968 -0.097826675 -0.0053678006 0
-0.0085559366 -0.097669162 0.0051152124 0
-0.0070550847 -0.097565234 0.0070257676 0
-0.0036949255 -0.097646624 -0.0092434259 0
-0.0050210971 -0.097585149 -0.0086209401 0
-0.0051549724 -0.097431697 0.0085177589 0
-0.0037425414 -0.097752824 0.0092242956 0
-0.0013055842 -0.097307302 -0.0098490035 0
-0.0010252583 -0.097617425 0.0098820534 0
0.0014699677 -0.097516969 -0.0099996421 0
0.0016066532 -0.09739282 0.01000036 0
0.0045577488 -0.097494133 -0.009999631 0
0.0047147227 -0.097410746 0.01000037 0
0.0075077591 -0.097451702 -0.0099996207 0
0.007507117 -0.097482011 0.010000381 0
0.0096691735 -0.097546585 -0.0097904308 0
0.010000023 -0.097746752 -0.0071820547 0
0.010000015 -0.097518355 -0.0044602384 0
0.010000004 -0.097356014 -0.001491394 0
0.0099999933 -0.097553261 0.0015754739 0
0.0099999849 -0.097743548 0.0045495401 0
0.0099999728 -0.097612076 0.0072371364 0
0.0097053396 -0.097585797 0.0098653287 0
-0.0092493016 -0.094266318 -0.0036813389 0
-0.0098328646 -0.094490752 -0.0014481458 0
-0.0098304171 -0.094427094 0.0014128982 0
-0.0092637977 -0.094465315 0.0036472257 0
-0.0071502258 -0.094402961 -0.0069307638 0
-0.0084129414 -0.09443251 -0.0053447052 0
-0.0084447656 -0.09435863 0.0052937833 0
-0.0069715227 -0.094636396 0.0070768325 0
-0.0036534723 -0.094397411 -0.0092607113 0
-0.0051412908 -0.094528504 -0.008538737 0
-0.005240819 -0.094515808 0.0084820688 0
-0.0035183476 -0.094463371 0.009317698 0
-0.0013660033 -0.094712913 -0.0098357368 0
-0.0016052688 -0.094606139 0.0098075401 0
0.00161142 -0.094505481 -0.0099996533 0
0.0013403096 -0.094718546 0.010000344 0
0.0044403509 -0.094381735 -0.0099996431 0
0.0046934136 -0.094465017 0.010000356 0
0.0074455384 -0.09438736 -0.0099996319 0
0.0075494717 -0.09437 0.010000367 0
0.0098549388 -0.094502807 -0.0097521972 0
0.010000025 -0.094585732 -0.0073124729 0
0.010000017 -0.094477825 -0.0047410764 0
0.010000004 -0.094279833 -0.0013450206 0
0.0099999923 -0.094249569 0.0017293679 0
0.0099999839 -0.094543003 0.0046595805 0
0.00999997 -0.094577685 0.0074372478 0
0.0096940435 -0.094534315 0.0098245796 0
-0.0092565436 -0.091820054 -0.0036639662 0
-0.0098183919 -0.091540262 -0.0014965448 0
-0.0098357489 -0.091457747 0.0013749884 0
-0.009289139 -0.091324769 0.003586394 0
-0.0069362186 -0.09128014 -0.007109975 0
-0.0085646547 -0.091536753 -0.0051339017 0
-0.0085616698 -0.091426499 0.0051227789 0
-0.0070370589 -0.091339514 0.0070499713 0
-0.0037597301 -0.091050968 -0.0092164502 0
-0.0051710028 -0.091403 -0.0085219424 0
-0.0053656674 -0.091483645 0.0083851581 0
-0.0037254859 -0.091283694 0.0092313802 0
-0.0014081508 -0.091709934 -0.0098289512 0
-0.0014123024 -0.091626763 0.0098310625 0
0.0013228953 -0.091779947 -0.0099996617 0
0.0013503225 -0.091377079 0.010000336 0
0.0046131182 -0.091488674 -0.0099996505 0
0.0045460607 -0.091455325 0.010000346 0
0.0075245365 -0.091135971 -0.0099996421 0
0.0074397777 -0.091650002 0.010000357 0
0.0097212251 -0.091539584 -0.0096916752 0
0.010000026 -0.091613986 -0.0075685102 0
0.010000019 -0.091352381 -0.0047670314 0
0.010000004 -0.091407649 -0.0015100325 0
0.0099999951 -0.091178648 0.0013726797 0
0.0099999802 -0.09131442 0.0046328385 0
0.0099999718 -0.091404058 0.0076495749 0
0.0096706739 -0.091642007 0.0098800827 0
-0.0093644364 -0.088634267 -0.0034050397 0
-0.0098154563 -0.08857803 -0.0015229655 0
-0.0098015163 -0.088670991 0.0015845359 0
-0.0092710024 -0.088660531 0.0036299184 0
-0.0070014168 -0.088527709 -0.0070762406 0
-0.0085443072 -0.088776924 -0.0051208879 0
-0.0084658526 -0.088633955 0.0052615437 0
-0.0071091661 -0.08851888 0.0069636446 0
-0.0035905093 -0.088701263 -0.0092869652 0
-0.0050218082 -0.08828932 -0.008622651 0
-0.0050240597 -0.088245027 0.0086164791 0
-0.0035907254 -0.088460006 0.0092875203 0
-0.0013498667 -0.088577159 -0.0098397369 0
-0.0015525148 -0.088390641 0.0098105278 0
0.0014408198 -0.088629737 -0.0099996729 0
0.0015309869 -0.08891388 0.010000329 0
0.004611061 -0.088362999 -0.0099996645 0
0.0043003438 -0.088331215 0.010000333 0
0.007528509 -0.08859393 -0.0099996533 0
0.0077628093 -0.088024728 0.010000347 0
0.0097669661 -0.088399611 -0.0097507033 0
0.010000027 -0.08812318 -0.0071171517 0
0.010000015 -0.088789634 -0.0047120755 0
0.010000004 -0.088609025 -0.0016122415 0
0.0099999942 -0.08839494 0.0016525849 0
0.0099999849 -0.08837913 0.0046663946 0
0.0099999718 -0.088452674 0.0074655139 0
0.0096837105 -0.088058613 0.0098515311 0
-0.0092788516 -0.085753612 -0.0036104526 0
-0.0098107429 -0.085304931 -0.001588822 0
-0.0098117078 -0.085662469 0.0015600852 0
-0.0092481226 -0.08547838 0.0036848157 0
-0.0070638298 -0.085478984 -0.0069974908 0
-0.0084140645 -0.084923603 -0.0053477217 0
-0.0086398488 -0.085350685 0.0050090835 0
-0.0071234414 -0.085619345 0.006916821 0
-0.0036051162 -0.085639693 -0.0092808921 0
-0.0051544341 -0.085201867 -0.0085388105 0
-0.0052795536 -0.085305355 0.0084324153 0
-0.0036580905 -0.08570005 0.0092594409 0
-0.0018272612 -0.085224926 -0.0097796833 0
-0.0016843034 -0.085113011 0.0097947037 0
0.0013338983 -0.085553467 -0.0099996841 0
0.0015219848 -0.085248411 0.010000314 0
0.004423569 -0.085557401 -0.0099996729 0
0.0045289234 -0.085810937 0.010000326 0
0.0076041124 -0.085273854 -0.0099996645 0
0.0074280123 -0.085497148 0.010000334 0
0.0096818525 -0.085534915 -0.0098536313 0
0.010000027 -0.085689083 -0.007392725 0
0.010000013 -0.085699834 -0.004412096 0
0.010000006 -0.085779123 -0.0016148071 0
0.0099999923 -0.085407704 0.0013956061 0
0.009999983 -0.085637391 0.0044878796 0
0.0099999709 -0.085427776 0.0076113469 0
0.0096658627 -0.085608415 0.0097061004 0
-0.0092768176 -0.082555361 -0.0036153411 0
-0.0098356819 -0.082510725 -0.0013668882 0
-0.009845674 -0.082705908 0.0012626036 0
-0.0093307719 -0.08218085 0.0034864452 0
-0.0070530325 -0.082539536 -0.0070171459 0
-0.0085147051 -0.082280442 -0.0052007921 0
-0.0085414676 -0.082542576 0.0051077111 0
-0.0070884298 -0.082474284 0.0069742268 0
-0.0035137557 -0.082709707 -0.0093189692 0
-0.0050803698 -0.082046516 -0.0085854921 0
-0.0051262686 -0.082136735 0.0085532432 0
-0.0035899202 -0.082571328 0.0092878332 0
-0.0012216771 -0.082313634 -0.0098532503 0
-0.0016147607 -0.082543395 0.0098042199 0
0.0014001194 -0.082421161 -0.009999698 0
0.0016166185 -0.082597636 0.010000303 0
0.0042192047 -0.082601249 -0.009999685 0
0.0046735951 -0.08233846 0.010000313 0
0.0074180709 -0.082750648 -0.0099996738 0
0.007564906 -0.08248169 0.010000327 0
0.0097145354 -0.082294591 -0.0097978786 0
0.010000026 -0.08237996 -0.0075581381 0
0.010000012 -0.082266375 -0.0044961614 0
0.010000003 -0.082517758 -0.0013256641 0
0.0099999942 -0.082244039 0.001309139 0
0.0099999821 -0.082585312 0.004693151 0
0.0099999718 -0.082325019 0.0074268798 0
0.0098503865 -0.082879476 0.0096329162 0
-0.0092679309 -0.079628259 -0.0036366803 0
-0.0098042134 -0.079543538 -0.0015959968 0
-0.009832344 -0.079380527 0.0013844897 0
-0.0092523899 -0.07970646 0.0036745518 0
-0.0070181037 -0.079655655 -0.007060702 0
-0.0087068984 -0.079295099 -0.0048562461 0
-0.008678739 -0.079363361 0.0049119904 0
-0.0069223768 -0.07952068 0.0071435883 0
-0.0036709779 -0.079672046 -0.0092534702 0
-0.0051270411 -0.079325296 -0.0085217301 0
-0.0049245046 -0.079501398 0.0086918045 0
-0.0036138047 -0.079721905 0.0092778709 0
-0.0013118412 -0.079319596 -0.0098427264 0
-0.0015154866 -0.079800621 0.0098218052 0
0.0017376702 -0.079394221 -0.0099997064 0
0.001401944 -0.079378136 0.010000293 0
0.0042752186 -0.079471216 -0.0099996952 0
0.0047220564 -0.079348743 0.010000304 0
0.0074987756 -0.079481684 -0.0099996841 0
0.0075775422 -0.079529762 0.010000315 0
0.0096789505 -0.079195946 -0.0098045217 0
0.010000028 -0.079664156 -0.0073705181 0
0.010000017 -0.079812221 -0.0044332622 0
0.010000006 -0.079509482 -0.0015277686 0
0.0099999951 -0.079713985 0.0014466346 0
0.009999983 -0.079722784 0.0044179526 0
0.0099999709 -0.079187401 0.0076241149 0
0.0097412346 -0.079803623 0.0097460868 0
-0.0092947623 -0.076522708 -0.0035723015 0
-0.0098353261 -0.076690458 -0.0013701487 0
-0.0097911963 -0.076384574 0.00169898 0
-0.0091814082 -0.076496214 0.0038448977 0
-0.0072162291 -0.076452307 -0.0068615209 0
-0.0085771168 -0.076702647 -0.005084327 0
-0.008551647 -0.076629415 0.0051210942 0
-0.0070187887 -0.076533169 0.0070585464 0
-0.0035819837 -0.076219022 -0.0092905629 0
-0.0052242186 -0.076373056 -0.0084876642 0
-0.0052602696 -0.076363191 0.0084717218 0
-0.0035663573 -0.076531574 0.0092976298 0
-0.0015569247 -0.076376744 -0.0098116044 0
-0.0014195183 -0.07635957 0.0098267365 0
0.0016039624 -0.076630577 -0.0099997167 0
0.0014639958 -0.076602519 0.010000284 0
0.0044415863 -0.076378465 -0.0099997055 0
0.0046421234 -0.076302439 0.010000293 0
0.0078829918 -0.076653793 -0.0099996943 0
0.0072492533 -0.076490842 0.010000303 0
0.0098169604 -0.076227643 -0.0097495345 0
0.010000027 -0.076486208 -0.007492932 0
0.010000017 -0.076406874 -0.0044614589 0
0.010000006 -0.076348051 -0.0014847895 0
0.0099999923 -0.076628149 0.0016610805 0
0.0099999849 -0.076385453 0.0045161475 0
0.0099999728 -0.076483309 0.0074390993 0
0.0097771408 -0.076621503 0.0096831284 0
-0.0092927599 -0.073436238 -0.0035771166 0
-0.0098018674 -0.073693693 -0.0016077523 0
-0.0098178964 -0.073534004 0.0015015233 0
-0.0092757372 -0.073781729 0.0036184958 0
-0.0071878294 -0.073553443 -0.0068762596 0
-0.0085277501 -0.0736463 -0.0051719686 0
-0.0086430572 -0.073552556 0.0050111027 0
-0.0069125793 -0.073139109 0.0071480125 0
-0.0035758805 -0.073846042 -0.0092931157 0
-0.0051615578 -0.073568068 -0.0085466597 0
-0.0053486321 -0.073804878 0.0084132496 0
-0.0036639888 -0.07377629 0.0092569394 0
-0.0018000843 -0.073611483 -0.0097762626 0
-0.0019095941 -0.073631719 0.0097644515 0
0.0017216321 -0.073514163 -0.009999725 0
0.0015621636 -0.073567078 0.010000273 0
0.0044541657 -0.07376387 -0.0099997148 0
0.0046172156 -0.073473036 0.010000284 0
0.0077981469 -0.073368117 -0.0099997083 0
0.0070903171 -0.073437676 0.010000292 0
0.009677168 -0.073688358 -0.0098058982 0
0.010000026 -0.073633276 -0.007592578 0
0.010000016 -0.073675528 -0.0046095592 0
0.010000004 -0.073553666 -0.00156156 0
0.0099999933 -0.07369408 0.0017404265 0
0.009999983 -0.073360018 0.0044535757 0
0.0099999728 -0.073569961 0.0074493224 0
0.0096368091 -0.073203586 0.0098100314 0
-0.0096658831 -0.069546208 -0.0097847348 0
-0.009692885 -0.069769703 -0.0074152383 0
-0.0095579913 -0.070031263 -0.0043055261 0
-0.0098831737 -0.070578709 -0.0013611867 0
-0.0099063376 -0.070485502 0.001536786 0
-0.0096163731 -0.070172727 0.0045135459 0
-0.0097335577 -0.069767542 0.0074499641 0
-0.009750125 -0.069678031 0.0095006544 0
-0.0076803099 -0.069616862 -0.0098876124 0
-0.0075300462 -0.070254996 -0.0074096634 0
-0.0084431656 -0.071179785 -0.0053127012 0
-0.0084502269 -0.070629887 0.0054023573 0
-0.0071558561 -0.070567459 0.0072720102 0
-0.007485555 -0.069735013 0.0097010806 0
-0.0041161464 -0.070100389 -0.0096697304 0
-0.0053860508 -0.070914738 -0.0083936602 0
-0.0052327109 -0.070918493 0.0085654715 0
-0.0040541533 -0.070193529 0.0096337004 0
-0.0017278619 -0.070704624 -0.0098382216 0
-0.001338477 -0.070661478 0.0098834839 0
0.0015768751 -0.070795842 -0.009999739 0
0.0014934968 -0.070625119 0.010000261 0
0.0045611011 -0.070591971 -0.009999726 0
0.0044938158 -0.070500985 0.010000271 0
0.0075198095 -0.070495851 -0.0099997157 0
0.0076502897 -0.070491202 0.010000282 0
0.0097737135 -0.070361666 -0.0097873583 0
0.010000024 -0.070755072 -0.00728895 0
0.010000017 -0.070580281 -0.0043835891 0
0.010000005 -0.070583008 -0.0013881968 0
0.0099999933 -0.070431843 0.0015167918 0
0.0099999812 -0.070478894 0.0042416193 0
0.0099999709 -0.070640616 0.0072572436 0
0.0097832661 -0.070036165 0.0096707009 0
-0.0097890813 -0.067549355 -0.0097420076 0
-0.0099999718 -0.067156248 -0.0074661993 0
-0.0099999839 -0.067416444 -0.004546592 0
-0.0099999942 -0.067775682 -0.0012122155 0
-0.010000002 -0.067537189 0.001624357 0
-0.010000016 -0.067464039 0.0046615377 0
-0.010000028 -0.067633376 0.0075672995 0
-0.0095966244 -0.067233726 0.0098741734 0
-0.0076504136 -0.067901991 -0.00999978 0
-0.0075025843 -0.06745857 0.010000216 0
-0.0045521101 -0.067708798 -0.0099997707 0
-0.0047275587 -0.067596287 0.010000228 0
-0.0015108102 -0.067643411 -0.0099997604 0
-0.0012974046 -0.067562856 0.01000024 0
0.0015914934 -0.067605495 -0.0099997493 0
0.0015821672 -0.06760522 0.010000251 0
0.0044901245 -0.067315511 -0.009999739 0
0.0042720246 -0.067672342 0.010000258 0
0.0073465076 -0.067348689 -0.0099997269 0
0.0072354791 -0.067339115 0.010000269 0
0.0097266249 -0.067496739 -0.0097077684 0
0.010000026 -0.067674354 -0.0074618398 0
0.010000017 -0.067404345 -0.0044126385 0
0.010000003 -0.067393839 -0.0015285868 0
0.0099999961 -0.067576222 0.0013291336 0
0.0099999849 -0.067548774 0.0044676778 0
0.00999997 -0.067527853 0.0076402295 0
0.0097571695 -0.067239977 0.0096123312 0
-0.013449206 -0.063474372 -0.013527013 0
-0.013637258 -0.063453332 -0.010542952 0
-0.013609962 -0.063453972 -0.0077696159 0
-0.013754321 -0.063463613 -0.004626133 0
-0.013540542 -0.063447818 -0.00171419 0
-0.013771893 -0.063469075 0.0012855285 0
-0.013498239 -0.063460641 0.0045493068 0
-0.013644012 -0.063480407 0.0075595514 0
-0.013699129 -0.063465722 0.01062799 0
-0.013559047 -0.063447431 0.013516189 0
-0.01072747 -0.063452765 -0.01367111 0
-0.010227536 -0.063897848 -0.010442079 0
-0.010115074 -0.063997768 -0.007368071 0
-0.010123847 -0.063987471 -0.0045455452 0
-0.010166111 -0.063949987 -0.0015102183 0
-0.010046509 -0.063787304 0.0014053775 0
-0.010155947 -0.064023159 0.0045698774 0
-0.010072873 -0.064069919 0.0074783475 0
-0.010266347 -0.063756585 0.010105113 0
-0.010334183 -0.06347736 0.013692715 0
-0.0072657214 -0.063451648 -0.013673028 0
-0.0075110644 -0.063813999 -0.010100068 0
-0.0072251488 -0.063500002 -0.0075505753 0
-0.0074979146 -0.063499987 -0.0043706307 0
-0.0073290644 -0.06349998 -0.0015528804 0
-0.0073096016 -0.063499957 0.0015064386 0
-0.0076749609 -0.063499965 0.0045051118 0
-0.0076553039 -0.063499942 0.0075824093 0
-0.0074469754 -0.064072855 0.010108608 0
-0.0073310118 -0.063480221 0.013652898 0
-0.0046662982 -0.063455753 -0.013804152 0
-0.0045322981 -0.063858613 -0.010297656 0
-0.0044905609 -0.063499995 -0.0073910803 0
-0.0044493186 -0.063499995 -0.0046311636 0
-0.0044323411 -0.063499972 -0.0014823801 0
-0.0046115303 -0.063499965 0.0015293632 0
-0.0045492649 -0.06349995 0.004386669 0
-0.0044894987 -0.06349995 0.0074046054 0
-0.0045679966 -0.063881196 0.010199547 0
-0.0043340037 -0.06346409 0.013717063 0
-0.0014061749 -0.063442066 -0.013571402 0
-0.0014358566 -0.063911095 -0.010236483 0
-0.001371572 -0.063500009 -0.0075471052 0
-0.0016072994 -0.063499995 -0.0044718399 0
-0.001518628 -0.06349998 -0.0014869288 0
-0.0014592845 -0.063499972 0.0014141299 0
-0.0015498913 -0.063499965 0.0042769378 0
-0.0015820283 -0.063499942 0.0074873129 0
-0.0013615895 -0.063974291 0.01011208 0
-0.001468542 -0.063462324 0.013458841 0
0.0018045049 -0.063452676 -0.013435726 0
0.0014197943 -0.064086422 -0.010146352 0
0.0011914792 -0.063500002 -0.0075883698 0
0.0016958073 -0.063499995 -0.0044282898 0
0.0015825523 -0.063499987 -0.0016043774 0
0.0015696223 -0.063499972 0.0013829306 0
0.0014085401 -0.063499965 0.0043922844 0
0.0013199184 -0.06349995 0.0074721505 0
0.0014083461 -0.064338528 0.010108255 0
0.001407839 -0.063445516 0.013784085 0
0.0043651378 -0.063488036 -0.013446938 0
0.0046035741 -0.064025164 -0.010072849 0
0.0043280688 -0.063500002 -0.00736479 0
0.0045022769 -0.063499995 -0.0046460791 0
0.0044258609 -0.06349998 -0.0017277488 0
0.0045095906 -0.063499972 0.0014509859 0
0.0042318646 -0.063499972 0.0045926422 0
0.0044915234 -0.063499935 0.0074568028 0
0.0043784957 -0.064135313 0.010086226 0
0.0042024418 -0.063480958 0.013584157 0
0.0074396874 -0.06345544 -0.013826152 0
0.0073541231 -0.063935675 -0.010186358 0
0.0075673233 -0.063500009 -0.0075572883 0
0.0076297834 -0.063499995 -0.0042231074 0
0.0076154899 -0.063499987 -0.0016095046 0
0.0075804438 -0.063499972 0.0014873138 0
0.0073394291 -0.063499965 0.0045255576 0
0.0073519736 -0.063499942 0.0073586004 0
0.0073802546 -0.06390883 0.010261511 0
0.0074088112 -0.063487433 0.01344258 0
0.010701007 -0.063468531 -0.013804571 0
0.010107258 -0.06394127 -0.010136812 0
0.01001781 -0.064091943 -0.007548735 0
0.010055996 -0.063898057 -0.0044273534 0
0.010152276 -0.063974969 -0.0015305338 0
0.010119731 -0.063913547 0.0016186305 0
0.010074683 -0.063965954 0.0043738969 0
0.010174291 -0.063988514 0.0074354233 0
0.010253487 -0.063744053 0.010229102 0
0.010290518 -0.063458711 0.013743875 0
0.013686017 -0.063452721 -0.01359229 0
0.013597106 -0.063484751 -0.010633216 0
0.013602333 -0.063461378 -0.0075579071 0
0.013738809 -0.063463241 -0.0045382166 0
0.013405045 -0.063480169 -0.001159729 0
0.013731433 -0.063459113 0.0013171725 0
0.0136219 -0.063470244 0.0044547273 0
0.013681801 -0.063462362 0.0072895363 0
0.013914077 -0.06347166 0.010481701 0
0.013464558 -0.063462466 0.013572903 0
-0.014140457 -0.061459877 -0.01419131 0
-0.014899964 -0.06144347 -0.010448737 0
-0.014899972 -0.061091721 -0.0076152966 0
-0.014899982 -0.061426803 -0.0047216667 0
-0.014899995 -0.061385144 -0.0013520992 0
-0.014900006 -0.061573595 0.0014061991 0
-0.014900019 -0.061394189 0.004625238 0
-0.014900027 -0.061520413 0.007750087 0
-0.014900037 -0.061499886 0.01043425 0
-0.01433024 -0.061481789 0.014059101 0
-0.010148648 -0.061568145 -0.014899815 0
-0.010317267 -0.061531048 0.014900185 0
-0.0075742654 -0.061780598 -0.014899803 0
-0.0078837201 -0.061703034 0.014900194 0
-0.0043835058 -0.061524116 -0.014899792 0
-0.0046545947 -0.061539687 0.014900206 0
-0.0015543187 -0.061423711 -0.014899784 0
-0.0013741069 -0.061279632 0.014900217 0
0.0016482704 -0.061422665 -0.014899773 0
0.0018618061 -0.061549697 0.01490023 0
0.0046792282 -0.061873026 -0.014899759 0
0.0047474895 -0.061383445 0.014900239 0
0.0075864466 -0.061617978 -0.014899749 0
0.0075160265 -0.061428953 0.01490025 0
0.01041819 -0.061440066 -0.014899739 0
0.010658885 -0.061232321 0.014900261 0
0.014286609 -0.061443303 -0.014185188 0
0.014900039 -0.061471026 -0.010493184 0
0.014900028 -0.061419792 -0.0076647033 0
0.014900017 -0.061463591 -0.0044614151 0
0.014900005 -0.061539792 -0.0014774551 0
0.014899998 -0.061478261 0.0013331953 0
0.014899984 -0.061678421 0.0040559061 0
0.014899975 -0.061588004 0.0075206966 0
0.01489996 -0.061708648 0.010681993 0
0.013977096 -0.061453734 0.014297264 0
-0.014148298 -0.058506154 -0.014398795 0
-0.01489996 -0.058284134 -0.010779588 0
-0.014899975 -0.058371089 -0.0074028191 0
-0.014899985 -0.058629699 -0.0044011767 0
-0.014899993 -0.058604944 -0.0017121966 0
-0.014900004 -0.058469784 0.0014317894 0
-0.014900017 -0.05844726 0.0046686502 0
-0.014900027 -0.058713272 0.0075834659 0
-0.014900038 -0.058545548 0.010471188 0
-0.014035177 -0.058656015 0.014072185 0
-0.010684617 -0.05854436 -0.014899826 0
-0.010560554 -0.05859971 0.014900178 0
-0.0071534845 -0.058629006 -0.014899814 0
-0.0076231188 -0.058268543 0.014900181 0
-0.0045276121 -0.058391754 -0.014899807 0
-0.0046832948 -0.058571577 0.014900194 0
-0.0017532838 -0.058832191 -0.014899793 0
-0.0014526248 -0.058678806 0.014900208 0
0.0013224517 -0.058238443 -0.014899784 0
0.0014492049 -0.058495115 0.014900216 0
0.004111337 -0.058544334 -0.014899773 0
0.0042598527 -0.058369618 0.014900227 0
0.0073240614 -0.058639791 -0.01489976 0
0.0077949394 -0.058541764 0.01490024 0
0.010546774 -0.058510046 -0.014899749 0
0.010703263 -0.058580119 0.014900252 0
0.014231668 -0.058517896 -0.014121152 0
0.014900037 -0.058378063 -0.010554603 0
0.014900027 -0.058495585 -0.007172911 0
0.014900016 -0.058174718 -0.0044263774 0
0.014900006 -0.058366857 -0.0016435443 0
0.014899996 -0.05859337 0.001549031 0
0.014899984 -0.058329429 0.0044440455 0
0.014899974 -0.058335412 0.0074580158 0
0.014899962 -0.058863156 0.010518316 0
0.01413848 -0.058358341 0.014269174 0
-0.014223865 -0.055506304 -0.014115864 0
-0.014899963 -0.055381395 -0.010607404 0
-0.014899973 -0.055723108 -0.0074731908 0
-0.014899983 -0.055396359 -0.0046491954 0
-0.014899995 -0.055504818 -0.0014525072 0
-0.014900008 -0.055335384 0.0014051899 0
-0.014900014 -0.055672526 0.0041298773 0
-0.014900028 -0.055399757 0.0074814134 0
-0.014900038 -0.055445354 0.010573608 0
-0.014311349 -0.055511259 0.013969148 0
-0.010470815 -0.055471633 -0.014899841 0
-0.01049426 -0.055496611 0.014900162 0
-0.0074148746 -0.055521037 -0.014899827 0
-0.0075758053 -0.055794977 0.014900174 0
-0.004366328 -0.05533405 -0.014899815 0
-0.0045296154 -0.055238683 0.014900182 0
-0.0016096295 -0.055836063 -0.014899802 0
-0.0014975206 -0.055603091 0.014900196 0
0.0015471424 -0.055481773 -0.014899792 0
0.0013294055 -0.055669166 0.014900205 0
0.0044073802 -0.055659346 -0.014899787 0
0.0042944583 -0.055440724 0.014900219 0
0.0074598687 -0.055080019 -0.014899773 0
0.0078012338 -0.05539991 0.014900227 0
0.010611666 -0.055429205 -0.01489976 0
0.010348084 -0.055685289 0.014900237 0
0.014300263 -0.055664632 -0.01407383 0
0.014900039 -0.055498216 -0.01044568 0
0.014900027 -0.05536288 -0.0072038509 0
0.014900022 -0.05552214 -0.0045036012 0
0.014900006 -0.055716336 -0.0016419914 0
0.014899996 -0.055387188 0.0013691525 0
0.014899983 -0.055592041 0.0047438778 0
0.014899972 -0.05540828 0.0076108198 0
0.014899964 -0.055258378 0.01033442 0
0.014199729 -0.055543222 0.014140126 0
-0.014284151 -0.052499253 -0.014160559 0
-0.014899963 -0.052502904 -0.010430609 0
-0.014899971 -0.052431617 -0.0076477793 0
-0.014899985 -0.052632056 -0.004590956 0
-0.014899994 -0.052397083 -0.0013393644 0
-0.014900004 -0.052390762 0.0012772179 0
-0.014900015 -0.052392852 0.0043683373 0
-0.014900026 -0.052662723 0.0075174673 0
-0.014900038 -0.052609485 0.010425936 0
-0.01403386 -0.052570682 0.014194425 0
-0.01073622 -0.052496608 -0.014899848 0
-0.010577801 -0.052401371 0.014900151 0
-0.0072372244 -0.052443638 -0.014899835 0
-0.0077298922 -0.052666262 0.014900166 0
-0.0045408336 -0.052657593 -0.014899825 0
-0.0046428484 -0.052499201 0.014900173 0
-0.0015952836 -0.052286096 -0.01489982 0
-0.0016022106 -0.052582312 0.014900187 0
0.0017015971 -0.052680887 -0.014899809 0
0.001820844 -0.052593403 0.014900195 0
0.0044884454 -0.052448362 -0.014899793 0
0.0046230215 -0.052555058 0.014900208 0
0.0074709766 -0.052431021 -0.014899782 0
0.0075952313 -0.052559797 0.014900219 0
0.010417537 -0.052271035 -0.014899773 0
0.010358582 -0.052370943 0.014900226 0
0.014099978 -0.052786145 -0.014289495 0
0.014900038 -0.052305669 -0.010458162 0
0.014900027 -0.052258275 -0.0074892067 0
0.014900017 -0.052657869 -0.0044204644 0
0.014900005 -0.052434266 -0.0015305817 0
0.014899993 -0.052014355 0.0015669373 0
0.014899982 -0.052351262 0.0046146298 0
0.014899973 -0.052592926 0.0075755306 0
0.014899963 -0.052929044 0.010397396 0
0.014244497 -0.052577458 0.014120005 0
-0.014235596 -0.049358301 -0.014001089 0
-0.014899962 -0.04941557 -0.010604124 0
-0.014899972 -0.049616046 -0.007509361 0
-0.014899982 -0.049583469 -0.0047266078 0
-0.014899992 -0.049718753 -0.0016753474 0
-0.014900006 -0.049653973 0.001364167 0
-0.014900015 -0.049434919 0.0043296083 0
-0.014900029 -0.049416162 0.0076073608 0
-0.014900042 -0.049461365 0.010424969 0
-0.014234524 -0.049415808 0.014127338 0
-0.010147076 -0.049374446 -0.01489986 0
-0.010229439 -0.0493421 0.014900141 0
-0.0075210454 -0.049568087 -0.014899846 0
-0.0075381324 -0.049801495 0.014900154 0
-0.0045516263 -0.049441624 -0.014899842 0
-0.0043856576 -0.049676839 0.014900165 0
-0.001497328 -0.049460568 -0.014899828 0
-0.0015571241 -0.049284402 0.014900173 0
0.0014336212 -0.049502645 -0.014899815 0
0.001429024 -0.049250655 0.014900185 0
0.0048052291 -0.049502596 -0.014899803 0
0.0046595782 -0.049259745 0.014900195 0
0.0073804567 -0.049314007 -0.014899794 0
0.0073133097 -0.049436532 0.014900204 0
0.010287737 -0.049161725 -0.014899786 0
0.010638798 -0.049307119 0.014900218 0
0.013927628 -0.049531467 -0.014383209 0
0.014900037 -0.049767639 -0.010467953 0
0.014900025 -0.049743135 -0.007078832 0
0.014900017 -0.049523961 -0.0045219483 0
0.014900005 -0.049420629 -0.0017726707 0
0.014899993 -0.049385175 0.0017702621 0
0.014899983 -0.04944016 0.0044177598 0
0.014899972 -0.049607541 0.0077382168 0
0.014899961 -0.049230006 0.010628371 0
0.014306649 -0.049756251 0.014374185 0
-0.014219009 -0.046433095 -0.014188691 0
-0.014899963 -0.046100177 -0.01038379 0
-0.014899974 -0.046352632 -0.0075510219 0
-0.014899983 -0.046325758 -0.0044556595 0
-0.014899995 -0.046504896 -0.0013327255 0
-0.014900008 -0.046439946 0.0015749882 0
-0.014900016 -0.046430767 0.004548213 0
-0.014900027 -0.046780217 0.0076735909 0
-0.014900037 -0.046577014 0.01053148 0
-0.014193441 -0.046620388 0.014068656 0
-0.010753646 -0.046357159 -0.01489987 0
-0.010580401 -0.046535444 0.01490013 0
-0.0074211531 -0.046592943 -0.01489986 0
-0.0072587146 -0.046477921 0.014900142 0
-0.0043994687 -0.046662562 -0.014899846 0
-0.0046938569 -0.046499636 0.014900154 0
-0.0015492212 -0.046354853 -0.014899838 0
-0.001529633 -0.046193998 0.014900161 0
0.0016293052 -0.046309836 -0.014899828 0
0.0016241223 -0.046336319 0.014900172 0
0.0045109605 -0.046341948 -0.014899815 0
0.0044456623 -0.046681821 0.014900185 0
0.0076707201 -0.046485096 -0.014899807 0
0.0072774938 -0.046650641 0.014900194 0
0.010736848 -0.046540279 -0.014899792 0
0.010476452 -0.046667587 0.014900206 0
0.014110018 -0.04631684 -0.014126097 0
0.014900039 -0.0464027 -0.010685768 0
0.014900029 -0.046417058 -0.0076603391 0
0.014900016 -0.046324819 -0.0044832155 0
0.014900004 -0.046554845 -0.0015214121 0
0.014899995 -0.046567131 0.0016474422 0
0.014899984 -0.046565 0.0045285798 0
0.014899973 -0.046460103 0.007181481 0
0.01489996 -0.046276119 0.01073003 0
0.014149502 -0.046298988 0.014288269 0
-0.014094214 -0.043547876 -0.014257918 0
-0.014899964 -0.043519057 -0.010714549 0
-0.014899974 -0.043350339 -0.0075479918 0
-0.014899983 -0.043450873 -0.0044175666 0
-0.014899995 -0.043890446 -0.0016520648 0
-0.014900006 -0.043441895 0.0016778121 0
-0.014900017 -0.043503918 0.0045305197 0
-0.014900031 -0.043831952 0.0074547273 0
-0.014900036 -0.043259196 0.010359895 0
-0.014110236 -0.043533795 0.014201714 0
-0.010340843 -0.043382965 -0.014899881 0
-0.010384925 -0.043239508 0.014900118 0
-0.007180416 -0.043644544 -0.014899867 0
-0.0076337773 -0.043372508 0.014900129 0
-0.0044288407 -0.043585297 -0.014899857 0
-0.0043976489 -0.043565735 0.01490014 0
-0.001662483 -0.043358125 -0.014899848 0
-0.0017695085 -0.043400593 0.01490015 0
0.0012616598 -0.043657936 -0.014899838 0
0.0011573824 -0.043570545 0.01490016 0
0.0045981985 -0.043579146 -0.014899826 0
0.0045480821 -0.043654576 0.014900176 0
0.0075378856 -0.043612357 -0.014899818 0
0.0073977886 -0.043310422 0.014900183 0
0.010284313 -0.043264568 -0.014899806 0
0.010565445 -0.043521952 0.014900195 0
0.014130266 -0.04365376 -0.014241925 0
0.014900036 -0.043395653 -0.010362669 0
0.01490003 -0.043674733 -0.0073163542 0
0.014900017 -0.043313745 -0.0045287618 0
0.014900009 -0.043542236 -0.0018018439 0
0.014899993 -0.04353125 0.0017039685 0
0.014899982 -0.043518398 0.0047155614 0
0.014899972 -0.043562565 0.0075122961 0
0.014899962 -0.043512356 0.010417847 0
0.014181179 -0.043687571 0.014166537 0
-0.014115381 -0.040474709 -0.01409183 0
-0.014899964 -0.040444002 -0.01047767 0
-0.014899974 -0.04061522 -0.0074355858 0
-0.014899984 -0.04036428 -0.0043780613 0
-0.014899994 -0.040651627 -0.0013861031 0
-0.014900011 -0.04060049 0.0014636217 0
-0.014900019 -0.040332071 0.0047903699 0
-0.014900028 -0.040360812 0.0076117502 0
-0.014900043 -0.04039311 0.010335446 0
-0.014185109 -0.040616747 0.014256834 0
-0.010670667 -0.040556431 -0.014899893 0
-0.010616125 -0.040619723 0.014900108 0
-0.007335566 -0.040784992 -0.014899879 0
-0.0075257863 -0.040677864 0.014900119 0
-0.0043524397 -0.040574882 -0.014899868 0
-0.0044436585 -0.040162593 0.014900136 0
-0.0015410783 -0.040337961 -0.014899861 0
-0.0015212251 -0.040554885 0.014900144 0
0.0015617626 -0.040439054 -0.014899848 0
0.0016605826 -0.04047554 0.014900151 0
0.0042565917 -0.04061015 -0.014899837 0
0.0044801757 -0.040380102 0.014900161 0
0.0076480242 -0.040781025 -0.014899823 0
0.0075360471 -0.040321048 0.014900174 0
0.010743049 -0.04051454 -0.014899814 0
0.010529185 -0.040641755 0.014900185 0
0.014079414 -0.040469311 -0.014303938 0
0.014900037 -0.040357884 -0.010636181 0
0.014900028 -0.040481273 -0.0077545424 0
0.014900017 -0.040582098 -0.0046324441 0
0.014900004 -0.040173352 -0.0015498558 0
0.014899996 -0.040574815 0.0012608577 0
0.014899989 -0.040401682 0.0045493143 0
0.014899974 -0.040483475 0.0076601589 0
0.014899962 -0.040405106 0.010632005 0
0.014213874 -0.040334214 0.014075374 0
-0.01416642 -0.037582487 -0.014168485 0
-0.014899962 -0.037705828 -0.010552087 0
-0.014899973 -0.037385646 -0.0074048438 0
-0.014899983 -0.037760414 -0.0046693841 0
-0.014899993 -0.037803169 -0.0017867752 0
-0.014900013 -0.03744071 0.001938329 0
-0.014900015 -0.037655227 0.0043638651 0
-0.014900027 -0.037517559 0.0074871508 0
-0.014900038 -0.037705507 0.010736885 0
-0.014055471 -0.037617426 0.014095786 0
-0.010421503 -0.037709262 -0.014899901 0
-0.010492226 -0.037531838 0.014900097 0
-0.007573789 -0.037644524 -0.01489989 0
-0.0075597004 -0.037791215 0.014900109 0
-0.0046763034 -0.03748234 -0.014899882 0
-0.0045918389 -0.037568856 0.014900117 0
-0.0014983485 -0.037574455 -0.01489987 0
-0.001291177 -0.037368219 0.014900129 0
0.0013981194 -0.037501618 -0.014899858 0
0.0014129926 -0.037194453 0.014900139 0
0.0046620979 -0.037371609 -0.01489985 0
0.0044513498 -0.037383948 0.014900151 0
0.0075637461 -0.037599925 -0.014899836 0
0.007525872 -0.03764607 0.014900166 0
0.010385522 -0.037485693 -0.014899827 0
0.010340625 -0.037614316 0.014900173 0
0.014089712 -0.037455987 -0.014274655 0
0.014900036 -0.037397724 -0.010335533 0
