# .PCD v0.7 - Point Cloud Data file format
VERSION 0.7
FIELDS x y z rgb
SIZE 4 4 4 4
TYPE F F F F
COUNT 1 1 1 1
WIDTH 1176
HEIGHT 1
VIEWPOINT 0 0 0 1 0 0 0
POINTS 1176
DATA ascii
-0.0077435495 -0.16628984 0.010000573 0
-0.0044959025 -0.16681726 -0.009999414 0
-0.0043287966 -0.1666009 0.010000588 0
-0.0016306627 -0.16649604 -0.0099994047 0
-0.0014925769 -0.16654709 0.010000599 0
0.0014859834 -0.16647491 -0.0099993926 0
0.0014586526 -0.16663101 0.01000061 0
0.0042252098 -0.16655283 -0.0099993823 0
0.0043876623 -0.16648346 0.010000619 0
0.0075154155 -0.16650365 -0.0099993711 0
0.0073693926 -0.16652954 0.010000631 0
0.00962226 -0.16652095 -0.0099207358 0
0.010000029 -0.16639994 -0.0076072873 0
0.010000017 -0.16641699 -0.0045174584 0
0.010000005 -0.16630326 -0.0014737677 0
0.0099999951 -0.16650768 0.0016450934 0
0.009999983 -0.16646683 0.0047877855 0
0.0099999737 -0.16659905 0.0073469402 0
0.0098397238 -0.16624042 0.0096155992 0
-0.0097891279 -0.16350015 -0.0097120358 0
-0.0099999709 -0.16363366 -0.0077584847 0
-0.0099999839 -0.16341048 -0.0041282238 0
-0.0099999951 -0.1638201 -0.0014068863 0
-0.010000006 -0.16349663 0.0016016887 0
-0.010000018 -0.16323127 0.004531174 0
-0.010000029 -0.16384739 0.0075981054 0
-0.0097345943 -0.16308384 0.0097527374 0
-0.0076218648 -0.16341397 -0.0099994354 0
-0.0074608936 -0.16335051 0.010000565 0
-0.0042653303 -0.16347894 -0.0099994261 0
-0.0046391967 -0.16397792 0.010000576 0
-0.0012640056 -0.16357182 -0.009999414 0
-0.0016347091 -0.16356698 0.010000588 0
0.0015041896 -0.16342689 -0.0099994047 0
0.0013720426 -0.16374846 0.010000599 0
0.0047341557 -0.16360281 -0.0099993916 0
0.0045141117 -0.16353126 0.01000061 0
0.0075403047 -0.16336116 -0.0099993823 0
0.0073951455 -0.16351926 0.01000062 0
0.0098006008 -0.16358775 -0.0096107945 0
0.010000028 -0.16335879 -0.0076176394 0
0.010000016 -0.16347769 -0.0041809864 0
0.010000007 -0.16338749 -0.0014199717 0
0.0099999961 -0.16351447 0.0014666375 0
0.0099999812 -0.16416197 0.0048276912 0
0.0099999728 -0.16361447 0.0076277144 0
0.009763388 -0.16362828 0.0097995475 0
-0.0096575888 -0.1606418 -0.0098616546 0
-0.0099999737 -0.1604442 -0.0077838362 0
-0.0099999839 -0.16038132 -0.0046700225 0
-0.0099999961 -0.16051526 -0.0015951765 0
-0.010000006 -0.16049623 0.0014527381 0
-0.010000016 -0.16025771 0.0042806864 0
-0.010000028 -0.16064431 0.0074599679 0
-0.0097230161 -0.16029531 0.0097322427 0
-0.0075116903 -0.16044582 -0.0099994466 0
-0.007796051 -0.16023868 0.010000554 0
-0.004638256 -0.16059862 -0.0099994354 0
-0.0046363082 -0.16066979 0.010000566 0
-0.0013935867 -0.16061828 -0.0099994233 0
-0.0015466659 -0.16071437 0.010000577 0
0.0012304382 -0.16049683 -0.0099994149 0
0.0015468472 -0.16058256 0.010000588 0
0.0044483952 -0.16044894 -0.0099994028 0
0.0041155182 -0.16061622 0.010000598 0
0.0075305393 -0.16050556 -0.0099993935 0
0.0075198608 -0.16055857 0.010000609 0
0.0097811157 -0.16031393 -0.0096959472 0
0.010000026 -0.16058336 -0.0075557241 0
0.010000018 -0.16062154 -0.0047110263 0
0.010000007 -0.16044283 -0.0014773835 0
0.0099999951 -0.1602143 0.0014648378 0
0.0099999858 -0.16025719 0.0044235685 0
0.0099999746 -0.1606749 0.0073681851 0
0.0097657712 -0.16073839 0.009855126 0
-0.0098689869 -0.15701404 -0.009754912 0
-0.0099999728 -0.15733615 -0.0075346334 0
-0.0099999839 -0.15730771 -0.0048569981 0
-0.009999997 -0.15764637 -0.0013907342 0
-0.010000006 -0.1574491 0.0012935717 0
-0.010000017 -0.15753727 0.0046274955 0
-0.010000027 -0.15750857 0.007438147 0
-0.0097239474 -0.15776575 0.0097458158 0
-0.0074200979 -0.15772107 -0.0099994568 0
-0.0077308877 -0.15768492 0.010000543 0
-0.004585241 -0.15742402 -0.0099994484 0
-0.0041802512 -0.15778133 0.010000558 0
-0.0015075598 -0.15737514 -0.0099994335 0
-0.0015649083 -0.15748778 0.010000565 0
0.0015300266 -0.15761425 -0.0099994242 0
0.0017935236 -0.15709959 0.010000574 0
0.0046845269 -0.15747231 -0.0099994149 0
0.0044463007 -0.15722573 0.010000585 0
0.0075784549 -0.15718098 -0.0099994047 0
0.0074348859 -0.15746337 0.010000599 0
0.009637503 -0.15731789 -0.0098805316 0
0.010000027 -0.15743127 -0.0073474632 0
0.010000016 -0.15737359 -0.0044154096 0
0.010000007 -0.15749933 -0.0014260183 0
0.0099999951 -0.15757328 0.0013043232 0
0.0099999849 -0.15745373 0.0043749083 0
0.0099999746 -0.15736395 0.0072466284 0
0.0097549371 -0.15773475 0.0097432854 0
-0.009741649 -0.15439631 -0.0096997283 0
-0.0099999709 -0.1549678 -0.007899656 0
-0.0099999812 -0.15437423 -0.0046606124 0
-0.0099999951 -0.15442309 -0.00154593 0
-0.010000007 -0.15466592 0.0018617082 0
-0.010000017 -0.15431805 0.0044758595 0
-0.010000028 -0.15445979 0.0074709328 0
-0.0096987756 -0.15439971 0.0097410763 0
-0.0074327025 -0.15476775 -0.009999468 0
-0.0077985236 -0.15440637 0.010000532 0
-0.0044159214 -0.15467346 -0.0099994577 0
-0.0043724282 -0.15444991 0.010000545 0
-0.0016815414 -0.15450467 -0.0099994484 0
-0.001338765 -0.15457124 0.010000556 0
0.0017938484 -0.15434645 -0.0099994354 0
0.0015755042 -0.15457164 0.010000567 0
0.0043497849 -0.15425622 -0.0099994252 0
0.0047123833 -0.15428717 0.010000575 0
0.0072505404 -0.15456656 -0.0099994158 0
0.0072790855 -0.1545231 0.010000587 0
0.0097483154 -0.15479302 -0.0097299097 0
0.010000029 -0.15396142 -0.0074990666 0
0.010000017 -0.15453202 -0.004635266 0
0.010000008 -0.15448411 -0.0017012892 0
0.0099999961 -0.15448765 0.0015574525 0
0.0099999839 -0.15449171 0.0043269405 0
0.0099999728 -0.15442377 0.0075386786 0
0.0098017864 -0.15434565 0.0096795959 0
-0.0097323339 -0.1514754 -0.0097490801 0
-0.0099999737 -0.15158752 -0.0074229483 0
-0.0099999821 -0.15153325 -0.0045180377 0
-0.0099999933 -0.15165702 -0.0017394186 0
-0.010000006 -0.15131146 0.001523627 0
-0.010000017 -0.15166973 0.0047721518 0
-0.010000029 -0.15142642 0.0077402852 0
-0.0096933255 -0.15129016 0.0097989514 0
-0.0073605371 -0.15151316 -0.0099994782 0
-0.0073747505 -0.15168588 0.010000523 0
-0.0045031481 -0.15131187 -0.0099994699 0
-0.004606016 -0.15162624 0.010000533 0
-0.0011855904 -0.15129226 -0.0099994577 0
-0.0015038814 -0.15173762 0.010000542 0
0.0015140258 -0.15186672 -0.0099994466 0
0.0012946622 -0.15139873 0.010000553 0
0.0046351287 -0.15152209 -0.0099994345 0
0.0043972642 -0.1514347 0.010000565 0
0.0075650313 -0.15149191 -0.0099994252 0
0.0074487142 -0.15161309 0.010000576 0
0.0098918416 -0.15104282 -0.0096012596 0
0.010000029 -0.1514428 -0.0074484018 0
0.010000016 -0.15152034 -0.004557034 0
0.010000006 -0.15158476 -0.0014433539 0
0.0099999951 -0.15170531 0.0015744824 0
0.009999983 -0.15172982 0.0043372316 0
0.0099999746 -0.15137005 0.007436228 0
0.0097296583 -0.15160303 0.0097799813 0
-0.0097054411 -0.14838755 -0.0097794449 0
-0.0099999746 -0.14850183 -0.0075398386 0
-0.0099999839 -0.14824934 -0.004010451 0
-0.0099999951 -0.14866428 -0.0016592544 0
-0.010000006 -0.1488052 0.0015705873 0
-0.010000016 -0.14839524 0.0047392868 0
-0.010000029 -0.14871329 0.0074149547 0
-0.0097978897 -0.1487779 0.0097526144 0
-0.0070781154 -0.1485495 -0.0099994894 0
-0.007544986 -0.14874832 0.010000513 0
-0.0044872039 -0.14850508 -0.0099994792 0
-0.0043616439 -0.14808132 0.010000522 0
-0.0018944853 -0.14865603 -0.0099994699 0
-0.0017690432 -0.14891067 0.010000532 0
0.0016041113 -0.14855352 -0.0099994577 0
0.0014909456 -0.14839472 0.010000542 0
0.0043560467 -0.14840864 -0.0099994484 0
0.0042134174 -0.14835432 0.010000554 0
0.0073304977 -0.14853682 -0.0099994382 0
0.0072433371 -0.14859574 0.010000566 0
0.0098124081 -0.14868437 -0.0097330669 0
0.010000029 -0.14842977 -0.007606369 0
0.010000018 -0.14839841 -0.0046698796 0
0.010000006 -0.14860833 -0.0013106181 0
0.0099999951 -0.14860475 0.0014118977 0
0.0099999849 -0.14862809 0.0043596574 0
0.0099999737 -0.1483404 0.0073978398 0
0.0095473127 -0.14825782 0.0099235224 0
-0.0098136682 -0.14539769 -0.0097980807 0
-0.0099999737 -0.14552894 -0.0074237767 0
-0.0099999858 -0.14572209 -0.0044198954 0
-0.0099999942 -0.14573477 -0.0012982017 0
-0.010000006 -0.1458168 0.0012170726 0
-0.010000017 -0.14554438 0.00464756 0
-0.010000028 -0.14578128 0.0073485598 0
-0.0099852728 -0.14519289 0.009549655 0
-0.0075607267 -0.1455192 -0.0099995006 0
-0.0076017217 -0.14565055 0.010000501 0
-0.0044640922 -0.14524339 -0.0099994903 0
-0.0043422692 -0.14569545 0.010000511 0
-0.0018647125 -0.1456171 -0.0099994801 0
-0.001466912 -0.14570357 0.010000522 0
0.0017110358 -0.14527066 -0.0099994689 0
0.0014946061 -0.14508985 0.010000532 0
0.0042154347 -0.14534937 -0.0099994568 0
0.0043676496 -0.1451835 0.010000543 0
0.0077001709 -0.14551017 -0.0099994466 0
0.0076559512 -0.14573392 0.010000554 0
0.009782874 -0.1455678 -0.0097589325 0
0.010000029 -0.14530922 -0.0074476353 0
0.010000016 -0.14578016 -0.0046747248 0
0.010000006 -0.14544237 -0.0017125794 0
0.0099999961 -0.14551094 0.0015988123 0
0.0099999849 -0.14543745 0.0044341767 0
0.0099999718 -0.14555885 0.0075936397 0
0.0098633002 -0.14565443 0.0096517075 0
-0.0098172659 -0.14245069 -0.0096906591 0
-0.0099999737 -0.14244372 -0.0077199354 0
-0.0099999839 -0.14263839 -0.0041796099 0
-0.0099999961 -0.14224426 -0.0012838739 0
-0.010000007 -0.14234202 0.0017214803 0
-0.010000017 -0.14277908 0.0046929996 0
-0.010000029 -0.14232872 0.0075464696 0
-0.0098504229 -0.14248954 0.0094322469 0
-0.0076555437 -0.14252335 -0.0099995118 0
-0.0074531492 -0.14273494 0.010000492 0
-0.0047517777 -0.14227886 -0.0099995025 0
-0.0044438145 -0.14237149 0.0100005 0
-0.0018344924 -0.14236672 -0.0099994931 0
-0.0015343074 -0.14240895 0.010000512 0
0.0015503947 -0.14239243 -0.0099994801 0
0.0014689816 -0.14234607 0.010000521 0
0.0042169434 -0.14270461 -0.009999468 0
0.0045340406 -0.14256117 0.010000533 0
0.007237365 -0.14250314 -0.0099994568 0
0.0075669158 -0.1425595 0.010000545 0
0.0098048672 -0.14250162 -0.0097036427 0
0.010000029 -0.14266768 -0.0075280941 0
0.010000017 -0.14279506 -0.0046423608 0
0.010000003 -0.14224401 -0.0014117863 0
0.0099999961 -0.14246045 0.0013230382 0
0.0099999812 -0.14244734 0.0046460312 0
0.0099999718 -0.14250733 0.0074479659 0
0.0097792624 -0.14238441 0.0096651679 0
-0.0097281588 -0.1399975 -0.0098122358 0
-0.0099999746 -0.13955253 -0.0075555979 0
-0.0099999849 -0.13968191 -0.0044360864 0
-0.0099999951 -0.13940728 -0.0015545002 0
-0.010000007 -0.13950904 0.001668582 0
-0.010000017 -0.13918285 0.0046741934 0
-0.010000026 -0.13936359 0.0073311538 0
-0.0097441366 -0.13948756 0.0097511653 0
-0.0073354826 -0.13951482 -0.009999522 0
-0.0073120785 -0.13928415 0.010000478 0
-0.0043461872 -0.13946146 -0.0099995118 0
-0.0038207136 -0.13962701 0.010000493 0
-0.0012721182 -0.1393591 -0.0099995015 0
-0.0016892254 -0.13969007 0.010000501 0
0.0019739268 -0.13948573 -0.0099994894 0
0.0015823345 -0.13928349 0.01000051 0
0.0045405235 -0.13955815 -0.0099994792 0
0.0045796731 -0.13979782 0.010000522 0
0.0079339389 -0.13949032 -0.0099994671 0
0.0074954503 -0.13961314 0.010000534 0
0.0098324222 -0.13958681 -0.009711179 0
0.010000028 -0.13966937 -0.0075494167 0
0.010000018 -0.13938977 -0.0046389746 0
0.010000006 -0.13932969 -0.0015544011 0
0.0099999961 -0.13930452 0.0014909696 0
0.0099999839 -0.13946284 0.0046754056 0
0.0099999737 -0.13939194 0.0074278596 0
0.0097034164 -0.13958101 0.0097350674 0
-0.0096818805 -0.1368248 -0.0098124603 0
-0.0099999746 -0.13653935 -0.0073268595 0
-0.0099999839 -0.13636154 -0.004517993 0
-0.0099999933 -0.13662535 -0.0014264861 0
-0.010000005 -0.1363607 0.0014502017 0
-0.010000017 -0.13658269 0.0044150404 0
-0.010000028 -0.13628542 0.0075448598 0
-0.0097635621 -0.13689218 0.0098076891 0
-0.0074371598 -0.13622373 -0.009999535 0
-0.0075840862 -0.13645208 0.010000467 0
-0.0041588065 -0.13640851 -0.0099995229 0
-0.0045656725 -0.13640632 0.010000478 0
-0.001660461 -0.13616344 -0.0099995136 0
-0.0013613105 -0.13650423 0.010000491 0
0.0017530479 -0.13630921 -0.0099995015 0
0.0017614088 -0.13664518 0.010000502 0
0.0046718968 -0.13684563 -0.0099994885 0
0.0045300378 -0.13643514 0.010000509 0
0.0071500177 -0.13673517 -0.009999481 0
0.0073655518 -0.13632242 0.01000052 0
0.0099338386 -0.13604544 -0.0094779255 0
0.010000028 -0.13631298 -0.007382147 0
0.010000015 -0.13634096 -0.0040602926 0
0.010000007 -0.13621622 -0.0014286819 0
0.0099999914 -0.13650765 0.0019787296 0
0.0099999849 -0.13645895 0.0043539763 0
0.0099999737 -0.13637719 0.007613847 0
0.0097323433 -0.13662852 0.0097709037 0
-0.009705306 -0.13342953 -0.009770507 0
-0.0099999737 -0.13348939 -0.0077383677 0
-0.0099999849 -0.13338412 -0.0044584558 0
-0.0099999961 -0.13376021 -0.0012335639 0
-0.010000004 -0.1333563 0.0016127537 0
-0.010000017 -0.1335647 0.0045846635 0
-0.010000025 -0.13369448 0.0072683645 0
-0.0097668916 -0.13401479 0.0096591674 0
-0.0070464523 -0.13338427 -0.0099995434 0
-0.0075560934 -0.13355711 0.010000456 0
-0.004345085 -0.13353437 -0.0099995341 0
-0.0046291845 -0.13345376 0.010000466 0
-0.0015122211 -0.13370968 -0.0099995211 0
-0.0015082613 -0.13322975 0.010000478 0
0.0013202432 -0.13353895 -0.0099995127 0
0.0013765476 -0.13330576 0.010000487 0
0.0043528336 -0.13337266 -0.0099995006 0
0.0045193513 -0.13406965 0.010000503 0
0.0073162965 -0.13348489 -0.0099994913 0
0.0078500053 -0.13330583 0.010000512 0
0.0099418033 -0.13351895 -0.0096374955 0
0.010000028 -0.13364939 -0.0077475565 0
0.010000018 -0.13331687 -0.0048075668 0
0.010000005 -0.13319713 -0.0013305669 0
0.009999997 -0.13350825 0.0013338447 0
0.0099999849 -0.1335202 0.0042961962 0
0.0099999737 -0.13300492 0.0075908443 0
0.0097043971 -0.1334521 0.0097357268 0
-0.0096480716 -0.13042229 -0.0097531965 0
-0.0099999709 -0.13023277 -0.0078462735 0
-0.0099999858 -0.13058238 -0.0044164625 0
-0.0099999923 -0.13049789 -0.0015006784 0
-0.010000007 -0.13074125 0.0015162203 0
-0.010000017 -0.13071436 0.0043227421 0
-0.010000027 -0.13020536 0.0070896358 0
-0.0097453091 -0.13074501 0.0097347312 0
-0.0073622772 -0.13070405 -0.0099995555 0
-0.0074061411 -0.13051012 0.010000446 0
-0.0046465779 -0.13054715 -0.0099995453 0
-0.0048847944 -0.1306057 0.010000456 0
-0.0017231011 -0.13011327 -0.009999536 0
-0.0015812789 -0.13018465 0.010000467 0
0.0017014348 -0.13054243 -0.009999522 0
0.0015763487 -0.13085173 0.01000048 0
0.0047735795 -0.13073087 -0.0099995099 0
0.0043549635 -0.13047129 0.010000487 0
0.0072611021 -0.13053532 -0.0099995034 0
0.0076005161 -0.13057891 0.010000502 0
0.0097842412 -0.13056707 -0.0096892519 0
0.010000028 -0.13049218 -0.0075797671 0
0.010000018 -0.130813 -0.0047416622 0
0.010000006 -0.13077736 -0.0016007207 0
0.0099999951 -0.1308538 0.0013915562 0
0.0099999849 -0.13068917 0.004430538 0
0.0099999718 -0.13052414 0.0077703507 0
0.0097921304 -0.13070995 0.0097673619 0
-0.0098173115 -0.12732701 -0.009603898 0
-0.0099999728 -0.12795775 -0.0074873236 0
-0.0099999849 -0.12756485 -0.0043746536 0
-0.0099999961 -0.12781526 -0.0015025249 0
-0.010000005 -0.12732074 0.0015400979 0
-0.010000017 -0.12748316 0.004301521 0
-0.010000027 -0.12742782 0.0073419409 0
-0.0097371805 -0.12733454 0.0097593134 0
-0.0074830577 -0.12757067 -0.0099995658 0
-0.0076134205 -0.12760867 0.010000435 0
-0.0044029625 -0.12735406 -0.0099995565 0
-0.0046132631 -0.12755783 0.010000447 0
-0.0018103874 -0.12751107 -0.0099995453 0
-0.0015541307 -0.12759443 0.010000457 0
0.0015720639 -0.12740071 -0.0099995341 0
0.0016647213 -0.12719221 0.010000467 0
0.004399518 -0.12718076 -0.0099995239 0
0.0046840273 -0.12747177 0.010000478 0
0.007655032 -0.12738499 -0.0099995127 0
0.0074040825 -0.12756288 0.010000491 0
0.009771687 -0.12736288 -0.0096679833 0
0.010000027 -0.12748741 -0.0075684148 0
0.010000018 -0.12729487 -0.0047776392 0
0.010000006 -0.12705001 -0.0013828707 0
0.0099999961 -0.12752074 0.0017354971 0
0.0099999867 -0.12732142 0.0040167044 0
0.0099999756 -0.1277601 0.0072935522 0
0.0097397035 -0.12796086 0.0096788313 0
-0.0098520909 -0.1244228 -0.0096466951 0
-0.0099999737 -0.1246568 -0.0075876079 0
-0.0099999849 -0.12491857 -0.0046951999 0
-0.0099999933 -0.12469815 -0.0017281481 0
-0.010000007 -0.12453275 0.0017501232 0
-0.010000017 -0.12451628 0.0045153159 0
-0.010000028 -0.12459692 0.0073248474 0
-0.0095465677 -0.12456679 0.0098492121 0
-0.0072657145 -0.124446 -0.009999577 0
-0.0073094647 -0.1245255 0.010000426 0
-0.004622756 -0.1244325 -0.0099995676 0
-0.0047630942 -0.12453571 0.010000434 0
-0.0015990161 -0.12446275 -0.0099995565 0
-0.0016019718 -0.12394159 0.010000444 0
0.0016876188 -0.12450833 -0.0099995444 0
0.0016564185 -0.12449069 0.010000458 0
0.004439685 -0.12453461 -0.0099995341 0
0.0044258875 -0.12434123 0.010000467 0
0.0071268892 -0.12451325 -0.0099995239 0
0.0074955826 -0.12458482 0.010000478 0
0.009714419 -0.12456296 -0.009709632 0
0.010000028 -0.12453336 -0.0074196644 0
0.010000018 -0.12472436 -0.0046593412 0
0.010000005 -0.12449507 -0.0017157107 0
0.0099999942 -0.12442503 0.0015955169 0
0.0099999839 -0.12440658 0.0045436663 0
0.0099999737 -0.12458718 0.0073429546 0
0.0095163127 -0.12461008 0.0097538326 0
-0.0095783705 -0.12188489 -0.0098682418 0
-0.0099999737 -0.12163419 -0.0075631454 0
-0.0099999839 -0.12168845 -0.0047627529 0
-0.0099999961 -0.12135461 -0.0013963036 0
-0.010000005 -0.12137013 0.0018066582 0
-0.010000017 -0.12164696 0.0043939594 0
-0.010000025 -0.12170521 0.0074011465 0
-0.0098506482 -0.12126327 0.0096424101 0
-0.0075030178 -0.12125194 -0.0099995891 0
-0.0074808355 -0.12158062 0.010000415 0
-0.0045098532 -0.12160916 -0.009999577 0
-0.0046167541 -0.12175611 0.010000424 0
-0.0012931878 -0.12159262 -0.009999563 0
-0.001559741 -0.12130728 0.010000435 0
0.0015302636 -0.1213777 -0.0099995555 0
0.0015413109 -0.12129594 0.010000445 0
0.0046243789 -0.12151913 -0.0099995425 0
0.0043293117 -0.1213951 0.010000457 0
0.0076543689 -0.12170914 -0.0099995313 0
0.008053204 -0.12142523 0.01000047 0
0.0097880326 -0.12138878 -0.0097094737 0
0.010000027 -0.12140498 -0.0076507735 0
0.010000017 -0.1213572 -0.0044284211 0
0.010000007 -0.12136508 -0.0018892186 0
0.0099999942 -0.12156091 0.001599826 0
0.0099999867 -0.12155002 0.00424283 0
0.0099999756 -0.12157475 0.0072681135 0
0.0096580731 -0.12156373 0.0097036893 0
-0.0097448882 -0.11847097 -0.0096871769 0
-0.0099999737 -0.1185606 -0.0076526986 0
-0.0099999839 -0.11868025 -0.0047130259 0
-0.0099999961 -0.11832631 -0.001557847 0
-0.010000005 -0.11818628 0.0012379317 0
-0.010000017 -0.11873075 0.0047232583 0
-0.010000026 -0.11845119 0.0073863026 0
-0.0097889453 -0.11849992 0.009661966 0
-0.0072721536 -0.1184964 -0.0099995984 0
-0.0074306652 -0.11848275 0.010000401 0
-0.0045401831 -0.1183688 -0.00999959 0
-0.0047573098 -0.11853512 0.010000414 0
-0.0014802192 -0.11848242 -0.0099995751 0
-0.0013617432 -0.11847977 0.010000426 0
0.0022420248 -0.11838399 -0.0099995621 0
0.0014632484 -0.11825202 0.010000436 0
0.0044335192 -0.11827669 -0.0099995565 0
0.0047560977 -0.11854643 0.010000445 0
0.0072636409 -0.11854897 -0.0099995462 0
0.0071504973 -0.11802983 0.010000455 0
0.0097687133 -0.11805914 -0.0097762346 0
0.010000029 -0.11874301 -0.0074146762 0
0.010000017 -0.11874542 -0.0047023743 0
0.010000006 -0.11858663 -0.0013772637 0
0.0099999961 -0.11868173 0.0013515435 0
0.0099999839 -0.11851584 0.0042951503 0
0.0099999718 -0.1185101 0.0075204712 0
0.0097676022 -0.11810334 0.0097152749 0
-0.0096692834 -0.11525752 -0.009875684 0
-0.0099999746 -0.11535972 -0.0075724032 0
-0.0099999849 -0.11553649 -0.00456214 0
-0.0099999951 -0.11545236 -0.0017495598 0
-0.010000006 -0.11546097 0.0015310631 0
-0.010000017 -0.11518422 0.0045821485 0
-0.010000026 -0.11533945 0.0071268436 0
-0.0097799059 -0.11567927 0.009838623 0
-0.0078174593 -0.11540987 -0.0099996105 0
-0.0071813376 -0.11545616 0.010000394 0
-0.0045228931 -0.11569849 -0.0099995984 0
-0.0044564228 -0.11533695 0.0100004 0
-0.0012953248 -0.11593252 -0.0099995853 0
-0.0015022255 -0.11561913 0.010000413 0
0.0015582881 -0.11539885 -0.009999577 0
0.0016033069 -0.11559905 0.010000424 0
0.0045793056 -0.11534279 -0.0099995667 0
0.00447293 -0.11522435 0.010000434 0
0.0076611326 -0.1154362 -0.0099995555 0
0.0074973702 -0.11550628 0.010000447 0
0.0097231939 -0.11554661 -0.0097583029 0
0.010000029 -0.11584999 -0.0078050168 0
0.010000017 -0.11555883 -0.0043344474 0
0.010000006 -0.11573329 -0.0015402957 0
0.0099999942 -0.11561773 0.0014604463 0
0.0099999839 -0.11525636 0.0045546782 0
0.0099999728 -0.11530502 0.0075733089 0
0.0096905176 -0.1155282 0.0098664407 0
-0.0096406648 -0.11237102 -0.0098202657 0
-0.0099999728 -0.1126113 -0.0077338153 0
-0.009999983 -0.11256828 -0.0047629811 0
-0.009999997 -0.11222161 -0.0014021221 0
-0.010000005 -0.11251114 0.0015574855 0
-0.010000017 -0.11263288 0.0049375007 0
-0.010000025 -0.11257485 0.0075720404 0
-0.0097474586 -0.11282969 0.0096832318 0
-0.0074563678 -0.11270556 -0.0099996198 0
-0.006989385 -0.1122127 0.010000381 0
-0.0046040006 -0.11276691 -0.0099996086 0
-0.0044656373 -0.1126158 0.010000393 0
-0.0017934971 -0.11249445 -0.0099996012 0
-0.0016097281 -0.11226172 0.010000401 0
0.0014496368 -0.11286503 -0.0099995863 0
0.0013853299 -0.11218494 0.010000412 0
0.004787758 -0.11238347 -0.009999577 0
0.0047651925 -0.11235201 0.010000425 0
0.0076026004 -0.11263701 -0.0099995648 0
0.0076802657 -0.11234554 0.010000437 0
0.009673507 -0.11213414 -0.0097587956 0
0.010000026 -0.1125053 -0.0073225084 0
0.010000016 -0.11240398 -0.004604992 0
0.010000004 -0.11211187 -0.0012233368 0
0.0099999951 -0.11246336 0.0017768544 0
0.0099999849 -0.1125482 0.0043705483 0
0.0099999718 -0.11258057 0.0075673009 0
0.0097520007 -0.11257694 0.0097513888 0
-0.0097881071 -0.10937829 -0.0097745499 0
-0.0099999737 -0.10952283 -0.0074389647 0
-0.0099999849 -0.10931189 -0.0045848461 0
-0.0099999951 -0.10950541 -0.0014796964 0
-0.010000006 -0.10959731 0.0016361946 0
-0.010000016 -0.10928454 0.0039937738 0
-0.010000029 -0.10929484 0.0077895406 0
-0.0098267011 -0.10949133 0.0096424483 0
-0.0076709678 -0.10948053 -0.0099996328 0
-0.0073576234 -0.10941153 0.01000037 0
-0.004343919 -0.10949057 -0.0099996189 0
-0.0045677195 -0.10939587 0.01000038 0
-0.0015218026 -0.1094087 -0.0099996077 0
-0.0015944289 -0.10960967 0.010000391 0
0.0015148422 -0.10946108 -0.0099996002 0
0.0015288633 -0.10960697 0.010000404 0
0.0044327038 -0.10967597 -0.0099995881 0
0.0047839209 -0.10957095 0.010000415 0
0.007344794 -0.10955962 -0.009999577 0
0.0071544098 -0.10946891 0.010000423 0
0.0097060204 -0.10887923 -0.009791472 0
0.010000029 -0.10944425 -0.007791732 0
0.010000017 -0.10951704 -0.0046554245 0
0.010000007 -0.10952321 -0.0017268847 0
0.0099999951 -0.10972365 0.0015798438 0
0.0099999839 -0.10964859 0.0041955891 0
0.0099999737 -0.10979859 0.0075326045 0
0.0097113168 -0.10970882 0.0098190233 0
-0.0096986704 -0.10670365 -0.009792069 0
-0.0099999746 -0.10650947 -0.0075107445 0
-0.0099999839 -0.10659128 -0.0045138439 0
-0.0099999942 -0.10652244 -0.0017963122 0
-0.010000004 -0.10659859 0.0013274442 0
-0.010000018 -0.10636566 0.0046484969 0
-0.010000029 -0.10678135 0.0077509643 0
-0.0097315237 -0.10642802 0.0097341677 0
-0.0078516882 -0.10665936 -0.0099996431 0
-0.0074800598 -0.10665687 0.010000358 0
-0.0047307312 -0.10661294 -0.0099996319 0
-0.0044704219 -0.10663836 0.010000371 0
-0.0016735559 -0.10657952 -0.0099996217 0
-0.0014185618 -0.1062277 0.010000377 0
0.0017678948 -0.10659909 -0.0099996077 0
0.0016319152 -0.10624114 0.010000392 0
0.0048976154 -0.10662962 -0.0099995974 0
0.00457604 -0.10627012 0.0100004 0
0.0074343486 -0.10636777 -0.00999959 0
0.007508643 -0.10649322 0.010000411 0
0.0097331572 -0.1067009 -0.0098024542 0
0.010000029 -0.10648907 -0.0077817626 0
0.010000017 -0.10624024 -0.0045098001 0
0.010000007 -0.10646436 -0.0017224245 0
0.009999997 -0.10628723 0.0013215998 0
0.0099999849 -0.10641163 0.0042314557 0
0.0099999709 -0.10695632 0.0074732043 0
0.009798198 -0.10605063 0.0096307527 0
-0.0097958911 -0.10383454 -0.0097332606 0
-0.0099999728 -0.10328942 -0.0074492218 0
-0.0099999858 -0.10350139 -0.0043686847 0
-0.0099999961 -0.10338978 -0.0011379722 0
-0.010000004 -0.10344101 0.0013918434 0
-0.010000017 -0.10377535 0.0045277714 0
-0.010000028 -0.10347011 0.0072064302 0
-0.0096571259 -0.10340314 0.0097098192 0
-0.0075529744 -0.10337244 -0.0099996543 0
-0.0074434471 -0.10312232 0.010000348 0
-0.0045355642 -0.10357945 -0.0099996431 0
-0.0045417948 -0.10364157 0.010000358 0
-0.0014302477 -0.10373902 -0.009999631 0
-0.0016080757 -0.10348583 0.01000037 0
0.0013989724 -0.10326283 -0.0099996235 0
0.0015383965 -0.10342962 0.010000381 0
0.0043934863 -0.10333353 -0.0099996096 0
0.0044425041 -0.10357668 0.010000393 0
0.0073132236 -0.10342785 -0.0099996012 0
0.0073015676 -0.10346361 0.010000401 0
0.009813589 -0.10337391 -0.0098074805 0
0.010000029 -0.1038213 -0.0075331731 0
0.010000017 -0.10377015 -0.0045920904 0
0.010000005 -0.10375547 -0.0010404963 0
0.009999997 -0.10353668 0.0013248647 0
0.0099999839 -0.10339864 0.0045752209 0
0.0099999746 -0.10397407 0.007429027 0
0.0098240133 -0.10377099 0.0097380662 0
-0.0097260661 -0.10021631 -0.009711829 0
-0.0099999756 -0.10063625 -0.0073024426 0
-0.0099999839 -0.10052778 -0.0042993519 0
-0.0099999933 -0.10044686 -0.0017039611 0
-0.010000004 -0.10056578 0.0015068641 0
-0.010000018 -0.10048454 0.0045249956 0
-0.010000029 -0.10058174 0.0077267471 0
-0.0097521814 -0.10072764 0.0098694814 0
-0.00766506 -0.10035501 -0.0099996645 0
-0.0074240118 -0.10047061 0.010000339 0
-0.0043441211 -0.10078309 -0.0099996496 0
-0.0046704561 -0.10052697 0.010000349 0
-0.0018550896 -0.10085218 -0.0099996421 0
-0.0016812421 -0.10074712 0.010000359 0
0.0013342095 -0.1004287 -0.0099996338 0
0.0017308347 -0.10062535 0.010000371 0
0.0046427688 -0.10052859 -0.0099996198 0
0.0046000229 -0.10049877 0.010000382 0
0.0076807085 -0.10041612 -0.0099996105 0
0.0075458535 -0.10078292 0.010000393 0
0.0097316829 -0.10028089 -0.0098173982 0
0.010000027 -0.10068443 -0.0076460955 0
0.010000017 -0.10018914 -0.0041648089 0
0.010000005 -0.1005991 -0.0016157493 0
0.0099999961 -0.10046377 0.0015268546 0
0.0099999839 -0.100643 0.0042540962 0
0.0099999737 -0.10064627 0.007577477 0
0.0097741932 -0.10052233 0.0097540896 0
-0.0097250976 -0.097621001 -0.0097476318 0
-0.0099999737 -0.097890191 -0.0073442752 0
-0.0099999858 -0.09728954 -0.004485087 0
-0.0099999961 -0.097609125 -0.0013631502 0
-0.010000005 -0.097502261 0.0013121659 0
-0.010000018 -0.097353563 0.0045752111 0
-0.010000029 -0.097410984 0.0074927439 0
-0.0096255196 -0.097466327 0.0098954896 0
-0.0075694094 -0.097342506 -0.0099996757 0
-0.0076539894 -0.097552516 0.010000327 0
-0.0043943343 -0.097597733 -0.0099996636 0
-0.0044068643 -0.097745977 0.010000339 0
-0.0016635919 -0.097380236 -0.0099996533 0
-0.001324264 -0.09768866 0.010000351 0
0.0012225716 -0.097493708 -0.009999644 0
0.0016002442 -0.0973325 0.010000358 0
0.0046221414 -0.097675234 -0.00999963 0
0.0044494737 -0.097757168 0.01000037 0
0.0071871094 -0.097555958 -0.0099996226 0
0.0072221011 -0.097256787 0.01000038 0
0.0097584929 -0.09752591 -0.0097202035 0
0.010000026 -0.097840093 -0.0073234644 0
0.010000018 -0.09747535 -0.0045323209 0
0.010000006 -0.097596571 -0.0013827968 0
0.009999997 -0.097477272 0.0012102186 0
0.0099999858 -0.097462714 0.0042221146 0
0.0099999728 -0.097487539 0.0076339757 0
0.0098339356 -0.097614646 0.0096485587 0
-0.0096745798 -0.094670281 -0.009724387 0
-0.0099999746 -0.094656497 -0.0073449491 0
-0.0099999839 -0.094266586 -0.0047051474 0
-0.0099999951 -0.094311379 -0.0014882995 0
-0.010000008 -0.094288573 0.0017009377 0
-0.010000018 -0.09441185 0.0046318118 0
-0.010000029 -0.094286092 0.007621665 0
-0.009689996 -0.094787814 0.0097607356 0
-0.0072116447 -0.094378471 -0.009999685 0
-0.0074361861 -0.094462998 0.010000316 0
-0.0045790696 -0.094428308 -0.0099996757 0
-0.0041862344 -0.09461531 0.010000329 0
-0.0014953146 -0.094425522 -0.0099996645 0
-0.0016503887 -0.094695874 0.010000339 0
0.0012356053 -0.094556771 -0.0099996543 0
0.001938978 -0.094512269 0.010000349 0
0.0045013358 -0.094395079 -0.0099996431 0
0.004491399 -0.09405411 0.010000358 0
0.0074093216 -0.094628736 -0.00999963 0
0.0076639 -0.094293021 0.01000037 0
0.0099354368 -0.094849169 -0.0095400615 0
0.010000027 -0.09430927 -0.0072968625 0
0.010000015 -0.094253369 -0.0044134636 0
0.010000005 -0.094573967 -0.0016001652 0
0.0099999942 -0.094470672 0.001776051 0
0.0099999858 -0.094426848 0.004385828 0
0.0099999737 -0.094513133 0.0073557869 0
0.0096723652 -0.094541594 0.0096744252 0
-0.0098463008 -0.091585264 -0.0097211264 0
-0.00999997 -0.091343433 -0.0078872144 0
-0.0099999849 -0.091537535 -0.0042755133 0
-0.0099999961 -0.091450743 -0.0013809899 0
-0.010000006 -0.091543168 0.001567249 0
-0.010000017 -0.091134444 0.0044758758 0
-0.010000028 -0.091424361 0.0073895059 0
-0.0095448755 -0.09163487 0.0099653397 0
-0.0074817417 -0.091365293 -0.0099996962 0
-0.0075120898 -0.091455057 0.010000305 0
-0.0045371456 -0.091601729 -0.0099996869 0
-0.0046075382 -0.091376171 0.010000315 0
-0.0016131927 -0.091435879 -0.0099996757 0
-0.0014983406 -0.091677479 0.010000326 0
0.001503535 -0.091205701 -0.0099996645 0
0.0015341102 -0.091574349 0.010000337 0
0.0041652326 -0.091452494 -0.0099996552 0
0.0045459983 -0.091593638 0.01000035 0
0.007406354 -0.091304593 -0.0099996431 0
0.0073139956 -0.091509014 0.010000358 0
0.0098582814 -0.091609024 -0.009797195 0
0.01000003 -0.091426119 -0.0076956484 0
0.010000017 -0.091459453 -0.0047620172 0
0.010000006 -0.091551512 -0.0014766303 0
0.0099999951 -0.09152136 0.0015526317 0
0.0099999839 -0.09130419 0.0045122076 0
0.0099999746 -0.09122777 0.0075576445 0
0.0098601822 -0.091376841 0.0096079782 0
-0.009739778 -0.088569708 -0.0097822873 0
-0.0099999737 -0.088884607 -0.0071764863 0
-0.0099999858 -0.088461801 -0.0044121803 0
-0.0099999961 -0.088547885 -0.0015691157 0
-0.010000005 -0.088289447 0.0016950084 0
-0.010000016 -0.088194549 0.0042080749 0
-0.010000028 -0.088741571 0.007377584 0
-0.0098184701 -0.087835498 0.0098337261 0
-0.0077127269 -0.088618495 -0.0099997083 0
-0.0078036706 -0.088581763 0.010000293 0
-0.0042476091 -0.088630132 -0.0099996962 0
-0.0043464154 -0.088468604 0.010000305 0
-0.0016968097 -0.088526197 -0.0099996869 0
-0.0014260059 -0.08815001 0.010000314 0
0.0013090277 -0.088567808 -0.0099996757 0
0.0015055439 -0.088651791 0.010000326 0
0.0048154118 -0.088570714 -0.0099996626 0
0.0049371584 -0.088623032 0.01000034 0
0.0074384334 -0.088385664 -0.0099996543 0
0.0074581439 -0.088629454 0.010000347 0
0.0097565437 -0.088319756 -0.0096666813 0
0.010000029 -0.088535547 -0.0076474645 0
0.010000016 -0.088772409 -0.0043345541 0
0.010000005 -0.088235915 -0.0015914994 0
0.0099999951 -0.088435419 0.0014492907 0
0.0099999849 -0.088364579 0.0043756147 0
0.0099999746 -0.088352695 0.0073842085 0
0.0097791031 -0.088335335 0.0098287622 0
-0.0098972917 -0.08547058 -0.009584927 0
-0.0099999737 -0.08550258 -0.0076282248 0
-0.0099999849 -0.085399926 -0.0045741373 0
-0.0099999951 -0.085738048 -0.0018225714 0
-0.010000007 -0.085968249 0.0014369864 0
-0.010000017 -0.085461825 0.0045033535 0
-0.010000028 -0.085666977 0.0075066905 0
-0.0098950425 -0.085555643 0.0096495729 0
-0.0072785299 -0.084995627 -0.0099997185 0
-0.0077921082 -0.085548252 0.010000282 0
-0.0044830535 -0.085449658 -0.0099997073 0
-0.0041668541 -0.085430667 0.010000296 0
-0.0016417671 -0.085584655 -0.0099996962 0
-0.0011827833 -0.085558988 0.010000306 0
0.0015267167 -0.085498698 -0.0099996841 0
0.0011321097 -0.085440814 0.010000314 0
0.004497482 -0.085610308 -0.0099996757 0
0.0043623541 -0.085399233 0.010000327 0
0.0074812374 -0.085782588 -0.0099996608 0
0.0078168958 -0.085691698 0.010000339 0
0.0098669641 -0.085524142 -0.0096117556 0
0.010000028 -0.085012347 -0.0075131333 0
0.010000018 -0.085167199 -0.0046930537 0
0.010000006 -0.085490763 -0.0015773415 0
0.0099999951 -0.085388027 0.0013008489 0
0.0099999858 -0.08534313 0.0044260933 0
0.0099999746 -0.085653342 0.0072620958 0
0.0098195579 -0.085387155 0.0097481702 0
-0.0097560184 -0.082768634 -0.0097923679 0
-0.0099999746 -0.082309499 -0.0074263648 0
-0.0099999821 -0.083062321 -0.0048893327 0
-0.0099999961 -0.082537763 -0.0013975801 0
-0.010000005 -0.082327463 0.0016897204 0
-0.010000017 -0.08235497 0.0043378426 0
-0.010000027 -0.082595989 0.0072115464 0
-0.0097382497 -0.082531467 0.0097699165 0
-0.0074924417 -0.082793586 -0.0099997278 0
-0.0075414074 -0.082817629 0.010000274 0
-0.0048973234 -0.083054557 -0.0099997185 0
-0.0046962332 -0.082249209 0.010000283 0
-0.0013015467 -0.082146935 -0.0099997083 0
-0.0014288635 -0.08289583 0.010000294 0
0.0017543823 -0.083009683 -0.0099996915 0
0.0015140473 -0.082558714 0.010000306 0
0.0042031612 -0.082575217 -0.0099996859 0
0.0043739337 -0.082411952 0.010000315 0
0.0076407366 -0.082567014 -0.0099996747 0
0.0072081331 -0.082520224 0.010000326 0
0.0097804302 -0.082759775 -0.0096537182 0
0.010000027 -0.082471207 -0.0075893383 0
0.010000018 -0.082558632 -0.0048408103 0
0.010000005 -0.082166545 -0.0015095616 0
0.0099999942 -0.08262185 0.0016117939 0
0.0099999839 -0.082325213 0.0049655754 0
0.0099999728 -0.082430184 0.0076932516 0
0.0098291468 -0.082092226 0.0097751506 0
-0.0095194085 -0.079295024 -0.0098696304 0
-0.0099999746 -0.079514772 -0.0074693831 0
-0.0099999849 -0.079578012 -0.0043239985 0
-0.0099999951 -0.079559907 -0.0014782907 0
-0.010000006 -0.079417586 0.0014858299 0
-0.010000017 -0.079501152 0.0044979067 0
-0.010000026 -0.079475679 0.007439577 0
-0.009821997 -0.079471044 0.0098253414 0
-0.0075594238 -0.079651795 -0.009999739 0
-0.0075673428 -0.079567008 0.010000261 0
-0.0045710173 -0.079287693 -0.0099997306 0
-0.0045613972 -0.079568908 0.010000271 0
-0.0018541809 -0.079308555 -0.0099997204 0
-0.0014655583 -0.079345956 0.010000283 0
0.0016712624 -0.079536572 -0.0099997073 0
0.0016672859 -0.07945399 0.010000295 0
0.0048566773 -0.079495326 -0.0099996934 0
0.0045003663 -0.079639778 0.010000306 0
0.0077508967 -0.079344153 -0.0099996859 0
0.0071300417 -0.079510882 0.010000314 0
0.0098120477 -0.079444699 -0.0097511616 0
0.010000028 -0.079392605 -0.0071670101 0
0.010000017 -0.079510398 -0.0044691884 0
0.010000005 -0.079654239 -0.0014660737 0
0.0099999961 -0.079663984 0.0014865057 0
0.0099999867 -0.079501815 0.0042265132 0
0.0099999756 -0.079564229 0.0072860997 0
0.0097286971 -0.079559848 0.009716969 0
-0.0098772598 -0.07639499 -0.0096919667 0
-0.0099999746 -0.076418288 -0.0074118432 0
-0.0099999839 -0.076804228 -0.0046645752 0
-0.0099999951 -0.076238453 -0.0016283654 0
-0.010000006 -0.076416224 0.0013274933 0
-0.010000015 -0.076600328 0.0043809442 0
-0.010000026 -0.076571472 0.0072604222 0
-0.0098094093 -0.076691829 0.0096674515 0
-0.0076165125 -0.076351747 -0.009999753 0
-0.0075478661 -0.076730072 0.010000251 0
-0.0044357809 -0.076324917 -0.009999739 0
-0.0046884632 -0.076444134 0.01000026 0
-0.0016162491 -0.076191738 -0.0099997297 0
-0.0015366155 -0.07638073 0.010000273 0
0.001673291 -0.076531596 -0.0099997167 0
0.0014994849 -0.076453038 0.010000281 0
0.0042533739 -0.076381333 -0.0099997092 0
0.0043071546 -0.07630758 0.010000294 0
0.007396149 -0.076304108 -0.0099996952 0
0.0077027511 -0.076546304 0.010000306 0
0.0097646406 -0.076348588 -0.0096914228 0
0.010000027 -0.076927781 -0.0075512277 0
0.010000016 -0.076607309 -0.0046731047 0
0.010000006 -0.076591708 -0.001560215 0
0.0099999923 -0.076401062 0.0014884515 0
0.0099999858 -0.076582596 0.0044540227 0
0.0099999756 -0.076577529 0.0074454937 0
0.0098278364 -0.076523945 0.0096506132 0
-0.0098118708 -0.073323801 -0.0097386464 0
-0.0099999728 -0.07369066 -0.0076468643 0
-0.0099999849 -0.07326407 -0.0045201918 0
-0.0099999933 -0.073537372 -0.0014319954 0
-0.010000005 -0.073501855 0.0015400333 0
-0.010000018 -0.073611788 0.0047544492 0
-0.010000029 -0.073412664 0.0075493604 0
-0.0096715735 -0.073630296 0.0098458733 0
-0.0076240716 -0.073505849 -0.0099997623 0
-0.0075390153 -0.073422551 0.010000237 0
-0.0045177173 -0.073364772 -0.009999752 0
-0.0045314068 -0.073367044 0.010000248 0
-0.0015114326 -0.073450051 -0.0099997418 0
-0.0011305265 -0.073749587 0.010000264 0
0.0016160839 -0.073687017 -0.0099997288 0
0.0015603364 -0.073560767 0.01000027 0
0.004628405 -0.073141299 -0.0099997185 0
0.0046288162 -0.073712759 0.010000286 0
0.007523159 -0.073440947 -0.0099997092 0
0.0076223612 -0.073613428 0.010000296 0
0.0096957069 -0.073745675 -0.0097584166 0
0.010000027 -0.073566206 -0.0072562383 0
0.010000017 -0.073304065 -0.0046141432 0
0.010000005 -0.073282652 -0.0015305992 0
0.0099999961 -0.07366021 0.0012336846 0
0.0099999858 -0.073342495 0.0041979803 0
0.0099999746 -0.073384069 0.0074152099 0
0.0096604228 -0.073457457 0.0097843399 0
-0.0096986657 -0.070213966 -0.0099048922 0
-0.0099999728 -0.070695423 -0.0074668676 0
-0.0099999839 -0.070760675 -0.0047244378 0
-0.0099999951 -0.070233651 -0.0013145768 0
-0.010000005 -0.070397675 0.001358127 0
-0.010000014 -0.070181474 0.0041892468 0
-0.01000003 -0.070582651 0.0076392889 0
-0.0097292047 -0.070509814 0.0098074581 0
-0.0075752246 -0.070523791 -0.0099997735 0
-0.0078570945 -0.070628762 0.010000227 0
-0.0045877611 -0.07091134 -0.0099997614 0
-0.0046206946 -0.070548706 0.010000237 0
-0.0016090201 -0.070549719 -0.0099997511 0
-0.0018516232 -0.070467137 0.01000025 0
0.0017178233 -0.070142254 -0.0099997409 0
0.0014565439 -0.070660956 0.010000263 0
0.0043173623 -0.070562102 -0.0099997306 0
0.004570927 -0.070091233 0.010000272 0
0.0074964422 -0.070779778 -0.0099997157 0
0.0074987691 -0.0704474 0.010000284 0
0.0097636413 -0.070361756 -0.0097459424 0
0.010000028 -0.070243821 -0.0074695209 0
0.010000017 -0.070327252 -0.00437264 0
0.010000006 -0.070137002 -0.0017051495 0
0.0099999961 -0.070731491 0.0015392381 0
0.0099999858 -0.070654765 0.0043657208 0
0.0099999737 -0.070545763 0.0077110138 0
0.0098893484 -0.070555039 0.0095532853 0
-0.0098524056 -0.06735038 -0.0096481284 0
-0.0099999718 -0.067581266 -0.0075574382 0
-0.0099999849 -0.067460164 -0.0043423879 0
-0.0099999951 -0.067419961 -0.0014173537 0
-0.010000007 -0.067262702 0.0014576344 0
-0.010000015 -0.067547858 0.0044170897 0
-0.010000028 -0.067635201 0.007475798 0
-0.0097055007 -0.06733796 0.0097628245 0
-0.007563734 -0.067781545 -0.0099997828 0
-0.0074981987 -0.067459345 0.010000218 0
-0.004434946 -0.067379683 -0.0099997735 0
-0.004646319 -0.067253888 0.010000227 0
-0.0014381203 -0.067514032 -0.0099997623 0
-0.0016209446 -0.067912161 0.01000024 0
0.0016153107 -0.067561649 -0.0099997493 0
0.0013083969 -0.067219429 0.010000248 0
0.0047517689 -0.067012221 -0.0099997399 0
0.0044814805 -0.067139186 0.010000261 0
0.007503856 -0.067537509 -0.0099997278 0
0.0074584819 -0.067491092 0.010000272 0
0.0097926678 -0.067140751 -0.0097700302 0
0.010000028 -0.067865536 -0.007409839 0
0.010000017 -0.06753841 -0.0044822753 0
0.010000004 -0.067570195 -0.0013582269 0
0.0099999951 -0.067383692 0.0014750323 0
0.0099999849 -0.067268737 0.0043535531 0
0.0099999728 -0.06736657 0.0077939718 0
0.0096389093 -0.067931466 0.0098204277 0
-0.0097791729 -0.064619951 -0.0097805979 0
-0.0099999756 -0.064484514 -0.0073993471 0
-0.0099999858 -0.064458258 -0.0044413507 0
-0.0099999961 -0.064569667 -0.0013633167 0
-0.010000005 -0.064907759 0.0015154212 0
-0.010000017 -0.064799108 0.0044385474 0
-0.010000029 -0.064432673 0.0076229777 0
-0.0097328573 -0.064372309 0.0098460913 0
-0.0074854796 -0.064505719 -0.009999794 0
-0.0075666262 -0.064352281 0.010000207 0
-0.0044282158 -0.064580813 -0.0099997837 0
-0.0047059255 -0.064740039 0.01000022 0
-0.0014531045 -0.064538911 -0.0099997735 0
-0.0016444342 -0.064313494 0.010000228 0
0.0015287432 -0.064526953 -0.0099997614 0
0.0016643134 -0.064581312 0.01000024 0
0.004706047 -0.064323694 -0.0099997502 0
0.004621848 -0.064238742 0.010000248 0
0.0073834243 -0.064627223 -0.0099997399 0
0.0076415045 -0.064451851 0.010000262 0
0.009745609 -0.064183049 -0.0097664194 0
0.010000027 -0.06476555 -0.0072995741 0
0.010000017 -0.064465977 -0.004619265 0
0.010000006 -0.064487621 -0.001725333 0
0.0099999951 -0.064390987 0.0016340096 0
0.009999983 -0.064271584 0.0045169247 0
0.0099999728 -0.064550251 0.0076952251 0
0.0097413883 -0.064139582 0.0098175397 0
-0.0098973475 -0.061503377 -0.0097914729 0
-0.0099999746 -0.061567679 -0.0074771168 0
-0.0099999821 -0.061778784 -0.0046488252 0
-0.009999997 -0.061394706 -0.0011590486 0
-0.010000008 -0.061469104 0.0019130345 0
-0.010000014 -0.061321873 0.0042186873 0
-0.010000028 -0.061436389 0.0071107387 0
-0.0097396225 -0.061440952 0.0097769843 0
-0.0074917031 -0.061798889 -0.0099998042 0
-0.0075588669 -0.061499368 0.010000196 0
-0.0047906651 -0.061054684 -0.0099997967 0
-0.0046894271 -0.061473485 0.010000206 0
-0.0015964898 -0.061668675 -0.0099997828 0
-0.00098989706 -0.061510213 0.01000022 0
0.0016424981 -0.061441109 -0.0099997725 0
0.0011655166 -0.061299667 0.010000228 0
0.0044903224 -0.061529182 -0.0099997623 0
0.0044128555 -0.06153601 0.01000024 0
0.0075907419 -0.061024312 -0.009999753 0
0.0075334981 -0.061270442 0.010000248 0
0.0096411845 -0.061734665 -0.0099123903 0
0.01000003 -0.061164483 -0.0077084205 0
0.010000019 -0.06151906 -0.0048458721 0
0.010000006 -0.06167087 -0.0014791751 0
0.0099999961 -0.061318044 0.0015008774 0
0.0099999839 -0.061332349 0.0047934963 0
0.0099999718 -0.061674662 0.0077398494 0
0.0097365156 -0.061557204 0.0097960113 0
-0.0096356058 -0.058640741 -0.0097604981 0
-0.0099999746 -0.058846239 -0.0072190152 0
-0.0099999849 -0.058402639 -0.0046488876 0
-0.0099999951 -0.058698699 -0.0015475762 0
-0.010000007 -0.058297217 0.0018803196 0
-0.010000017 -0.058365211 0.0046372935 0
-0.010000031 -0.058889993 0.0076419972 0
-0.0095764138 -0.058302656 0.009902074 0
-0.0075837541 -0.058629148 -0.0099998135 0
-0.0076630004 -0.058770802 0.010000184 0
-0.0042736414 -0.05872713 -0.0099998051 0
-0.0044956505 -0.058895234 0.010000199 0
-0.0015546485 -0.058263477 -0.0099997958 0
-0.0013045924 -0.058265258 0.010000205 0
0.0013443123 -0.058280129 -0.0099997846 0
0.001653895 -0.058337867 0.010000218 0
0.0048104501 -0.058506716 -0.0099997716 0
0.0044005681 -0.05820255 0.010000226 0
0.0072900974 -0.058388449 -0.0099997632 0
0.007640677 -0.058621608 0.01000024 0
0.0097605018 -0.058369268 -0.0098408433 0
0.010000029 -0.058544558 -0.0075576869 0
0.010000017 -0.058469303 -0.004743401 0
0.010000004 -0.058222447 -0.0013525714 0
0.0099999961 -0.058079958 0.0015614938 0
0.0099999839 -0.058732945 0.0046913084 0
0.0099999737 -0.058651678 0.0073998487 0
0.009780135 -0.058754601 0.0096561974 0
-0.01216895 -0.054944437 -0.01216264 0
-0.012291924 -0.054781534 -0.010299283 0
-0.012265374 -0.054911908 -0.0076177251 0
-0.012285472 -0.054672964 -0.0047464003 0
-0.012273246 -0.05465414 -0.0018464876 0
-0.012261666 -0.054839175 0.0014588357 0
-0.012298914 -0.05462081 0.004948501 0
-0.012242367 -0.054951459 0.0072726021 0
-0.012289052 -0.05464036 0.010170832 0
-0.010486625 -0.054834999 -0.012241455 0
-0.010116221 -0.055512112 -0.010330977 0
-0.010258091 -0.055409305 -0.0075061154 0
-0.010181803 -0.055448592 -0.0047635748 0
-0.010123638 -0.055669561 -0.0012463547 0
-0.010099848 -0.055475667 0.0014126003 0
-0.010550908 -0.055554353 0.004579715 0
-0.010173379 -0.055470284 0.0074293464 0
-0.010078285 -0.0555823 0.010342865 0
-0.010479695 -0.054723773 0.012253013 0
-0.0079476228 -0.054722715 -0.012290202 0
-0.0072015361 -0.055598792 -0.010206567 0
-0.0076747825 -0.055300027 -0.0075375857 0
-0.0075472607 -0.055300009 -0.0045003602 0
-0.0074695349 -0.055300005 -0.0017454091 0
-0.0073667234 -0.05529999 0.0016365123 0
-0.0074018566 -0.055299982 0.004572412 0
-0.007577349 -0.055299971 0.0075954725 0
-0.0074782106 -0.055451162 0.010196884 0
-0.0078230752 -0.054790914 0.012251184 0
-0.0043884967 -0.054915685 -0.012231254 0
-0.0044908929 -0.055464271 -0.010052747 0
-0.0046685888 -0.055300023 -0.0075752516 0
-0.0044702352 -0.055300012 -0.0043415725 0
-0.0045124046 -0.055300005 -0.0018227448 0
-0.0044142939 -0.055299997 0.0013922277 0
-0.0045195296 -0.05529999 0.0045901146 0
-0.0046328236 -0.055299971 0.0075516407 0
-0.0043354803 -0.055514492 0.010275291 0
-0.0045518721 -0.05464166 0.012300182 0
-0.00083056424 -0.054442927 -0.012299805 0
-0.0015348017 -0.055465121 -0.0099754585 0
-0.0016146339 -0.055300027 -0.0076129972 0
-0.0016082961 -0.055300012 -0.0046258434 0
-0.0014279694 -0.055300001 -0.001485259 0
-0.0014766576 -0.05529999 0.0014167613 0
-0.0013673368 -0.055299982 0.0046271808 0
-0.0015744526 -0.055299979 0.0074951826 0
-0.0013699415 -0.055560701 0.010204664 0
-0.001424734 -0.054884959 0.012263623 0
0.0015923261 -0.055073496 -0.012218944 0
0.0015416936 -0.055549596 -0.010128448 0
0.0014878944 -0.055300027 -0.0075062215 0
0.0015793995 -0.055300016 -0.0046544876 0
0.0014436614 -0.055300005 -0.0014141429 0
0.0016040518 -0.055299994 0.0012510007 0
0.001545519 -0.055299982 0.0044536008 0
0.001480488 -0.055299971 0.0076582544 0
0.0013939962 -0.055605967 0.010084358 0
0.0017251888 -0.054698683 0.012243908 0
0.0041922228 -0.054685488 -0.012271855 0
0.0047927531 -0.055602081 -0.010312333 0
0.0042966693 -0.055300031 -0.0075510312 0
0.0042968229 -0.055300016 -0.0044414322 0
0.0043995888 -0.055300005 -0.0015647378 0
0.00433846 -0.055299997 0.0014257847 0
0.0046741921 -0.055299986 0.0045328597 0
0.0045371265 -0.055299971 0.0074867266 0
0.0041830214 -0.055476453 0.010073964 0
0.0046364572 -0.054767109 0.012270192 0
0.0073609501 -0.054853775 -0.012299774 0
0.0075029647 -0.055583697 -0.01022807 0
0.0074611832 -0.055300023 -0.0076915147 0
0.0074926857 -0.055300009 -0.0044318601 0
0.0075304951 -0.055300005 -0.0017448076 0
0.0072935331 -0.055299994 0.00156298 0
0.0076587149 -0.055299982 0.0045630122 0
0.0074134497 -0.055299979 0.0073352405 0
0.0077561727 -0.055592827 0.010091706 0
0.007596266 -0.054797746 0.012239223 0
0.01096571 -0.054724034 -0.012271222 0
0.010317018 -0.055556577 -0.01021474 0
0.010020279 -0.05551723 -0.0074075973 0
0.010172538 -0.055568516 -0.0044320133 0
0.01030557 -0.055510614 -0.0016193567 0
0.010317741 -0.05549942 0.0015275028 0
0.010276751 -0.055546902 0.0047456091 0
0.010236156 -0.055497348 0.0072567896 0
0.010262933 -0.055523712 0.010207119 0
0.01070535 -0.054730285 0.012281444 0
0.012215 -0.054707613 -0.012157263 0
0.012258796 -0.054752424 -0.010477596 0
0.012272094 -0.054784562 -0.0073046605 0
0.012300018 -0.054644581 -0.0052470015 0
0.012284729 -0.05453058 -0.0012022179 0
0.012288264 -0.054789104 0.0014207541 0
0.012299984 -0.054523576 0.0043841968 0
0.012243718 -0.055032063 0.0071562538 0
0.01225592 -0.054801822 0.011082214 0
0.012246545 -0.055299953 0.012086599 0
-0.01228434 -0.052554697 -0.012260579 0
-0.012299963 -0.052837495 -0.010599555 0
-0.012299976 -0.052586094 -0.00696627 0
-0.012299988 -0.052630145 -0.0040953062 0
-0.012299997 -0.052583784 -0.0016681261 0
-0.012300006 -0.052154075 0.0018221213 0
-0.012300022 -0.052501805 0.0043931943 0
-0.012300029 -0.052645922 0.0074126376 0
-0.012300042 -0.052368578 0.010587508 0
-0.012207065 -0.05183468 0.012221927 0
-0.010269669 -0.052491322 -0.012299852 0
-0.010665105 -0.052789122 0.012300157 0
-0.0075128018 -0.052815583 -0.012299836 0
-0.0071650613 -0.052538931 0.012300164 0
-0.0046180026 -0.052294824 -0.012299827 0
-0.0046920055 -0.052427769 0.012300175 0
-0.001421892 -0.052969795 -0.012299818 0
-0.0015870316 -0.052479174 0.012300188 0
0.0014069336 -0.052539844 -0.012299811 0
0.0014536688 -0.052486382 0.012300197 0
0.0045013563 -0.052353106 -0.012299795 0
0.0049725571 -0.052437764 0.012300207 0
0.0077801985 -0.052182522 -0.012299784 0
0.0078392867 -0.0524102 0.012300219 0
0.010533176 -0.052537695 -0.012299775 0
0.010524136 -0.052547988 0.012300231 0
0.012222393 -0.05242401 -0.012235552 0
0.012300039 -0.05223728 -0.010360165 0
0.012300028 -0.052389622 -0.0072139744 0
0.012300014 -0.052741814 -0.004207579 0
0.012300012 -0.052816581 -0.0014630355 0
0.012299995 -0.052388486 0.001403788 0
0.012299983 -0.052372761 0.0046857726 0
0.012299978 -0.05239819 0.0075815967 0
0.012299965 -0.052272551 0.010096199 0
0.012225396 -0.053272989 0.012162774 0
-0.012181528 -0.050000697 -0.012299863 0
-0.012299965 -0.049545754 -0.010613873 0
-0.012299974 -0.049749929 -0.0073824911 0
-0.012299984 -0.049328387 -0.0043454585 0
-0.012299997 -0.049425825 -0.0013259201 0
-0.012300004 -0.04929262 0.0012516537 0
-0.012300014 -0.04892699 0.0042098472 0
-0.012300029 -0.049505603 0.0074887485 0
-0.01230004 -0.049316097 0.010563074 0
-0.012156664 -0.04912081 0.012239225 0
-0.010403451 -0.04952855 -0.01229986 0
-0.010727248 -0.049465433 0.012300139 0
-0.0075168642 -0.049590763 -0.01229985 0
-0.0072820429 -0.049703952 0.012300159 0
