# .PCD v0.7 - Point Cloud Data file format
VERSION 0.7
FIELDS x y z rgb
SIZE 4 4 4 4
TYPE F F F F
COUNT 1 1 1 1
WIDTH 1192
HEIGHT 1
VIEWPOINT 0 0 0 1 0 0 0
POINTS 1192
DATA ascii
0.02567545 -0.23027693 0.0043981834 0
0.024968525 -0.23060182 0.015000924 0
0.025542401 -0.23037598 0.015994038 0
0.025669957 -0.23019986 0.019564228 0
0.025328225 -0.23019986 0.022508672 0
0.025341498 -0.23030443 0.024997244 0
0.024747612 -0.23035385 0.029093988 0
0.024725694 -0.23039486 0.031468697 0
0.025225682 -0.2303654 0.034646105 0
0.025323877 -0.23019978 0.037630156 0
0.025351714 -0.23019978 0.040878139 0
0.025606066 -0.23019977 0.043675859 0
0.02550645 -0.23019977 0.046602376 0
0.025287265 -0.23019983 0.049398962 0
0.025595801 -0.23019974 0.052247204 0
0.025597677 -0.23019975 0.055511732 0
0.025607839 -0.23019974 0.058304597 0
0.025661664 -0.23019974 0.061504226 0
0.025422629 -0.23037829 0.064098142 0
0.028392762 -0.23044267 -0.064106293 0
0.028481819 -0.23020014 -0.061454993 0
0.028590497 -0.23020013 -0.058606673 0
0.028640179 -0.23020016 -0.055756602 0
0.028573327 -0.23020014 -0.052804112 0
0.028370308 -0.23020014 -0.049526699 0
0.028594969 -0.23020008 -0.046526775 0
0.028415242 -0.23020011 -0.043587621 0
0.028859852 -0.23020014 -0.040762402 0
0.028386531 -0.23020011 -0.037533969 0
0.028609417 -0.23046677 -0.035361897 0
0.028128456 -0.23031242 -0.024718599 0
0.028524535 -0.23019999 -0.022618141 0
0.028638849 -0.23020004 -0.019766023 0
0.028538762 -0.23029618 -0.0159723 0
0.028619487 -0.23031041 -0.0042588119 0
0.0285262 -0.23019992 -0.0015029234 0
0.028566996 -0.23019998 0.0016311152 0
0.028564941 -0.2302794 0.0042650928 0
0.028719934 -0.23043615 0.015000938 0
0.028427806 -0.23019986 0.016245838 0
0.028512888 -0.23019989 0.019688478 0
0.028543454 -0.23019989 0.0223391 0
0.028395619 -0.23048638 0.024755707 0
0.028306436 -0.23046538 0.035104029 0
0.028244613 -0.23019984 0.03743235 0
0.028678535 -0.23019981 0.040523708 0
0.02827118 -0.23019983 0.043544039 0
0.028494745 -0.23019983 0.046671826 0
0.028279951 -0.2301998 0.049181636 0
0.028569406 -0.23019977 0.052920248 0
0.02840223 -0.23019972 0.05565368 0
0.028244425 -0.23019977 0.058278434 0
0.028472686 -0.23019971 0.061462134 0
0.028344726 -0.23039968 0.064099632 0
0.031516891 -0.23037292 -0.064170524 0
0.031577438 -0.23020016 -0.061709143 0
0.031455159 -0.23020022 -0.058542144 0
0.031562217 -0.23020013 -0.05548317 0
0.031333331 -0.23020014 -0.052268915 0
0.031249043 -0.23020013 -0.049499232 0
0.031547554 -0.23020008 -0.046618093 0
0.031312287 -0.2302001 -0.043526713 0
0.031515613 -0.23020008 -0.040738951 0
0.031666517 -0.23020007 -0.03758039 0
0.031556223 -0.23032698 -0.03537846 0
0.031329114 -0.23047663 -0.024891591 0
0.031514701 -0.23020001 -0.022499364 0
0.031638786 -0.23020005 -0.019434661 0
0.031536348 -0.23024674 -0.015985457 0
0.031643577 -0.23033153 -0.0042662695 0
0.031759508 -0.23019996 -0.0015376374 0
0.031387884 -0.23019995 0.0017172502 0
0.031693988 -0.23032925 0.0042342446 0
0.032345548 -0.23075226 0.015000951 0
0.031556353 -0.23025048 0.016305013 0
0.031674545 -0.2301999 0.019514468 0
0.03162992 -0.23019989 0.022381557 0
0.031534243 -0.23042174 0.024855865 0
0.031753901 -0.23043995 0.035207134 0
0.031016657 -0.23019983 0.03760612 0
0.031376909 -0.2301998 0.040424917 0
0.031493787 -0.23019978 0.043142814 0
0.031571992 -0.23019977 0.046511412 0
0.031460464 -0.23019975 0.049670178 0
0.031457484 -0.23019977 0.052552655 0
0.031315647 -0.23019974 0.055278935 0
0.031530805 -0.23019972 0.058507532 0
0.031304907 -0.23019981 0.061577883 0
0.031686775 -0.23035297 0.064138152 0
0.034573816 -0.23031533 -0.064185157 0
0.034100432 -0.23020016 -0.061606944 0
0.034324311 -0.23020019 -0.058566839 0
0.034421716 -0.23020017 -0.05559786 0
0.034521956 -0.23020014 -0.052538041 0
0.034165557 -0.23020013 -0.049328871 0
0.03428347 -0.23020013 -0.046252199 0
0.034341406 -0.23020017 -0.043612491 0
0.034409799 -0.23020007 -0.040487822 0
0.03443677 -0.23020011 -0.037765924 0
0.034460608 -0.23047234 -0.035327937 0
0.034700345 -0.23040602 -0.024874453 0
0.034425903 -0.23020002 -0.022468058 0
0.034689739 -0.23020001 -0.019526001 0
0.034420554 -0.23030147 -0.016197853 0
0.034441147 -0.23040137 -0.0044259736 0
0.034668371 -0.23019995 -0.0018088135 0
0.034675051 -0.23019998 0.0015621715 0
0.034240521 -0.23037878 0.0042414195 0
0.034929745 -0.23061688 0.01500096 0
0.034685608 -0.23025891 0.016084537 0
0.034480747 -0.23019983 0.019560499 0
0.034174476 -0.23019989 0.022546127 0
0.034507368 -0.23029755 0.024775974 0
0.034109615 -0.23043036 0.035177737 0
0.034572195 -0.23019984 0.03716433 0
0.034467462 -0.23019978 0.040381499 0
0.034671523 -0.23019981 0.043048888 0
0.034523915 -0.23019975 0.046635583 0
0.034606636 -0.23019974 0.049510039 0
0.034406073 -0.23019977 0.052476615 0
0.034209061 -0.23019983 0.0553031 0
0.034440655 -0.23019971 0.058540795 0
0.034563404 -0.23019971 0.061417125 0
0.034503736 -0.23039494 0.064105228 0
0.037334114 -0.2303327 -0.064204164 0
0.03751795 -0.23020022 -0.061622676 0
0.03739338 -0.23020019 -0.05845153 0
0.037070401 -0.23020019 -0.055601984 0
0.037941568 -0.23020011 -0.05243177 0
0.037506718 -0.23020013 -0.049522202 0
0.037779782 -0.2302001 -0.04655635 0
0.037559919 -0.23020013 -0.04363836 0
0.037409525 -0.23020011 -0.040412102 0
0.037455853 -0.23020014 -0.037468933 0
0.037347153 -0.23023462 -0.035500202 0
0.037371688 -0.23036231 -0.02467799 0
0.0375656 -0.23020004 -0.022675799 0
0.037353847 -0.23019999 -0.019392379 0
0.037466973 -0.23026924 -0.016098507 0
0.037525829 -0.23041669 -0.0044144616 0
0.037597306 -0.23019996 -0.0018214536 0
0.037665892 -0.23019992 0.0014641306 0
0.037541188 -0.23039886 0.0043734298 0
0.038180407 -0.23072454 0.015000972 0
0.037402634 -0.23024106 0.016181407 0
0.037503205 -0.23019984 0.019348707 0
0.037462402 -0.23019984 0.022688683 0
0.037185706 -0.23039177 0.02473107 0
0.037932016 -0.23034884 0.03527109 0
0.037401106 -0.2301998 0.037552249 0
0.037588783 -0.2301998 0.040384606 0
0.037656784 -0.23019978 0.043546084 0
0.037582804 -0.23019981 0.046350777 0
0.03752875 -0.23019978 0.049356282 0
0.037455279 -0.23019977 0.052180771 0
0.037286453 -0.23019974 0.055359427 0
0.037467312 -0.23019974 0.05867574 0
0.037235647 -0.23019974 0.061668679 0
0.037255585 -0.23039246 0.064033091 0
0.040744931 -0.2303818 -0.064342551 0
0.040486284 -0.23020022 -0.06148712 0
0.040305201 -0.23020017 -0.058362409 0
0.040175345 -0.23020019 -0.055890363 0
0.040523492 -0.23020013 -0.052386004 0
0.040363993 -0.2302001 -0.049544558 0
0.040379256 -0.23020013 -0.046319824 0
0.040425625 -0.2302001 -0.043514829 0
0.040379781 -0.23020017 -0.040170811 0
0.040557008 -0.23020005 -0.037653748 0
0.040399469 -0.23041508 -0.035292707 0
0.04048394 -0.23042791 -0.024813905 0
0.04047304 -0.23020001 -0.022456571 0
0.040688127 -0.23020004 -0.019615175 0
0.040562306 -0.23025453 -0.016212003 0
0.040462989 -0.2302966 -0.0041072806 0
0.040457435 -0.23019998 -0.0016283513 0
0.040368646 -0.23019996 0.0017167069 0
0.040634893 -0.23030281 0.0043227063 0
0.040627573 -0.23050499 0.01500098 0
0.040728074 -0.23028189 0.016462052 0
0.040412776 -0.23019986 0.019662213 0
0.040415552 -0.23019987 0.022488255 0
0.040428989 -0.23054297 0.024857964 0
0.040642124 -0.23040706 0.035302047 0
0.040305909 -0.23019983 0.037491187 0
0.040651444 -0.23019977 0.040393189 0
0.040337328 -0.23019975 0.043834634 0
0.040467158 -0.23019977 0.046633486 0
0.040463105 -0.23019978 0.049606595 0
0.040165935 -0.23019984 0.052562717 0
0.040299423 -0.23019972 0.055670705 0
0.040680397 -0.23019977 0.058437079 0
0.04059466 -0.23019971 0.061413545 0
0.04034495 -0.23040506 0.064102575 0
0.043492019 -0.23026671 -0.064146601 0
0.043410972 -0.23020019 -0.061552811 0
0.043337349 -0.23020017 -0.058641817 0
0.043696854 -0.2302001 -0.055333737 0
0.043555506 -0.23020016 -0.052277919 0
0.043338187 -0.23020017 -0.049462084 0
0.043448657 -0.2302001 -0.046514157 0
0.043467104 -0.2302001 -0.043498125 0
0.043399218 -0.23020014 -0.040838189 0
0.043577787 -0.23020007 -0.037276573 0
0.043317825 -0.23042785 -0.035268974 0
0.043106396 -0.23031384 -0.024679542 0
0.043545302 -0.23020004 -0.02240807 0
0.043337241 -0.23020004 -0.019424884 0
0.043567516 -0.23026159 -0.016474539 0
0.043366283 -0.23029979 -0.0042421692 0
0.043690052 -0.23019993 -0.001392959 0
0.043545116 -0.23019993 0.0012327622 0
0.043586444 -0.23026571 0.004415636 0
0.042131364 -0.23094776 0.015000988 0
0.043341652 -0.2302504 0.016224977 0
0.04351417 -0.23019989 0.019801976 0
0.043503653 -0.2301999 0.022068251 0
0.043379314 -0.23026271 0.024591839 0
0.043123588 -0.23043837 0.035183672 0
0.043527562 -0.2301998 0.037502326 0
0.043500211 -0.23019977 0.040494356 0
0.043487873 -0.23019978 0.043318506 0
0.043787748 -0.23019975 0.046533175 0
0.043311961 -0.23019975 0.049744535 0
0.043758564 -0.23019975 0.052530408 0
0.043476153 -0.23019978 0.055602621 0
0.043221269 -0.23019977 0.05851708 0
0.043658033 -0.23019971 0.061334185 0
0.04378967 -0.23043567 0.064155862 0
0.046537556 -0.23039798 -0.064173684 0
0.046661198 -0.23020019 -0.061620042 0
0.046493094 -0.23020013 -0.058511633 0
0.046542462 -0.23020011 -0.055470955 0
0.046560392 -0.23020011 -0.05209722 0
0.046518814 -0.23020011 -0.049543012 0
0.046511371 -0.23020014 -0.046605494 0
0.046608329 -0.2302001 -0.043413304 0
0.046513703 -0.23020008 -0.040505864 0
0.046520971 -0.23020005 -0.037595328 0
0.046930961 -0.23032431 -0.035284676 0
0.046395794 -0.2303993 -0.024809392 0
0.046652954 -0.23020004 -0.022475908 0
0.046479151 -0.23019999 -0.019522931 0
0.046410993 -0.23028554 -0.016169854 0
0.046589747 -0.23031203 -0.0043646307 0
0.046427902 -0.23019993 -0.0014467314 0
0.046254668 -0.23019995 0.0015443396 0
0.046463031 -0.23028161 0.0042653675 0
0.046508797 -0.23023887 0.016181158 0
0.046324898 -0.23019987 0.019761417 0
0.04632616 -0.23019984 0.02227883 0
0.046349213 -0.23033792 0.024623929 0
0.046405323 -0.23040606 0.035236955 0
0.046462774 -0.23019989 0.03763672 0
0.046462636 -0.23019978 0.040527396 0
0.04652958 -0.23019978 0.043414872 0
0.046089169 -0.2301998 0.046812568 0
0.046640873 -0.2301998 0.049542066 0
0.046652097 -0.23019974 0.052008912 0
0.046348676 -0.23019975 0.055111475 0
0.046358604 -0.23019975 0.058268994 0
0.046740208 -0.23019975 0.061161608 0
0.046489093 -0.23039585 0.064115755 0
0.04894197 -0.23038583 -0.064254537 0
0.049251754 -0.23031171 -0.061460759 0
0.049513087 -0.23035209 -0.058383927 0
0.049388044 -0.23031758 -0.055514444 0
0.049092583 -0.23031427 -0.052432649 0
0.049350094 -0.23028407 -0.049489949 0
0.049412332 -0.2303092 -0.046389256 0
0.049431946 -0.23030555 -0.043437667 0
0.049462676 -0.23029578 -0.040697023 0
0.049220655 -0.23033372 -0.037454054 0
0.048681457 -0.23048247 -0.035254162 0
0.049103308 -0.23046032 -0.024848783 0
0.049485657 -0.23040545 -0.022385126 0
0.04916317 -0.23028457 -0.019479502 0
0.049450219 -0.23033987 -0.01645088 0
0.049165972 -0.23038505 -0.0041002794 0
0.049185034 -0.23031621 -0.0013500062 0
0.049473219 -0.23031381 0.0013663091 0
0.049320947 -0.23039711 0.004284428 0
0.049086615 -0.23034209 0.0163875 0
0.048981201 -0.23028386 0.020071385 0
0.049212117 -0.23030166 0.022492191 0
0.049443044 -0.23036933 0.024679046 0
0.049105868 -0.23037761 0.035488591 0
0.049119949 -0.23025492 0.037187558 0
0.049098872 -0.23032272 0.040772162 0
0.04978507 -0.23043668 0.043792829 0
0.049211875 -0.23035842 0.046361703 0
0.049241085 -0.23028879 0.049425088 0
0.049010698 -0.23027037 0.052333646 0
0.049309228 -0.23030643 0.055362467 0
0.049113519 -0.23027436 0.058367804 0
0.049156204 -0.23026107 0.061453942 0
0.049105082 -0.23041525 0.064049557 0
-0.0046573635 -0.22673422 -0.0043261065 0
-0.0049999938 -0.22662461 -0.0015811906 0
-0.005000005 -0.22634205 0.0015002653 0
-0.0043997308 -0.22668488 0.0046917405 0
-0.001597037 -0.22645909 -0.004999185 0
-0.0013506913 -0.22654513 0.0050008157 0
0.0016953883 -0.22664367 -0.0049991729 0
0.0015446877 -0.22630525 0.0050008255 0
0.0043070908 -0.22642271 -0.0049991636 0
0.0043409551 -0.22652 0.0050008353 0
0.0080249766 -0.22657269 -0.0045829639 0
0.0087590814 -0.22690703 -0.0010941814 0
0.0086706299 -0.22651394 0.0014999065 0
0.0078427065 -0.22643675 0.0046519334 0
-0.00460167 -0.22372499 -0.0044254372 0
-0.0049999943 -0.22370686 -0.0012951961 0
-0.0050000045 -0.22343373 0.0016054178 0
-0.0045222887 -0.22334512 0.0046193502 0
-0.0014017327 -0.22323605 -0.0049991971 0
-0.0014265976 -0.22336198 0.0050008022 0
0.0015443077 -0.22366618 -0.004999185 0
0.0015190538 -0.22357094 0.0050008139 0
0.0045375042 -0.22318844 -0.0049991747 0
0.0043890583 -0.22371912 0.0050008246 0
0.0074045681 -0.22357528 -0.0044979868 0
0.0079662483 -0.22338329 -0.0015988898 0
0.0079877861 -0.22347908 0.001705914 0
0.0076023638 -0.22359827 0.0045194263 0
-0.0045570075 -0.22051829 -0.0043437509 0
-0.0049999962 -0.22039145 -0.0012148364 0
-0.0050000045 -0.22061965 0.0013113054 0
-0.004413744 -0.22061068 0.004586692 0
-0.0014516297 -0.22063144 -0.0049992059 0
-0.0014265837 -0.22032359 0.0050007915 0
0.0013377208 -0.22041863 -0.0049991976 0
0.0013777835 -0.22053756 0.0050008036 0
0.0047281468 -0.22066955 -0.0049991845 0
0.0046225009 -0.22041492 0.0050008143 0
0.0070885113 -0.220487 -0.0043083457 0
0.0072854683 -0.22035763 -0.0014976618 0
0.0073307073 -0.22055869 0.001564813 0
0.0071773487 -0.22066714 0.0042359536 0
-0.0044962591 -0.21739969 -0.004569741 0
-0.0049999948 -0.21733227 -0.0012298635 0
-0.005000005 -0.21710671 0.0012694468 0
-0.0044159344 -0.21724115 0.0045422856 0
-0.0014536256 -0.21750383 -0.0049992166 0
-0.0015338925 -0.2174204 0.0050007817 0
0.0013930293 -0.2177887 -0.0049992073 0
0.0017059648 -0.21776152 0.0050007938 0
0.0044085961 -0.21732992 -0.0049991976 0
0.0041636215 -0.21767066 0.0050008036 0
0.0065408573 -0.21736065 -0.0044230684 0
0.0065982798 -0.21730345 -0.0016823881 0
0.0065699415 -0.21717757 0.0014903246 0
0.0065790364 -0.21768478 0.0042531923 0
-0.0044565452 -0.21451557 -0.0044835736 0
-0.0049999952 -0.21454091 -0.0013528767 0
-0.0050000041 -0.21434587 0.0012380208 0
-0.0046418388 -0.21481031 0.0042996751 0
-0.0017265865 -0.21474671 -0.0049992283 0
-0.001484897 -0.2143946 0.0050007692 0
0.0013432879 -0.21457414 -0.004999219 0
0.0017630919 -0.21425588 0.0050007817 0
0.0048619527 -0.21440393 -0.0046391026 0
0.0057444521 -0.21350865 -0.0011837985 0
0.0057973261 -0.2137437 0.0012871097 0
0.0046962858 -0.21422236 0.0046995352 0
0.0061345734 -0.21524251 -0.0040570679 0
0.0061801607 -0.21544515 -0.0016502581 0
0.0061870338 -0.21547572 0.0011363466 0
0.0061244657 -0.21519768 0.003802259 0
-0.0043035238 -0.2114851 -0.0043536876 0
-0.0049999943 -0.21137542 -0.0014341319 0
-0.0050000055 -0.21134567 0.0016536259 0
-0.0045907707 -0.21146609 0.0044621429 0
-0.0016786844 -0.21128944 -0.0049992404 0
-0.0015374257 -0.21170717 0.0050007608 0
0.0015290492 -0.21121158 -0.0049992302 0
0.0015367727 -0.21128552 0.0050007706 0
0.0046264953 -0.21159214 -0.0045703887 0
0.0052987644 -0.21152782 -0.0012737991 0
0.0053172633 -0.21159761 0.001457748 0
0.0047809794 -0.21167362 0.0046301801 0
-0.0046432875 -0.20840985 -0.0043868846 0
-0.0049999943 -0.20860253 -0.0018204539 0
-0.0050000041 -0.20838594 0.0015385206 0
-0.0043118363 -0.20842713 0.0046520988 0
-0.0013752086 -0.2083994 -0.0049992516 0
-0.0016090873 -0.20856856 0.0050007482 0
0.0013885449 -0.2083887 -0.0049992409 0
0.0014961204 -0.20849703 0.0050007589 0
0.004464203 -0.2085571 -0.0045170109 0
0.0050000055 -0.20826523 -0.0017065653 0
0.0049999929 -0.2084178 0.0018549995 0
0.0044285459 -0.20855847 0.0045235739 0
-0.0046428479 -0.2056601 -0.0044386187 0
-0.0049999952 -0.20563285 -0.0015845309 0
-0.0050000064 -0.20502318 0.0015767561 0
-0.0044796919 -0.20545557 0.0045154206 0
-0.0013523331 -0.20534061 -0.0049992623 0
-0.0013985437 -0.20534822 0.0050007375 0
0.0015103063 -0.20569688 -0.0049992502 0
0.0013168631 -0.20554118 0.0050007482 0
0.0045972606 -0.20538248 -0.0043138885 0
0.005000005 -0.20550705 -0.001505595 0
0.0049999938 -0.20554595 0.0015209611 0
0.004508601 -0.20565507 0.0045295134 0
-0.00443557 -0.20267077 -0.0046774112 0
-0.0049999957 -0.20216911 -0.001463157 0
-0.0050000064 -0.20226021 0.0016541305 0
-0.0044500208 -0.20240445 0.0045270231 0
-0.0013974959 -0.20239125 -0.004999273 0
-0.0015018716 -0.20251879 0.0050007263 0
0.0015563911 -0.20241079 -0.0049992604 0
0.0016925161 -0.20238779 0.005000738 0
0.0046013747 -0.20264982 -0.0043720487 0
0.0050000041 -0.20236853 -0.0014281835 0
0.0049999952 -0.20243685 0.0014088205 0
0.0046448763 -0.20263156 0.0043815491 0
-0.0045079393 -0.19938615 -0.0044905627 0
-0.0049999943 -0.19937387 -0.0016433349 0
-0.005000005 -0.19959311 0.0015114261 0
-0.0045349067 -0.19943187 0.0045901723 0
-0.0016625921 -0.19952253 -0.0049992832 0
-0.0015447115 -0.1993704 0.0050007161 0
0.001721444 -0.19937018 -0.0049992716 0
0.0014994616 -0.1996361 0.0050007286 0
0.0043786541 -0.19931941 -0.0045344592 0
0.0050000055 -0.1995551 -0.0013718676 0
0.0049999934 -0.19944379 0.0019048505 0
0.0045487392 -0.19942805 0.0043123015 0
-0.0045089093 -0.19666612 -0.0044684494 0
-0.0049999948 -0.19681461 -0.0015641855 0
-0.0050000045 -0.19651334 0.0014132197 0
-0.0044299318 -0.196383 0.004395742 0
-0.0012552157 -0.19639298 -0.0049992944 0
-0.0013098588 -0.19673127 0.0050007072 0
0.0012440044 -0.19640429 -0.0049992837 0
0.0012141841 -0.19646066 0.0050007142 0
0.0044213738 -0.1967673 -0.0045619416 0
0.0050000045 -0.19641979 -0.0014422124 0
0.0049999948 -0.19630378 0.0015369121 0
0.0045021279 -0.1965453 0.004440628 0
-0.0045361868 -0.19375993 -0.0044894014 0
-0.0049999952 -0.19308312 -0.0014209321 0
-0.0050000078 -0.19337806 0.0019285303 0
-0.0045192884 -0.19346386 0.0045681144 0
-0.0014415039 -0.19343808 -0.0049993051 0
-0.0015325014 -0.19341223 0.0050006937 0
0.0014634073 -0.19333443 -0.0049992939 0
0.001306897 -0.19344983 0.0050007044 0
0.0046455022 -0.1936556 -0.0044687423 0
0.005000005 -0.19366129 -0.0013524144 0
0.0049999952 -0.19364622 0.0013687443 0
0.0043805768 -0.19364095 0.0044614468 0
-0.0045211115 -0.19051534 -0.0045253434 0
-0.0049999929 -0.19047289 -0.0016229026 0
-0.0050000055 -0.19050638 0.0013382533 0
-0.0045053111 -0.19045939 0.0044576903 0
-0.0016447217 -0.19048923 -0.0049993168 0
-0.0015094074 -0.19028372 0.0050006835 0
0.0015927723 -0.19069836 -0.0049993042 0
0.0014080487 -0.19049515 0.0050006942 0
0.0045125508 -0.1904211 -0.0045279348 0
0.0050000064 -0.19031203 -0.0014833175 0
0.0049999943 -0.19054446 0.0017932507 0
0.0047236201 -0.1904231 0.0043764813 0
-0.0044118883 -0.18742195 -0.0046083578 0
-0.0049999952 -0.1875668 -0.0014903689 0
-0.005000005 -0.1875966 0.0014989009 0
-0.0044700042 -0.18770951 0.0043744533 0
-0.0015884109 -0.1876186 -0.0049993261 0
-0.0013847378 -0.18745011 0.0050006742 0
0.001316769 -0.18734591 -0.0049993168 0
0.0012865269 -0.18764418 0.0050006835 0
0.0044243648 -0.18741873 -0.0045286436 0
0.0050000055 -0.18747284 -0.0012737085 0
0.0049999943 -0.18728392 0.0015286104 0
0.0045757173 -0.1874692 0.0044127749 0
-0.0043773632 -0.18439457 -0.0045965752 0
-0.0049999929 -0.18441625 -0.0014530766 0
-0.005000005 -0.184662 0.0014940182 0
-0.0044398382 -0.18461759 0.0045467266 0
-0.0013201366 -0.1847914 -0.0049993354 0
-0.0016046691 -0.18421148 0.0050006607 0
0.0013631352 -0.18450515 -0.0049993261 0
0.0015062913 -0.18465522 0.0050006746 0
0.0043835617 -0.18433377 -0.0045615779 0
0.0050000073 -0.18474524 -0.0017455835 0
0.0049999952 -0.18439084 0.0015100591 0
0.0045331367 -0.18429969 0.0043402133 0
-0.0044775764 -0.18154727 -0.0046183933 0
-0.0049999948 -0.1814885 -0.001529029 0
-0.0050000059 -0.1815228 0.0016095774 0
-0.004517287 -0.18142885 0.0045016655 0
-0.0015251385 -0.18152691 -0.0049993484 0
-0.0018227616 -0.18127693 0.00500065 0
0.0016785443 -0.18145034 -0.0049993354 0
0.0015352084 -0.18161459 0.0050006635 0
0.0043752897 -0.18141034 -0.0046014651 0
0.0050000059 -0.18131936 -0.0016319264 0
0.0049999938 -0.18146808 0.0013597488 0
0.0046569859 -0.18124066 0.0044100555 0
-0.0044727176 -0.17864752 -0.0045144293 0
-0.0049999943 -0.17875446 -0.0013981726 0
-0.005000005 -0.17849895 0.0016738574 0
-0.0045097582 -0.17869668 0.0045406311 0
-0.0011774007 -0.17857176 -0.0049993582 0
-0.0014660775 -0.17838052 0.0050006416 0
0.001168911 -0.17837103 -0.0049993508 0
0.0014671439 -0.17849776 0.0050006504 0
0.0042201937 -0.17854333 -0.0045160553 0
0.0050000064 -0.1781504 -0.0016718041 0
0.0049999943 -0.17867023 0.0014110486 0
0.0046569454 -0.17860161 0.0044577918 0
-0.0046992437 -0.17547576 -0.004332283 0
-0.0049999952 -0.17546241 -0.0015975994 0
-0.005000005 -0.17568983 0.001594035 0
-0.0045718271 -0.1755157 0.0043525156 0
-0.0012502224 -0.17566895 -0.0049993694 0
-0.0017067698 -0.17515384 0.0050006281 0
0.0013686228 -0.17538998 -0.0049993596 0
0.0015385572 -0.17571124 0.005000642 0
0.0046307729 -0.17535421 -0.0043766825 0
0.0050000059 -0.17550364 -0.0016344577 0
0.0049999952 -0.17582245 0.0015254259 0
0.0046207123 -0.17558533 0.0043665194 0
-0.0045061968 -0.17253388 -0.004433753 0
-0.0049999924 -0.17261514 -0.0017456317 0
-0.0050000064 -0.17250124 0.0016644766 0
-0.0044861231 -0.17272501 0.0044854344 0
-0.0016351829 -0.17249349 -0.0049993806 0
-0.0013727772 -0.17251225 0.0050006201 0
0.0014519271 -0.17242615 -0.0049993712 0
0.0013076512 -0.17219965 0.0050006285 0
0.0046993704 -0.17260271 -0.0044099884 0
0.005000005 -0.17218469 -0.0014769393 0
0.0049999924 -0.17258385 0.00161378 0
0.0046243365 -0.1726114 0.0043984135 0
-0.0044612908 -0.16943806 -0.0045399261 0
-0.0049999943 -0.16937368 -0.0014125342 0
-0.005000005 -0.16957843 0.0013109568 0
-0.0045796158 -0.16947187 0.0045928587 0
-0.0015967946 -0.16969725 -0.0049993922 0
-0.0014671347 -0.16967824 0.005000609 0
0.0013327042 -0.16966406 -0.0049993801 0
0.0017252701 -0.16942264 0.0050006178 0
0.004515097 -0.16948666 -0.0044711391 0
0.0050000045 -0.16922712 -0.0015959686 0
0.0049999957 -0.16936158 0.0013726307 0
0.0043263976 -0.16940944 0.0045739538 0
-0.0044522509 -0.16642943 -0.0045476537 0
-0.0049999929 -0.16656797 -0.0015234069 0
-0.0050000041 -0.16645166 0.0014510746 0
-0.0045439927 -0.16636023 0.0043435106 0
-0.001454867 -0.16651839 -0.0049994029 0
-0.0016802393 -0.16649497 0.0050005964 0
0.0016133073 -0.16646603 -0.0049993917 0
0.0018742204 -0.16635239 0.0050006099 0
0.0044505829 -0.16641389 -0.0047229971 0
0.005000005 -0.16654252 -0.0015189979 0
0.0049999952 -0.1666992 0.0013953166 0
0.0044289562 -0.16633715 0.0045041754 0
-0.0044822702 -0.16366813 -0.0046106838 0
-0.0049999957 -0.16343191 -0.0014537896 0
-0.0050000059 -0.16320242 0.0014345985 0
-0.0044712126 -0.16358545 0.0047263633 0
-0.0018041945 -0.16362274 -0.0049994141 0
-0.0016122868 -0.16349642 0.0050005857 0
0.0014619844 -0.16350698 -0.004999402 0
0.0016046106 -0.16343777 0.0050005978 0
0.0044380804 -0.1634997 -0.0045209909 0
0.0050000055 -0.16334595 -0.0014464316 0
0.0049999943 -0.16365747 0.0012726792 0
0.0044976203 -0.16331008 0.0046492452 0
-0.0047202255 -0.16041549 -0.0041247727 0
-0.0049999934 -0.16054156 -0.0014661682 0
-0.0050000059 -0.16050623 0.0017547588 0
-0.0044351211 -0.16043398 0.0046081361 0
-0.0014572814 -0.16058695 -0.0049994234 0
-0.0013743868 -0.16067293 0.0050005768 0
0.001476663 -0.16062243 -0.0049994136 0
0.0014628969 -0.16057757 0.0050005852 0
0.0046645324 -0.16059816 -0.0042887405 0
0.0050000055 -0.16077532 -0.0016480086 0
0.0049999943 -0.16057937 0.0012565242 0
0.0045877909 -0.16072209 0.0045476477 0
-0.0045668203 -0.15759142 -0.0045259427 0
-0.0049999938 -0.15767153 -0.0015718336 0
-0.005000005 -0.15741919 0.0016747161 0
-0.0045052585 -0.15735459 0.0045193247 0
-0.0014573303 -0.15773708 -0.0049994341 0
-0.0017777099 -0.15737285 0.0050005629 0
0.0015598919 -0.15710773 -0.0049994253 0
0.001329207 -0.15735099 0.0050005745 0
0.0045056245 -0.15754946 -0.004251658 0
0.0050000036 -0.15734576 -0.0014488178 0
0.0049999938 -0.15770455 0.0015228275 0
0.0045220009 -0.15733936 0.0044912668 0
-0.0044049462 -0.15456282 -0.0047042277 0
-0.0049999962 -0.1546948 -0.0012086044 0
-0.005000005 -0.15422043 0.0016946145 0
-0.0045978432 -0.15473956 0.0045161741 0
-0.0016383621 -0.15437904 -0.0049994471 0
-0.0014681347 -0.15428816 0.0050005522 0
0.0015980223 -0.1543906 -0.0049994355 0
0.0013360322 -0.15435413 0.0050005624 0
0.0045056571 -0.15448457 -0.0045209005 0
0.0050000059 -0.15451883 -0.0016606734 0
0.0049999957 -0.15431051 0.0012730497 0
0.0045093922 -0.15443391 0.0046252091 0
-0.0044358545 -0.15155751 -0.004533079 0
-0.0049999948 -0.15128699 -0.0014911478 0
-0.0050000031 -0.15144286 0.0013932064 0
-0.0044127624 -0.15151833 0.0044448869 0
-0.0014310087 -0.15134464 -0.004999456 0
-0.0016044528 -0.15159349 0.0050005419 0
0.0013112801 -0.15162775 -0.0049994453 0
0.0015137235 -0.15148 0.0050005526 0
0.0044455016 -0.15129006 -0.0046619577 0
0.0050000041 -0.15179901 -0.0012853731 0
0.0049999943 -0.1516747 0.0015457204 0
0.0043691667 -0.15157078 0.004463152 0
-0.0047411458 -0.14854452 -0.0042515537 0
-0.0049999952 -0.14840475 -0.0014668592 0
-0.0050000064 -0.1485616 0.0016669206 0
-0.0044305907 -0.14837287 0.0046854001 0
-0.0015578315 -0.14831665 -0.0049994681 0
-0.0014590879 -0.14872508 0.0050005321 0
0.0013140216 -0.14836948 -0.0049994583 0
0.0015196215 -0.14855847 0.0050005424 0
0.0044427593 -0.14828089 -0.0045605204 0
0.0050000041 -0.14847857 -0.0013213292 0
0.0049999934 -0.14854464 0.0015536456 0
0.0043500103 -0.14878687 0.0046554576 0
-0.0045348136 -0.14572448 -0.0043399874 0
-0.0049999943 -0.14540595 -0.0015453611 0
-0.0050000055 -0.14574717 0.0014211837 0
-0.0045004636 -0.14538962 0.0044409675 0
-0.0014533687 -0.14530984 -0.0049994783 0
-0.0015040699 -0.14550561 0.0050005205 0
0.0013383937 -0.14546083 -0.004999469 0
0.0014469132 -0.14561249 0.0050005312 0
0.0045766761 -0.14543612 -0.0044236165 0
0.0050000045 -0.14568314 -0.0014736948 0
0.0049999952 -0.14561462 0.0013034357 0
0.0045397962 -0.14548318 0.0045262515 0
-0.0045485254 -0.14240868 -0.0044206763 0
-0.0049999943 -0.1421718 -0.0014659001 0
-0.0050000045 -0.14243731 0.0011403748 0
-0.004557115 -0.14258318 0.0045413994 0
-0.0014248077 -0.14261113 -0.0049994891 0
-0.0013444587 -0.142542 0.0050005112 0
0.0013362104 -0.14236675 -0.0049994802 0
0.001252387 -0.14230677 0.00500052 0
0.0045868261 -0.1425162 -0.0044713258 0
0.0050000073 -0.14250945 -0.0017443721 0
0.0049999957 -0.14225167 0.0013412598 0
0.004504092 -0.14258701 0.0043668654 0
-0.0045408946 -0.13969328 -0.004408258 0
-0.0049999952 -0.13956942 -0.0013122559 0
-0.0050000064 -0.13978189 0.0017108289 0
-0.0045626345 -0.13952769 0.0043714466 0
-0.0014352626 -0.13927121 -0.0049995012 0
-0.0011720455 -0.13956662 0.0050005005 0
0.0014405482 -0.1395236 -0.0049994891 0
0.0012720051 -0.13960277 0.0050005103 0
0.0045769461 -0.1395742 -0.0042944741 0
0.0050000055 -0.13943523 -0.0015214807 0
0.0049999934 -0.13947289 0.001698137 0
0.0045408076 -0.13942246 0.0044743745 0
-0.0043038176 -0.13649461 -0.0047245701 0
-0.0049999929 -0.13644454 -0.0016321389 0
-0.0050000064 -0.13625309 0.0015834639 0
-0.0045142956 -0.13650568 0.0045729019 0
-0.001284268 -0.13639297 -0.00499951 0
-0.0014881842 -0.13668044 0.0050004898 0
0.0011720879 -0.13668215 -0.0049995002 0
0.0018963013 -0.13648538 0.0050005005 0
0.0046458622 -0.13668698 -0.0045742118 0
0.005000005 -0.13658145 -0.0015590783 0
0.0049999962 -0.13640153 0.0012549758 0
0.0046097902 -0.13641924 0.0043374887 0
-0.0044525773 -0.13342923 -0.0045563136 0
-0.0049999943 -0.1331773 -0.0014473748 0
-0.0050000064 -0.13367414 0.001492491 0
-0.0044883699 -0.13324514 0.004449388 0
-0.0014945501 -0.13333572 -0.0049995221 0
-0.0017732644 -0.13348719 0.0050004758 0
0.0013717415 -0.13317613 -0.0049995137 0
0.0015435392 -0.1337494 0.0050004902 0
0.0042700875 -0.13348331 -0.0046122903 0
0.005000005 -0.13347693 -0.0015233097 0
0.0049999943 -0.13369195 0.0016104638 0
0.0043617371 -0.13353914 0.004596096 0
-0.0043605594 -0.13058637 -0.0044403784 0
-0.0049999934 -0.13067669 -0.0019122094 0
-0.0050000055 -0.13039489 0.0016391966 0
-0.0045353696 -0.13051139 0.0045414446 0
-0.0013808543 -0.1305232 -0.0049995319 0
-0.0014330851 -0.13072467 0.0050004674 0
0.0016761413 -0.13042957 -0.0049995221 0
0.0016850004 -0.13023594 0.0050004781 0
0.0046001486 -0.13069701 -0.0046434323 0
0.0050000069 -0.13040522 -0.0020311624 0
0.0049999966 -0.130349 0.0011324069 0
0.0043372647 -0.13064887 0.0047393097 0
-0.0044667181 -0.12753822 -0.004512575 0
-0.0049999948 -0.12765157 -0.0015908383 0
-0.0050000041 -0.12756965 0.0014384002 0
-0.0044140057 -0.12742436 0.0044777594 0
-0.0016837209 -0.12761609 -0.0049995435 0
-0.0014426799 -0.12760308 0.0050004558 0
0.0016508413 -0.12737289 -0.0049995324 0
0.0016787626 -0.12761495 0.0050004665 0
0.0044406918 -0.12747097 -0.0045284177 0
0.0050000059 -0.12733555 -0.001480572 0
0.0049999938 -0.12767766 0.0015444312 0
0.0044640531 -0.12742785 0.0045124888 0
-0.0044602575 -0.12450019 -0.0045579937 0
-0.0049999938 -0.1241462 -0.0017680201 0
-0.0050000045 -0.12450571 0.0014733505 0
-0.0044878288 -0.12456861 0.0044996268 0
-0.0016640293 -0.12454531 -0.0049995556 0
-0.0014313178 -0.12445109 0.0050004441 0
0.0015021084 -0.12471688 -0.0049995435 0
0.0016701592 -0.12463305 0.0050004567 0
0.0046014851 -0.1243202 -0.0043698307 0
0.0050000064 -0.12425373 -0.0018002909 0
0.0049999934 -0.12447629 0.0015992188 0
0.0044879918 -0.12476032 0.0046087829 0
-0.0043726834 -0.1215848 -0.0044681812 0
-0.0049999957 -0.12149524 -0.0013017827 0
-0.0050000055 -0.12145887 0.001519968 0
-0.0045138509 -0.12173899 0.0043603051 0
-0.0012309381 -0.12163834 -0.0049995636 0
-0.0013938338 -0.12130752 0.0050004348 0
0.0011146264 -0.12175131 -0.0049995547 0
0.0014493273 -0.1215841 0.0050004451 0
0.0044251052 -0.12171204 -0.0045757759 0
0.0050000041 -0.12157198 -0.0015072941 0
0.0049999948 -0.12152676 0.0014576253 0
0.0044457153 -0.12167949 0.0045096534 0
-0.004597473 -0.11862843 -0.0044365046 0
-0.0049999948 -0.11843622 -0.0014649507 0
-0.0050000064 -0.11870885 0.0016516087 0
-0.0045893937 -0.11854059 0.0044939909 0
-0.0014670783 -0.1183935 -0.0049995757 0
-0.0016113367 -0.11872321 0.0050004232 0
0.0016676446 -0.11867656 -0.004999565 0
0.0015221315 -0.118627 0.0050004357 0
0.0044433801 -0.11867181 -0.0045823539 0
0.0050000059 -0.118435 -0.0016607944 0
0.0049999957 -0.11885704 0.0013212506 0
0.0044678571 -0.11853094 0.0044455822 0
-0.0045705237 -0.1155699 -0.0043861298 0
-0.0049999957 -0.11567866 -0.001268458 0
-0.0050000059 -0.11555479 0.0018070064 0
-0.004559339 -0.11542086 0.0045510335 0
-0.0013068748 -0.11558432 -0.004999585 0
-0.0015872925 -0.11557104 0.0050004115 0
0.0015603895 -0.11573336 -0.0049995757 0
0.0015943764 -0.11546977 0.0050004232 0
0.0045811315 -0.11562405 -0.0044134697 0
0.0050000064 -0.11547441 -0.0015210389 0
0.0049999952 -0.11543676 0.0014475584 0
0.0046595326 -0.11523952 0.0043571997 0
-0.004233784 -0.1121958 -0.0046771187 0
-0.0049999952 -0.11253076 -0.0012750147 0
-0.0050000055 -0.1123278 0.0012885553 0
-0.0046117278 -0.11247397 0.0046121581 0
-0.0015061551 -0.11248518 -0.0049995985 0
-0.00142003 -0.1123881 0.0050004022 0
0.0014356428 -0.11248492 -0.0049995887 0
0.0012814068 -0.1125136 0.0050004115 0
0.004406834 -0.11251021 -0.0046330788 0
0.0050000064 -0.1125198 -0.0016191705 0
0.0049999943 -0.11258503 0.0014030287 0
0.0046171411 -0.11247495 0.0045419224 0
-0.0043574944 -0.10955313 -0.0046610096 0
-0.0049999948 -0.10956056 -0.0014233759 0
-0.0050000055 -0.10948822 0.0012927998 0
-0.0044233478 -0.10925086 0.0044926303 0
-0.0013497607 -0.10950989 -0.0049996078 0
-0.0013951656 -0.10938759 0.0050003896 0
0.0013912377 -0.10949049 -0.0049995976 0
0.0013567255 -0.10958795 0.0050004013 0
0.0044336165 -0.10938791 -0.0046885014 0
0.005000005 -0.1096101 -0.001614231 0
0.0049999938 -0.10949532 0.0016008859 0
0.0044303192 -0.10954721 0.0046241828 0
-0.004344143 -0.10634608 -0.0047644381 0
-0.0049999934 -0.10638734 -0.0015919614 0
-0.005000005 -0.10640329 0.0015888102 0
-0.0044709635 -0.10661595 0.004581592 0
-0.0016333981 -0.10656465 -0.0049996199 0
-0.0018296697 -0.10665467 0.0050003794 0
0.0014529475 -0.10644498 -0.0049996097 0
0.0015998188 -0.10620554 0.0050003901 0
0.004434912 -0.10634559 -0.0045544254 0
0.0050000055 -0.10657731 -0.0013850337 0
0.0049999943 -0.10670834 0.0014291806 0
0.0043218494 -0.10621475 0.0046462631 0
-0.0045714853 -0.10322954 -0.0045370697 0
-0.0049999943 -0.10340202 -0.0014208009 0
-0.0050000059 -0.10352802 0.0016553852 0
-0.004577443 -0.10360765 0.0045206021 0
-0.0015609026 -0.10345326 -0.004999632 0
-0.001471245 -0.10372993 0.0050003692 0
0.0014696589 -0.10348762 -0.0049996199 0
0.001619388 -0.10342514 0.0050003794 0
0.0044996906 -0.10330802 -0.0044760159 0
0.005000005 -0.10377575 -0.0015674456 0
0.0049999929 -0.10378137 0.0018091501 0
0.0046020364 -0.10325246 0.0043920306 0
-0.004476062 -0.10050341 -0.0044931737 0
-0.0049999952 -0.10016719 -0.001445879 0
-0.0050000055 -0.10066156 0.0013731347 0
-0.004485684 -0.10052673 0.0045743142 0
-0.0013975241 -0.10039017 -0.0049996409 0
-0.0016636938 -0.10072228 0.0050003589 0
0.0017408244 -0.10041921 -0.0049996292 0
0.0016470536 -0.10078181 0.005000371 0
0.0044000321 -0.10063397 -0.0046297833 0
0.0050000041 -0.10062866 -0.0014330932 0
0.0049999938 -0.10079473 0.0016646659 0
0.0045035766 -0.10036872 0.0043667709 0
-0.0044466257 -0.097356774 -0.0045295074 0
-0.0049999952 -0.097365886 -0.0014202646 0
-0.0050000059 -0.09741056 0.0016442189 0
-0.004478625 -0.097336538 0.0045487341 0
-0.00117269 -0.097568475 -0.0049996516 0
-0.0011611634 -0.097686574 0.0050003501 0
0.0016791561 -0.097544707 -0.0049996399 0
0.0017288548 -0.097535402 0.005000358 0
0.0044681579 -0.097684585 -0.0045235902 0
0.0050000045 -0.097448967 -0.0014527803 0
0.0049999948 -0.097457834 0.0014966575 0
0.0045711566 -0.097586311 0.0044384385 0
-0.0046966961 -0.09470433 -0.0045119654 0
-0.0049999943 -0.094714522 -0.0014631536 0
-0.0050000069 -0.094202682 0.0016850797 0
-0.0046084141 -0.09443789 0.0043291817 0
-0.0018036348 -0.094559126 -0.0049996637 0
-0.0016767702 -0.094518416 0.0050003356 0
0.0014275685 -0.094796017 -0.0049996516 0
0.0013046466 -0.094446607 0.0050003459 0
0.0043697432 -0.094718851 -0.0045792507 0
0.0050000045 -0.094788656 -0.0014724433 0
0.0049999938 -0.094569594 0.0016006919 0
0.0043224194 -0.094445206 0.0046088048 0
-0.0043848515 -0.091419399 -0.0046015731 0
-0.0049999943 -0.091543876 -0.0014824516 0
-0.0050000055 -0.091170184 0.0017077891 0
-0.0045733009 -0.091403984 0.0044430238 0
-0.001539534 -0.09170185 -0.0049996744 0
-0.001555468 -0.091441408 0.0050003254 0
0.0011789349 -0.091501474 -0.0049996651 0
0.0019609495 -0.091181181 0.0050003375 0
0.0045022997 -0.091538712 -0.004493813 0
0.0050000045 -0.091647953 -0.0015259902 0
0.0049999957 -0.09174554 0.0011979662 0
0.0045601847 -0.0915704 0.0044224919 0
-0.004462841 -0.088635117 -0.0046126796 0
-0.0049999943 -0.088532001 -0.0011707008 0
-0.0050000064 -0.088822618 0.0015596246 0
-0.0044434434 -0.088575214 0.0046736337 0
-0.0015284321 -0.088826351 -0.0049996842 0
-0.0014975381 -0.08832743 0.0050003137 0
0.0017650527 -0.088520885 -0.0049996725 0
0.0015939907 -0.088366613 0.0050003259 0
0.0045350366 -0.08843597 -0.0043899687 0
0.0050000055 -0.088572003 -0.0016821673 0
0.0049999938 -0.088598795 0.0014279996 0
0.0042234519 -0.088632166 0.0047619254 0
-0.0044662696 -0.085539132 -0.0045600701 0
-0.0049999948 -0.08531078 -0.0012613129 0
-0.0050000064 -0.085527368 0.001571733 0
-0.0045048706 -0.085683718 0.0046554119 0
-0.0013931028 -0.085576415 -0.0049996944 0
-0.0015238972 -0.085416026 0.005000304 0
0.0015458997 -0.085490897 -0.0049996842 0
0.0014454587 -0.085538231 0.0050003133 0
0.0045101442 -0.08562088 -0.0046084211 0
0.005000005 -0.085574813 -0.0015559667 0
0.0049999943 -0.085279956 0.00146395 0
0.0044148974 -0.085646763 0.004743583 0
-0.0042957128 -0.082602315 -0.0046279044 0
-0.0049999957 -0.082687385 -0.0013702484 0
-0.005000005 -0.082446322 0.0015455445 0
-0.0044279038 -0.08256451 0.0046110847 0
-0.0016323071 -0.082574822 -0.0049997065 0
-0.0013514841 -0.08237946 0.0050002919 0
0.0014883641 -0.082496509 -0.0049996949 0
0.0014788831 -0.082625389 0.0050003026 0
0.0046370849 -0.082434081 -0.0043794191 0
0.0050000055 -0.082566969 -0.001625143 0
0.0049999943 -0.081898779 0.0017211023 0
0.0046382803 -0.082607545 0.0043985997 0
-0.004445794 -0.079544753 -0.0044932007 0
-0.0049999948 -0.079551905 -0.0015741541 0
-0.005000005 -0.079356931 0.0014045575 0
-0.004555014 -0.079562739 0.0045959698 0
-0.0015358778 -0.07968878 -0.0049997177 0
-0.0015589247 -0.079620302 0.0050002816 0
0.001346992 -0.079489209 -0.004999707 0
0.0016031394 -0.079457946 0.0050002928 0
0.0046074199 -0.079534099 -0.0042815553 0
0.005000005 -0.079678603 -0.001525985 0
0.0049999957 -0.079435684 0.0012656047 0
0.0045205532 -0.079484813 0.0044919262 0
-0.0044785687 -0.076490067 -0.0044687656 0
-0.0049999948 -0.076283991 -0.001560943 0
-0.005000005 -0.076465853 0.0013506516 0
-0.004513063 -0.076450139 0.0045125 0
-0.0017330942 -0.076607317 -0.0049997284 0
-0.001479955 -0.076351635 0.0050002704 0
0.0015690462 -0.076375104 -0.0049997177 0
0.0017994335 -0.076620832 0.0050002835 0
0.0046339436 -0.076517597 -0.0044131707 0
0.0050000045 -0.076276481 -0.0012965988 0
0.0049999952 -0.076659679 0.001442188 0
0.0044716359 -0.076461114 0.0045256536 0
-0.0045260414 -0.073516503 -0.0044369823 0
-0.0049999943 -0.073494419 -0.0013908503 0
-0.0050000045 -0.073122442 0.0014445574 0
-0.0044428892 -0.073677823 0.0044837571 0
-0.0017260502 -0.073745407 -0.00499974 0
-0.0016410573 -0.07338132 0.0050002593 0
0.0014101372 -0.073287703 -0.0049997289 0
0.0016602235 -0.073551908 0.0050002714 0
0.0043305261 -0.073642142 -0.0045512458 0
0.0050000041 -0.073683716 -0.0014402666 0
0.0049999943 -0.073815085 0.0015130172 0
0.0044587222 -0.073466934 0.0045823944 0
-0.012029436 -0.069275148 -0.012399794 0
-0.012356828 -0.069573693 -0.010140878 0
-0.012312351 -0.069682278 -0.0077101761 0
-0.012358823 -0.069582708 -0.0039906469 0
-0.012385559 -0.069773763 -0.0014392306 0
-0.012349396 -0.06973654 0.0014286378 0
-0.012339884 -0.069676146 0.0043222499 0
-0.012366592 -0.069682904 0.0074156881 0
-0.012372971 -0.069484822 0.010733221 0
-0.012074378 -0.069948688 0.012214162 0
-0.01012224 -0.069736041 -0.012320585 0
-0.010547194 -0.07000006 -0.010738526 0
-0.01054959 -0.07000003 -0.0073671294 0
-0.010596082 -0.070000015 -0.0043573156 0
-0.01037231 -0.07000003 -0.0013519017 0
-0.010399326 -0.07 0.0016814977 0
-0.010329523 -0.069999993 0.0042567593 0
-0.010359952 -0.06999997 0.0078168595 0
-0.010617623 -0.069999978 0.010377694 0
-0.01047867 -0.06976781 0.012315472 0
-0.0077977306 -0.069492131 -0.012376504 0
-0.0072842021 -0.070000038 -0.010449423 0
-0.0072367284 -0.07000003 -0.0075106188 0
-0.0075489865 -0.070000038 -0.0043226657 0
-0.0072000246 -0.070000008 -0.0015754687 0
-0.0075791222 -0.070000015 0.0016639527 0
-0.0073226569 -0.070000008 0.0045359437 0
-0.0076892893 -0.069999985 0.0077001257 0
-0.0074834223 -0.069999985 0.010603577 0
-0.0079558659 -0.06962768 0.012361288 0
-0.0050848769 -0.069670528 -0.012296833 0
-0.0046151681 -0.070000052 -0.010509802 0
-0.0045970371 -0.07000003 -0.0075425929 0
-0.0042893537 -0.070544221 -0.0044549163 0
-0.0045954934 -0.070277505 -0.001418583 0
-0.0044995369 -0.070317239 0.0014217977 0
-0.0043810108 -0.070462644 0.0045825909 0
-0.0044441135 -0.069999985 0.007633043 0
-0.0044710459 -0.06999997 0.010536735 0
-0.0044410648 -0.069639787 0.012336247 0
-0.0012112797 -0.06956429 -0.012385276 0
-0.0016289153 -0.070000052 -0.01070363 0
-0.0012109015 -0.070000052 -0.0077314237 0
-0.0015927524 -0.07034865 -0.0046044253 0
-0.0015770077 -0.069999993 -0.0013449503 0
-0.0014050681 -0.069999993 0.0016112389 0
-0.0014742132 -0.070382133 0.0046114046 0
-0.0012929459 -0.069999985 0.0073416526 0
-0.0014544028 -0.069999978 0.010862053 0
-0.0012476032 -0.069596462 0.012366099 0
0.0013664393 -0.069597326 -0.012357932 0
0.0015333225 -0.070000045 -0.010127201 0
0.0013889309 -0.070000045 -0.007639904 0
0.0015469157 -0.070355892 -0.0045148344 0
0.0015709394 -0.069999985 -0.0014313571 0
0.0015051444 -0.07 0.0017086357 0
0.0014854394 -0.070291512 0.0044928468 0
0.0014573853 -0.069999978 0.0075407168 0
0.0015739418 -0.069999985 0.010544386 0
0.0015237522 -0.069512479 0.012368561 0
0.0043192641 -0.069636628 -0.012319013 0
0.0045738248 -0.070000045 -0.010348857 0
0.0044387933 -0.070000045 -0.0074498248 0
0.0044726287 -0.070420668 -0.0044136369 0
0.0046050269 -0.070334934 -0.0013762882 0
0.0045449683 -0.070219517 0.0017890261 0
0.0043133623 -0.070389807 0.0044646612 0
0.0043512522 -0.069999993 0.0075538363 0
0.0043575843 -0.069999963 0.010516246 0
0.0045629973 -0.069632642 0.012380001 0
0.0075186552 -0.069538027 -0.012345234 0
0.0074723265 -0.070000052 -0.01066162 0
0.0072218464 -0.070000052 -0.0076539572 0
0.0074115898 -0.070000038 -0.0043509374 0
0.0073533719 -0.07000003 -0.0016294776 0
0.0074490262 -0.070000008 0.0015087291 0
0.0077269375 -0.069999985 0.0044599222 0
0.0074137766 -0.069999985 0.0074555655 0
0.0079890136 -0.069999985 0.010310098 0
0.0073010987 -0.069672786 0.012375526 0
0.010299796 -0.069786496 -0.012319287 0
0.010489743 -0.07000006 -0.010862671 0
0.010445258 -0.070000023 -0.0074200518 0
0.010447248 -0.07000003 -0.004611759 0
0.010742393 -0.070000023 -0.00163919 0
0.010535709 -0.07 0.0014057833 0
0.010631148 -0.069999985 0.0046374374 0
0.010217064 -0.069999985 0.00756867 0
0.010459362 -0.06999997 0.010483097 0
0.01055664 -0.069585592 0.012323643 0
0.012224036 -0.069568075 -0.012303383 0
0.012293738 -0.069805741 -0.010116257 0
0.012362065 -0.069701247 -0.0068179769 0
0.012363668 -0.069573045 -0.0047344044 0
0.012367213 -0.069451012 -0.0016193864 0
0.01236384 -0.069688983 0.0019389325 0
0.012378562 -0.069552176 0.0038865935 0
0.012350473 -0.069571316 0.007642318 0
0.012380567 -0.069567226 0.010395628 0
0.012278838 -0.069571301 0.012390774 0
-0.012300394 -0.067477867 -0.012268136 0
-0.012399963 -0.067330912 -0.010385601 0
-0.012399973 -0.067574382 -0.0075593968 0
-0.012399984 -0.067256927 -0.0045339037 0
-0.012399996 -0.067654885 -0.0012880214 0
-0.012400007 -0.067694269 0.0014248136 0
-0.012400016 -0.067537189 0.0044634575 0
-0.012400028 -0.067286596 0.0074317195 0
-0.012400039 -0.067029819 0.010714221 0
-0.012310101 -0.066920072 0.012331631 0
-0.010474311 -0.067721389 -0.012399794 0
-0.010238216 -0.067453198 0.012400208 0
-0.0075928727 -0.067689925 -0.012399784 0
-0.0075491415 -0.067696087 0.01240022 0
-0.004088169 -0.067261882 -0.012399773 0
-0.004579213 -0.067539565 0.012400229 0
-0.0013351411 -0.067600839 -0.01239976 0
-0.0013082537 -0.067458019 0.012400241 0
0.001441037 -0.067478284 -0.012399751 0
0.0014067158 -0.067384094 0.01240025 0
0.0046167905 -0.067405932 -0.012399741 0
0.0046250653 -0.067529447 0.012400261 0
0.0072943242 -0.067460157 -0.01239973 0
0.007324433 -0.067304902 0.01240027 0
0.010643804 -0.067515723 -0.012399718 0
0.011037033 -0.067791864 0.012400286 0
0.012316186 -0.067525387 -0.012251158 0
0.012400039 -0.06745179 -0.010462195 0
0.012400027 -0.067244209 -0.0075863181 0
0.012400015 -0.067307882 -0.0041745617 0
0.012400006 -0.067716531 -0.0014990132 0
0.012399994 -0.067612417 0.0017118392 0
0.012399985 -0.067629546 0.004336555 0
0.012399974 -0.067550614 0.00754529 0
0.012399962 -0.067554511 0.010618852 0
0.012314508 -0.067483142 0.012275156 0
-0.012325815 -0.064782254 -0.012193864 0
-0.012399964 -0.064548813 -0.010398341 0
-0.012399974 -0.064504996 -0.0073818066 0
-0.012399985 -0.064503975 -0.004527682 0
-0.012399995 -0.064317115 -0.0014764633 0
-0.012400008 -0.064330526 0.0018194412 0
-0.012400019 -0.064447708 0.0045234966 0
-0.012400028 -0.064772151 0.0074537192 0
-0.012400039 -0.064236127 0.010710191 0
-0.012255402 -0.064132586 0.012377668 0
-0.010529973 -0.064656161 -0.012399805 0
-0.010297741 -0.064497657 0.012400198 0
-0.0078181066 -0.064041436 -0.012399796 0
-0.0074376212 -0.064636 0.012400208 0
-0.0046266885 -0.064587623 -0.012399783 0
-0.0042934725 -0.06452772 0.012400218 0
-0.0015995892 -0.064562276 -0.012399772 0
-0.0016808335 -0.064459972 0.012400229 0
0.0015480818 -0.064611763 -0.012399762 0
0.0014538257 -0.064653158 0.012400241 0
0.0043038726 -0.064548939 -0.012399752 0
0.0045824987 -0.064318627 0.012400251 0
0.0071569299 -0.064520791 -0.012399741 0
0.0076263272 -0.064195789 0.012400262 0
0.010703074 -0.064627312 -0.012399728 0
0.010649564 -0.064693153 0.012400272 0
0.012304824 -0.063993029 -0.012330395 0
0.012400039 -0.064474858 -0.01025724 0
0.012400029 -0.064376064 -0.007606009 0
0.012400017 -0.064538777 -0.004395742 0
0.012400007 -0.064505607 -0.0015513208 0
0.012399996 -0.064402409 0.0016504833 0
0.012399984 -0.064241536 0.0046436675 0
0.012399974 -0.064588614 0.0075505646 0
0.012399962 -0.064400971 0.010449654 0
0.012319814 -0.064109541 0.012258948 0
-0.012279727 -0.061679021 -0.012315059 0
-0.012399962 -0.061431374 -0.010671196 0
-0.012399972 -0.061227228 -0.0075921896 0
-0.012399985 -0.061483305 -0.0044670696 0
-0.012399996 -0.06144369 -0.0015848313 0
-0.012400008 -0.061524868 0.0017077681 0
-0.012400016 -0.061536692 0.0044356016 0
-0.012400028 -0.061361901 0.0072858557 0
-0.012400039 -0.061437082 0.010627111 0
-0.012298607 -0.061487958 0.012338144 0
-0.010391058 -0.061325472 -0.012399817 0
-0.010713892 -0.061428588 0.012400185 0
-0.0073646903 -0.061124265 -0.012399807 0
-0.007620757 -0.06139227 0.012400195 0
-0.0043429323 -0.061551366 -0.012399794 0
-0.0045639891 -0.061560694 0.012400208 0
-0.0013788149 -0.061634615 -0.012399782 0
-0.001449316 -0.061477952 0.012400218 0
0.0014188369 -0.061109241 -0.012399773 0
0.0014805272 -0.061579388 0.012400229 0
0.0045333207 -0.061355777 -0.012399762 0
0.0046601836 -0.061706018 0.012400242 0
0.0076888963 -0.06151497 -0.01239975 0
0.0075832545 -0.061689574 0.012400252 0
0.010672427 -0.06141077 -0.012399741 0
0.010636354 -0.061320607 0.01240026 0
0.012325486 -0.061345607 -0.012322647 0
0.012400039 -0.061396349 -0.010544937 0
0.012400029 -0.061456002 -0.007631321 0
0.012400017 -0.06151389 -0.0044494872 0
0.012400008 -0.061333086 -0.0015836037 0
0.012399994 -0.061380688 0.0016751585 0
0.012399985 -0.061154921 0.0044119498 0
0.012399972 -0.061417613 0.0079635568 0
0.012399962 -0.06127708 0.010431786 0
0.012267972 -0.061786857 0.012357287 0
-0.012307203 -0.057943784 -0.012352099 0
-0.012399963 -0.058472879 -0.010340739 0
-0.012399973 -0.058506515 -0.0075075459 0
-0.012399985 -0.058749989 -0.0041726623 0
-0.012399995 -0.058553588 -0.0015552352 0
-0.012400007 -0.058501661 0.0016232261 0
-0.012400017 -0.058414862 0.0045132474 0
-0.012400028 -0.058375526 0.0073677655 0
-0.01240004 -0.058151148 0.0107009 0
-0.012359751 -0.058447357 0.012329638 0
-0.010531955 -0.058321621 -0.012399828 0
-0.010305239 -0.058508288 0.012400175 0
-0.0078578331 -0.058550961 -0.012399818 0
-0.007461715 -0.058607694 0.012400185 0
-0.0042374288 -0.058629677 -0.012399803 0
-0.0044457032 -0.058586113 0.012400196 0
-0.0016395226 -0.058272798 -0.012399795 0
-0.0011423897 -0.058594193 0.012400209 0
0.00148995 -0.058491226 -0.012399784 0
0.001493915 -0.058584996 0.012400219 0
0.0043855701 -0.05878365 -0.012399773 0
0.0042306031 -0.058617156 0.012400227 0
0.0078389449 -0.058405947 -0.012399762 0
0.007327708 -0.058417905 0.012400238 0
0.010367128 -0.05847694 -0.012399752 0
0.010597432 -0.058472052 0.01240025 0
0.012347506 -0.058871422 -0.012269021 0
0.012400039 -0.058321431 -0.010513937 0
0.012400027 -0.058606427 -0.0074786944 0
0.012400018 -0.058437143 -0.0046656462 0
0.012400006 -0.058587376 -0.0012507505 0
0.012399996 -0.058308218 0.0014771529 0
0.012399985 -0.058608316 0.0043131178 0
0.012399974 -0.058297124 0.0073869717 0
0.012399963 -0.058429848 0.010542696 0
0.012303697 -0.058540769 0.012279877 0
-0.012311772 -0.056131124 -0.012304509 0
-0.012399965 -0.055429477 -0.010144101 0
-0.012399973 -0.055305216 -0.0073672812 0
-0.012399985 -0.055475675 -0.0045151124 0
-0.012399996 -0.055630494 -0.001636403 0
-0.012400006 -0.055319883 0.0014231004 0
-0.012400018 -0.055064525 0.0043217386 0
-0.012400027 -0.05543837 0.0075335577 0
-0.012400039 -0.055522829 0.01056973 0
-0.012310589 -0.055336107 0.012245778 0
-0.010402007 -0.05532451 -0.012399837 0
-0.010576244 -0.055323098 0.012400163 0
-0.0075578419 -0.055430043 -0.012399827 0
-0.0074753435 -0.055481028 0.012400175 0
-0.0046889228 -0.055595875 -0.012399817 0
