# .PCD v0.7 - Point Cloud Data file format
VERSION 0.7
FIELDS x y z rgb
SIZE 4 4 4 4
TYPE F F F F
COUNT 1 1 1 1
WIDTH 1224
HEIGHT 1
VIEWPOINT 0 0 0 1 0 0 0
POINTS 1224
DATA ascii
-0.00161237 -0.2301998 0.046543039 0
-0.0012995031 -0.23019978 0.049341463 0
-0.0015924711 -0.23019975 0.052507389 0
-0.0015687298 -0.23019978 0.055538632 0
-0.0016037014 -0.23019975 0.058444384 0
-0.0016146253 -0.23019974 0.06149273 0
-0.0012746014 -0.23019974 0.064658292 0
-0.0015746325 -0.23029949 0.067145109 0
-0.00030916542 -0.23033166 0.069447339 0
0.0028751362 -0.23020026 -0.072830088 0
0.0016219472 -0.23035125 -0.070542775 0
0.0014178321 -0.23020023 -0.067655183 0
0.001474809 -0.23020022 -0.064663924 0
0.001632888 -0.23020019 -0.061469026 0
0.001277391 -0.2302002 -0.058347397 0
0.0013112109 -0.23020017 -0.055513959 0
0.0013854732 -0.23020019 -0.052695289 0
0.0014526667 -0.23020016 -0.049436532 0
0.0013643508 -0.23020013 -0.046626404 0
0.0014426889 -0.23020011 -0.043494843 0
0.0012452754 -0.23020019 -0.040353436 0
0.0015972102 -0.2302001 -0.037531953 0
0.0017021679 -0.2302001 -0.034200229 0
0.0016104145 -0.23020008 -0.031434812 0
0.0012624305 -0.23020002 -0.028486386 0
0.0014145953 -0.23020008 -0.025277745 0
0.0014547261 -0.23020005 -0.02248176 0
0.0015132151 -0.23020004 -0.019291416 0
0.0016791839 -0.2302001 -0.016771622 0
0.0014053505 -0.23020004 -0.01346051 0
0.001393821 -0.22955973 -0.010383918 0
0.0013737241 -0.22972058 0.010545412 0
0.0016390944 -0.23019995 0.013563023 0
0.0015438684 -0.23019996 0.016587006 0
0.0016164363 -0.2301999 0.019860288 0
0.0016652157 -0.2301999 0.022712309 0
0.0017855184 -0.2301999 0.025463477 0
0.0016248452 -0.23019986 0.028536847 0
0.0016668158 -0.23019987 0.031602018 0
0.0013055892 -0.23019992 0.034649815 0
0.0017436713 -0.23019989 0.037721772 0
0.0014380994 -0.23019981 0.040441334 0
0.0016366539 -0.23019981 0.043600127 0
0.0015987027 -0.2301998 0.046341684 0
0.0015817954 -0.23019984 0.049048297 0
0.0012773543 -0.23019977 0.052536823 0
0.0010876368 -0.2301998 0.055342618 0
0.0013439776 -0.23019978 0.058366776 0
0.0015827029 -0.23019977 0.061424814 0
0.0019294953 -0.23019981 0.064448826 0
0.0017010348 -0.23019975 0.067830756 0
0.0014393432 -0.23036931 0.070519336 0
0.002524043 -0.23040466 0.072428487 0
0.0056432593 -0.23055983 -0.075571589 0
0.0044985022 -0.23025054 -0.073487788 0
0.0043940996 -0.23020023 -0.07041885 0
0.0044165016 -0.23020023 -0.067337655 0
0.0042489339 -0.23020023 -0.064486593 0
0.0045800274 -0.23020022 -0.061412089 0
0.0043801847 -0.23020019 -0.058611661 0
0.0041675321 -0.2302002 -0.05568666 0
0.0045582135 -0.2302002 -0.052433979 0
0.0042879055 -0.23020011 -0.04976495 0
0.0043544909 -0.23020013 -0.046518151 0
0.0044293539 -0.23020019 -0.043322813 0
0.0048465789 -0.2302001 -0.040668145 0
0.0049718954 -0.23020013 -0.037199356 0
0.0049222428 -0.23020014 -0.034492228 0
0.0045501934 -0.23020011 -0.031357035 0
0.0044998336 -0.23020004 -0.02847336 0
0.0044402638 -0.23020002 -0.025130611 0
0.0043756184 -0.23020013 -0.022687159 0
0.0044520446 -0.23020007 -0.019632552 0
0.0048922491 -0.23020005 -0.016503882 0
0.0044262251 -0.23020004 -0.013015427 0
0.0045039575 -0.22964843 -0.010611091 0
0.0046063913 -0.22965671 0.010426523 0
0.0046110097 -0.23019992 0.013846015 0
0.0045079002 -0.23019992 0.016146373 0
0.0044680317 -0.23019992 0.019412339 0
0.0042577805 -0.23019992 0.022440946 0
0.0047263475 -0.23019993 0.025746973 0
0.0042701648 -0.23019987 0.028638287 0
0.0046668015 -0.2301999 0.031558026 0
0.0042909002 -0.23019984 0.03462445 0
0.0046892646 -0.23019983 0.037411556 0
0.004931977 -0.23019984 0.040693361 0
0.0042454358 -0.23019981 0.043498661 0
0.0043345611 -0.2301998 0.046264466 0
0.0047486331 -0.23019984 0.049140971 0
0.0047934512 -0.23019975 0.052204113 0
0.0045646783 -0.23019977 0.055513747 0
0.0043306369 -0.23019975 0.058252759 0
0.0042447322 -0.2301998 0.061788872 0
0.004545006 -0.23019972 0.06451387 0
0.0047356091 -0.23019977 0.067222394 0
0.0045814891 -0.23019972 0.071105316 0
0.0045663388 -0.23025927 0.073330157 0
0.0057197944 -0.23050977 0.075640105 0
0.0086739771 -0.23052868 -0.078672826 0
0.0074918042 -0.23028199 -0.076497898 0
0.0074621076 -0.23020022 -0.073625766 0
0.0075254194 -0.2302002 -0.07081902 0
0.0073505086 -0.23020023 -0.067552403 0
0.007519383 -0.23020028 -0.064690433 0
0.0073900213 -0.23020019 -0.06174754 0
0.0074168001 -0.2302002 -0.058625553 0
0.0073998026 -0.23020016 -0.055552676 0
0.0076526334 -0.23020017 -0.052413702 0
0.007751964 -0.23020017 -0.049374819 0
0.0074816733 -0.23020014 -0.046296459 0
0.0077466303 -0.23020011 -0.043385867 0
0.0076203318 -0.23020016 -0.040441513 0
0.0076143555 -0.23020011 -0.037343211 0
0.0071557453 -0.2302001 -0.03443766 0
0.0075104591 -0.2302001 -0.031199059 0
0.0074112886 -0.23020008 -0.028538374 0
0.0075468798 -0.2302001 -0.025511391 0
0.0072758924 -0.23020011 -0.021906402 0
0.0073611382 -0.23020005 -0.019690407 0
0.0074842912 -0.23020008 -0.01679335 0
0.0072645876 -0.23020001 -0.013089437 0
0.0074303546 -0.22942413 -0.010230105 0
0.0074152048 -0.22957116 0.010529583 0
0.00744054 -0.23019993 0.013686726 0
0.0073387325 -0.23019992 0.016411297 0
0.0074522556 -0.23019989 0.019716905 0
0.0073839175 -0.2301999 0.022415893 0
0.0073077339 -0.23019992 0.025446519 0
0.0075166277 -0.23019983 0.028706817 0
0.0075526703 -0.2301999 0.031481307 0
0.0074442127 -0.23019987 0.034641866 0
0.0075676814 -0.23019983 0.037453555 0
0.007352775 -0.23019981 0.040784936 0
0.0076119974 -0.2301998 0.043430701 0
0.0074328366 -0.23019984 0.046329509 0
0.0073175305 -0.23019984 0.049346104 0
0.0073919655 -0.23019986 0.052481197 0
0.0072750021 -0.2301998 0.055498578 0
0.0071879509 -0.23019977 0.058682986 0
0.0075800018 -0.23019974 0.061614152 0
0.0073876819 -0.23019972 0.064613171 0
0.0073204851 -0.23019972 0.067827806 0
0.0076408102 -0.23019974 0.070363604 0
0.0075686527 -0.23019972 0.073343933 0
0.0075967493 -0.2303182 0.0765609 0
0.008546818 -0.23036419 0.078280091 0
0.010588992 -0.2303585 -0.079326168 0
0.010732668 -0.23020031 -0.076782107 0
0.010803358 -0.23020028 -0.0735806 0
0.010494459 -0.23020022 -0.070337929 0
0.010584923 -0.23020026 -0.067414358 0
0.010564758 -0.2302002 -0.064415529 0
0.010678252 -0.23020022 -0.061515633 0
0.010679008 -0.23020022 -0.058239978 0
0.010943385 -0.23020023 -0.055820685 0
0.0102097 -0.23020025 -0.05278476 0
0.010568535 -0.23020016 -0.049073696 0
0.010714448 -0.2302002 -0.046808373 0
0.010485735 -0.23020013 -0.043469034 0
0.010545729 -0.23020013 -0.040603086 0
0.010165122 -0.2302001 -0.037669819 0
0.010485018 -0.23020011 -0.034555674 0
0.010601695 -0.2302001 -0.031509586 0
0.010403704 -0.23020007 -0.028290678 0
0.010500989 -0.23020008 -0.02554149 0
0.010539567 -0.23020005 -0.022910317 0
0.01037489 -0.23020004 -0.019481091 0
0.010479778 -0.23019998 -0.016491421 0
0.010457444 -0.23019998 -0.013475003 0
0.0099726617 -0.2296727 -0.01050533 0
0.010321961 -0.22965662 -0.0074094287 0
0.010414005 -0.22945005 -0.0043608588 0
0.010458253 -0.22952028 -0.0011439341 0
0.010461778 -0.22945607 0.0016546502 0
0.010528714 -0.22963656 0.0043925052 0
0.010420932 -0.22958058 0.0073475922 0
0.010530978 -0.22996023 0.010395422 0
0.010827745 -0.23019996 0.013329205 0
0.010556475 -0.23019995 0.016610149 0
0.010430584 -0.23019992 0.019361913 0
0.010599148 -0.2301999 0.022816503 0
0.010707106 -0.23019987 0.025519231 0
0.010386118 -0.23019984 0.028562253 0
0.010478769 -0.23019984 0.031608757 0
0.010299462 -0.23019989 0.034901228 0
0.010531135 -0.23019986 0.037555516 0
0.010501504 -0.23019989 0.040259279 0
0.010254668 -0.23019987 0.043847207 0
0.01068172 -0.23019987 0.046048705 0
0.010583472 -0.23019984 0.049398631 0
0.010764554 -0.2301998 0.052362304 0
0.010457275 -0.23019977 0.055344682 0
0.010309217 -0.2301998 0.058595911 0
0.01040767 -0.23019974 0.061285935 0
0.010785063 -0.23019975 0.064420633 0
0.010456676 -0.23019972 0.067510001 0
0.010210472 -0.23019975 0.07058686 0
0.010649135 -0.23019977 0.073237896 0
0.010493142 -0.23019968 0.076540284 0
0.010706865 -0.23045109 0.079421245 0
0.013332777 -0.23024704 -0.079042807 0
0.013678889 -0.23020032 -0.076467276 0
0.013410485 -0.23020025 -0.073350437 0
0.013466947 -0.23020026 -0.070774205 0
0.013768722 -0.23020025 -0.067429066 0
0.013840622 -0.23020023 -0.064266793 0
0.013423091 -0.2302002 -0.061460882 0
0.013400077 -0.23020026 -0.05871683 0
0.013634838 -0.23020025 -0.055848785 0
0.013718982 -0.23020016 -0.052682351 0
0.013477031 -0.23020016 -0.049279843 0
0.013513882 -0.23020019 -0.046460807 0
0.013617017 -0.23020011 -0.043350846 0
0.013706927 -0.23020011 -0.04033491 0
0.01354515 -0.23020014 -0.037083942 0
0.01335817 -0.2302001 -0.03466944 0
0.013240736 -0.23020005 -0.031750903 0
0.01360585 -0.2302001 -0.028470457 0
0.013387955 -0.23020007 -0.025376048 0
0.013556931 -0.23020005 -0.022449467 0
0.013647816 -0.23020005 -0.019660525 0
0.013661209 -0.23020005 -0.016740115 0
0.013712209 -0.23020001 -0.013308461 0
0.013344761 -0.23020001 -0.010438076 0
0.013550797 -0.23020001 -0.0076444112 0
0.012999342 -0.23020005 -0.0042794179 0
0.013714344 -0.23019999 -0.0017238673 0
0.013696095 -0.23019998 0.0012458286 0
0.013456183 -0.23019998 0.0045508123 0
0.013527509 -0.23019993 0.0073270109 0
0.013386463 -0.23019992 0.010768567 0
0.013518209 -0.23019992 0.013377777 0
0.013466782 -0.2301999 0.016535828 0
0.013431967 -0.2301999 0.019608412 0
0.013602172 -0.23019989 0.022552734 0
0.013521769 -0.23019986 0.025294151 0
0.013593016 -0.23019992 0.028551761 0
0.013493398 -0.23019986 0.031340301 0
0.013419213 -0.23019984 0.034545776 0
0.013446467 -0.23019983 0.037503865 0
0.014018908 -0.23019987 0.040670965 0
0.013268795 -0.23019978 0.0435948 0
0.01351611 -0.23019983 0.046557281 0
0.013396081 -0.2301998 0.049458284 0
0.013406342 -0.2301998 0.052513052 0
0.013541031 -0.23019983 0.055846643 0
0.013592464 -0.23019978 0.058498677 0
0.013594215 -0.23019975 0.061461974 0
0.013458245 -0.23019974 0.064474598 0
0.013506358 -0.23019971 0.067783356 0
0.013441876 -0.23019971 0.070379868 0
0.01366627 -0.23019975 0.073411718 0
0.013727405 -0.23019968 0.076325685 0
0.013404687 -0.23035105 0.079384044 0
0.016193774 -0.23025769 -0.079016827 0
0.016377099 -0.23020025 -0.076666288 0
0.016301079 -0.23020022 -0.073499419 0
0.016497469 -0.23020019 -0.070416875 0
0.016602103 -0.23020023 -0.067534141 0
0.016223785 -0.23020022 -0.064521275 0
0.016752556 -0.23020019 -0.061659209 0
0.016663427 -0.23020017 -0.058506452 0
0.016559049 -0.23020011 -0.055338364 0
0.016588992 -0.23020019 -0.052273974 0
0.016499262 -0.23020017 -0.049673487 0
0.016538385 -0.23020019 -0.046480749 0
0.016760865 -0.23020014 -0.043782979 0
0.016604185 -0.23020019 -0.040463895 0
0.016306108 -0.23020014 -0.037442259 0
0.01663599 -0.2302001 -0.034657318 0
0.01649891 -0.23020011 -0.031520888 0
0.016606662 -0.2302001 -0.028529583 0
0.016491765 -0.23020005 -0.025693923 0
0.016620751 -0.23020004 -0.022475258 0
0.016247831 -0.23020008 -0.019364987 0
0.015983403 -0.23020011 -0.016600244 0
0.016279936 -0.23020002 -0.013438921 0
0.016512152 -0.23020001 -0.01045003 0
0.016432328 -0.23019998 -0.007360728 0
0.016473649 -0.23020005 -0.0048861252 0
0.016507214 -0.23020005 -0.0018091978 0
0.016586281 -0.23019995 0.0010952163 0
0.016443564 -0.23019995 0.0046535023 0
0.016386827 -0.2301999 0.0074323989 0
0.016264211 -0.2301999 0.010494253 0
0.016520998 -0.23019993 0.013612176 0
0.016499581 -0.2301999 0.016603077 0
0.016290965 -0.23019989 0.019563423 0
0.01638383 -0.23019987 0.022559764 0
0.016490741 -0.2301999 0.025492467 0
0.016515898 -0.23019993 0.028559107 0
0.016253421 -0.23019984 0.031651586 0
0.016368177 -0.23019987 0.034602195 0
0.01644906 -0.23019984 0.037477519 0
0.016615342 -0.23019987 0.040740624 0
0.01622708 -0.2301998 0.043501634 0
0.016238702 -0.23019983 0.046798289 0
0.016485738 -0.23019981 0.049621511 0
0.016618907 -0.23019983 0.052270763 0
0.01639349 -0.2301998 0.055404756 0
0.016473157 -0.23019978 0.05868965 0
0.016598236 -0.23019977 0.061511923 0
0.016370669 -0.23019972 0.064670369 0
0.016566424 -0.23019975 0.067365251 0
0.016371194 -0.23019974 0.070507474 0
0.016333476 -0.23019974 0.073465519 0
0.016377894 -0.23019969 0.076655291 0
0.016671732 -0.23027311 0.079265766 0
0.019481687 -0.23026815 -0.078991897 0
0.019881846 -0.23020032 -0.076343782 0
0.01968478 -0.23020026 -0.073533304 0
0.019673005 -0.23020023 -0.070716783 0
0.019448712 -0.23020022 -0.067285188 0
0.019646812 -0.23020025 -0.064397357 0
0.019439222 -0.23020019 -0.061640505 0
0.019631207 -0.23020017 -0.058426365 0
0.019369414 -0.2302002 -0.055608485 0
0.019643055 -0.23020019 -0.052681435 0
0.019819103 -0.23020014 -0.049602013 0
0.019776966 -0.2302001 -0.046591423 0
0.019258002 -0.23020016 -0.043707296 0
0.019526551 -0.23020007 -0.040693954 0
0.019631827 -0.23020008 -0.037408125 0
0.019306008 -0.23020014 -0.034784876 0
0.019375656 -0.23020014 -0.031551931 0
0.020224031 -0.23020016 -0.028062837 0
0.019770741 -0.23020005 -0.025443727 0
0.019452181 -0.23020008 -0.022747956 0
0.019120039 -0.23020001 -0.019221684 0
0.019667208 -0.23020002 -0.016723523 0
0.019337941 -0.23020001 -0.013455322 0
0.019505331 -0.23020002 -0.010210166 0
0.019665459 -0.23020004 -0.0073748101 0
0.019673808 -0.23019998 -0.0045521082 0
0.019478422 -0.23020002 -0.0013370153 0
0.019655382 -0.23020002 0.0016302648 0
0.019863583 -0.23020002 0.0041178213 0
0.019430814 -0.23020001 0.0078844074 0
0.018883416 -0.23019999 0.01056082 0
0.019435775 -0.23019995 0.013483429 0
0.019560706 -0.23019992 0.016588194 0
0.019554695 -0.2301999 0.019545687 0
0.019446751 -0.23019989 0.022540225 0
0.019366767 -0.23019993 0.025536099 0
0.01934359 -0.23019986 0.028624149 0
0.019774333 -0.23019989 0.031516232 0
0.019655617 -0.2301999 0.034181345 0
0.019232411 -0.23019986 0.037685674 0
0.019330887 -0.23019984 0.040256817 0
0.019808196 -0.23019981 0.043544091 0
0.019445041 -0.23019983 0.046141431 0
0.0195348 -0.23019987 0.04939704 0
0.019117784 -0.23019983 0.052420001 0
0.019396475 -0.23019978 0.055326425 0
0.019656051 -0.23019977 0.058499571 0
0.019340428 -0.23019975 0.061479095 0
0.019702844 -0.23019978 0.065032355 0
0.01940871 -0.23019978 0.067469984 0
0.019470133 -0.23019974 0.070505485 0
0.019765517 -0.23019975 0.073746704 0
0.019397376 -0.23019972 0.076269403 0
0.019688871 -0.23035564 0.079218477 0
0.021369023 -0.23051021 -0.078630209 0
0.022157142 -0.23026088 -0.076542534 0
0.02248824 -0.23020026 -0.073589489 0
0.022554301 -0.23020023 -0.070478015 0
0.022521826 -0.2302002 -0.067467466 0
0.022469716 -0.23020025 -0.064611375 0
0.022645792 -0.23020016 -0.061347827 0
0.0226014 -0.23020025 -0.057976324 0
0.022705279 -0.23020013 -0.05538952 0
0.022393163 -0.23020016 -0.052505169 0
0.022786079 -0.23020014 -0.049472675 0
0.022570955 -0.23020013 -0.04629058 0
0.022160716 -0.23020019 -0.043369818 0
0.022306468 -0.23020014 -0.040697627 0
0.022621481 -0.23020011 -0.037371878 0
0.022434233 -0.2302001 -0.034640566 0
0.022292456 -0.2302001 -0.031758446 0
0.022293949 -0.23020007 -0.028027739 0
0.02254745 -0.23020005 -0.025360184 0
0.022855802 -0.2302001 -0.022639699 0
0.02242793 -0.23020008 -0.019478841 0
0.022565644 -0.23020004 -0.01644117 0
0.022269286 -0.23020002 -0.013480687 0
0.022657081 -0.23020002 -0.010597032 0
0.02247281 -0.23020007 -0.0077177514 0
0.022357123 -0.23020005 -0.0044446988 0
0.02228117 -0.23019996 -0.0014375712 0
0.022319229 -0.23019996 0.0011646473 0
0.022844087 -0.23019995 0.0042422651 0
0.022619152 -0.23019992 0.0077227186 0
0.022755492 -0.23019996 0.010554893 0
0.022662474 -0.23019992 0.013599053 0
0.022559391 -0.23019996 0.016589807 0
0.022319913 -0.2301999 0.019599564 0
0.02247088 -0.2301999 0.022818645 0
0.022185594 -0.23019986 0.025702376 0
0.022383587 -0.23019992 0.028489511 0
0.022537466 -0.23019984 0.031157326 0
0.022361482 -0.2301999 0.03460161 0
0.02249584 -0.23019987 0.037507169 0
0.022582848 -0.23019981 0.040213849 0
0.022517515 -0.23019986 0.043530479 0
0.022709738 -0.23019984 0.046329897 0
0.022543952 -0.23019978 0.049735319 0
0.022487439 -0.2301998 0.052179754 0
0.022564471 -0.23019977 0.055808827 0
0.022578783 -0.23019978 0.058241419 0
0.022374015 -0.23019981 0.061475243 0
0.022369647 -0.23019974 0.064598948 0
0.022740651 -0.23019975 0.067460798 0
0.022308281 -0.23019975 0.070370629 0
0.022441469 -0.23019969 0.073552884 0
0.02234773 -0.23032133 0.076621272 0
0.021563156 -0.23051704 0.078437462 0
0.024379037 -0.23035458 -0.075406335 0
0.02540895 -0.23026997 -0.073301375 0
0.025865287 -0.23020026 -0.070311382 0
0.025621818 -0.23020022 -0.067695506 0
0.025291638 -0.2302002 -0.064430103 0
0.02586931 -0.2302002 -0.06134918 0
0.025405167 -0.23020019 -0.058348637 0
0.025287328 -0.23020016 -0.055364937 0
0.025653148 -0.23020014 -0.052744359 0
0.025624041 -0.23020016 -0.049492441 0
0.025553294 -0.23020013 -0.046577159 0
0.025516434 -0.23020016 -0.043708213 0
0.025600782 -0.23020008 -0.04073393 0
0.025397329 -0.2302001 -0.037435763 0
0.025623763 -0.2302001 -0.034716178 0
0.025283553 -0.2302001 -0.031256039 0
0.02543468 -0.2302001 -0.028706759 0
0.025752036 -0.23020007 -0.02526213 0
0.025452018 -0.23020007 -0.022470819 0
0.025397113 -0.23020001 -0.019238111 0
0.025559315 -0.23020008 -0.016429974 0
0.025497844 -0.23019998 -0.013492296 0
0.025450831 -0.23020001 -0.010966798 0
0.025150705 -0.23019999 -0.0074546165 0
0.025448671 -0.23019999 -0.0047367243 0
0.025433587 -0.23019999 -0.0015476134 0
0.025451992 -0.23019996 0.0014037524 0
0.025591701 -0.23019993 0.0045564021 0
0.025383353 -0.23019993 0.007447008 0
0.025290186 -0.23020001 0.010867555 0
0.02591233 -0.23019996 0.013603053 0
0.025656233 -0.2301999 0.016332351 0
0.025142344 -0.23019992 0.019535091 0
0.025960531 -0.2301999 0.02271132 0
0.025850164 -0.23019996 0.025631739 0
0.025460653 -0.23019987 0.028535273 0
0.025542356 -0.23019987 0.031617485 0
0.025423387 -0.23019986 0.034645319 0
0.025459869 -0.23019989 0.037571583 0
0.025260355 -0.23019987 0.040330771 0
0.025778418 -0.23019981 0.043536354 0
0.025432473 -0.23019977 0.046680871 0
0.025333803 -0.23019981 0.050036758 0
0.025419097 -0.2301998 0.052503459 0
0.025823766 -0.23019981 0.055697691 0
0.025713794 -0.23019977 0.058359049 0
0.025669539 -0.23019972 0.06145063 0
0.025616009 -0.23019978 0.064486928 0
0.025529802 -0.23019975 0.067000441 0
0.025498265 -0.23019972 0.070281968 0
0.025488198 -0.23027098 0.07352566 0
0.024402143 -0.23053326 0.075598501 0
0.027278883 -0.23036841 -0.072395928 0
0.028220078 -0.23030989 -0.070522629 0
0.028402098 -0.23020019 -0.067446336 0
0.028579045 -0.2302002 -0.064514533 0
0.028758783 -0.23020019 -0.06155245 0
0.028619124 -0.23020019 -0.058443826 0
0.028850608 -0.23020017 -0.055494186 0
0.028544713 -0.23020019 -0.052399244 0
0.02847491 -0.23020013 -0.049469564 0
0.02832425 -0.23020014 -0.046160471 0
0.028520681 -0.23020016 -0.043741446 0
0.028768413 -0.23020016 -0.040684171 0
0.02832924 -0.23020014 -0.037381571 0
0.028723264 -0.23020013 -0.034454849 0
0.028704869 -0.23020008 -0.031476229 0
0.028546074 -0.23020014 -0.028217379 0
0.028422328 -0.23020008 -0.024971586 0
0.028681949 -0.23020005 -0.02247284 0
0.028861025 -0.2302001 -0.019400917 0
0.028473163 -0.23020002 -0.016605778 0
0.028258963 -0.23020007 -0.013204535 0
0.028453398 -0.23020001 -0.010406956 0
0.028669531 -0.23020005 -0.007421019 0
0.028818043 -0.23020002 -0.0046875612 0
0.028506339 -0.23019996 -0.0014047734 0
0.028480502 -0.23019995 0.0014214986 0
0.02833239 -0.23019998 0.0044789268 0
0.028406017 -0.23019992 0.007527851 0
0.028412223 -0.23020002 0.01023199 0
0.028612051 -0.23019995 0.013284525 0
0.028302204 -0.23019998 0.016686415 0
0.028686292 -0.23019995 0.019348048 0
0.028365871 -0.23019993 0.022561127 0
0.028289903 -0.23019987 0.025606386 0
0.028497016 -0.2301999 0.028428625 0
0.028661225 -0.23019986 0.031341374 0
0.02804126 -0.23019987 0.034250308 0
0.028396582 -0.23019986 0.037250672 0
0.028279167 -0.23019989 0.040598273 0
0.028527863 -0.2301998 0.043448009 0
0.028028067 -0.2301998 0.046591975 0
0.028323486 -0.23019978 0.049534 0
0.028349875 -0.23019975 0.052563481 0
0.028211771 -0.23019983 0.055497594 0
0.028177964 -0.23019981 0.058614235 0
0.028428761 -0.23019974 0.061520427 0
0.02822235 -0.23019975 0.064513423 0
0.02825631 -0.23019978 0.067610905 0
0.028685523 -0.23033139 0.070195913 0
0.027581854 -0.23065442 0.072418816 0
0.030314526 -0.23060776 -0.069673687 0
0.031253844 -0.23024562 -0.067220584 0
0.031068005 -0.23020029 -0.064503789 0
0.031435613 -0.23020025 -0.061457098 0
0.031293809 -0.2302002 -0.058772158 0
0.031138804 -0.23020016 -0.055554274 0
0.03150326 -0.23020023 -0.052535955 0
0.031394906 -0.23020016 -0.049298618 0
0.031698145 -0.23020011 -0.046420306 0
0.031517271 -0.23020019 -0.043353364 0
0.031219294 -0.23020014 -0.040500235 0
0.031239945 -0.2302001 -0.037916739 0
0.031613126 -0.23020011 -0.03444165 0
0.031564008 -0.23020013 -0.031694975 0
0.03203487 -0.2302001 -0.028473733 0
0.031498019 -0.23020008 -0.025235163 0
0.03162032 -0.23020007 -0.022549212 0
0.031338524 -0.23020004 -0.01948677 0
0.031626135 -0.23019998 -0.016432909 0
0.031618603 -0.23020002 -0.013512705 0
0.031918846 -0.23020001 -0.010528613 0
0.031794157 -0.23020002 -0.0081220279 0
0.031680129 -0.23019998 -0.0040926477 0
0.031208768 -0.23019996 -0.0016066688 0
0.031237625 -0.23020002 0.0013652247 0
0.031487633 -0.23019993 0.0044218777 0
0.031475376 -0.23019996 0.0077026454 0
0.031454612 -0.23020002 0.010148301 0
0.031866618 -0.23019987 0.013403196 0
0.031894695 -0.23019993 0.016429184 0
0.031680971 -0.23019993 0.019637968 0
0.031635117 -0.23019989 0.022421276 0
0.031204846 -0.2301999 0.025766658 0
0.031457081 -0.23019989 0.028783061 0
0.031421244 -0.23019986 0.031822152 0
0.031561743 -0.2301999 0.034769181 0
0.031391166 -0.23019981 0.037338149 0
0.03139453 -0.23019983 0.040166404 0
0.031663872 -0.23019983 0.043530226 0
0.031498495 -0.2301998 0.046221137 0
0.031519417 -0.23019978 0.049360678 0
0.031753249 -0.23019983 0.05207241 0
0.03151343 -0.23019984 0.055442978 0
0.031562991 -0.23019977 0.058379367 0
0.031467326 -0.23019975 0.061336599 0
0.031554826 -0.23019972 0.064691074 0
0.031704649 -0.23024707 0.067043915 0
0.030307358 -0.23029932 0.069490902 0
0.033408437 -0.23037145 -0.066566482 0
0.034295425 -0.23025769 -0.064120203 0
0.034587961 -0.23020028 -0.061086085 0
0.034388285 -0.23020022 -0.05829443 0
0.03445467 -0.23020017 -0.055418737 0
0.034793369 -0.23020014 -0.052844528 0
0.034420077 -0.2302002 -0.049036071 0
0.034607988 -0.2302001 -0.046379093 0
0.034795601 -0.23020016 -0.043434463 0
0.034711096 -0.2302002 -0.040450767 0
0.03445974 -0.2302001 -0.037489936 0
0.03452554 -0.23020014 -0.034360413 0
0.03437214 -0.23020011 -0.031787511 0
0.034684293 -0.23020007 -0.028489655 0
0.034585211 -0.23020008 -0.025458213 0
0.034468126 -0.2302001 -0.022342226 0
0.034204215 -0.23020005 -0.019575967 0
0.03472966 -0.23020011 -0.016254893 0
0.034282729 -0.23020002 -0.013715416 0
0.03464967 -0.23019996 -0.010258337 0
0.034364175 -0.23020001 -0.0075832508 0
0.034411512 -0.23020004 -0.0043620691 0
0.034353118 -0.23019998 -0.0013354321 0
0.03436064 -0.23020004 0.0010643965 0
0.034528948 -0.23020001 0.0044816723 0
0.034609612 -0.23020001 0.0076092044 0
0.034359913 -0.23019993 0.010569729 0
0.034239706 -0.23019999 0.013278079 0
0.03468354 -0.23019996 0.016718276 0
0.034838762 -0.23019992 0.01945609 0
0.034447212 -0.23019989 0.022367166 0
0.034468815 -0.23019989 0.025795782 0
0.034631964 -0.23019992 0.028430833 0
0.034705114 -0.23019984 0.031468648 0
0.034252375 -0.23019987 0.034688104 0
0.034576189 -0.23019987 0.037621517 0
0.034459777 -0.23019984 0.040582184 0
0.034619201 -0.2301998 0.043730505 0
0.034503341 -0.23019986 0.046606999 0
0.034464516 -0.23019978 0.049377821 0
0.034325976 -0.23019978 0.0524951 0
0.034464356 -0.23019983 0.05536323 0
0.034481566 -0.23019977 0.058535699 0
0.034322146 -0.2301998 0.061823063 0
0.034447219 -0.23036401 0.06428469 0
0.033465303 -0.23064205 0.066535406 0
0.03641 -0.23024692 -0.063495435 0
0.037272476 -0.23023917 -0.061502449 0
0.037362661 -0.23020023 -0.058006592 0
0.037250616 -0.23020017 -0.055547193 0
0.037491724 -0.23020016 -0.052498683 0
0.037459392 -0.2302002 -0.049548373 0
0.037508484 -0.23020017 -0.046784811 0
0.037734512 -0.23020011 -0.04359002 0
0.037461005 -0.23020016 -0.040318117 0
0.037306014 -0.23020013 -0.037744503 0
0.037574042 -0.23020008 -0.034401428 0
0.037467055 -0.23020017 -0.031123446 0
0.037385311 -0.23020013 -0.028491363 0
0.03781778 -0.23020008 -0.025850432 0
0.03772581 -0.2302001 -0.022321565 0
0.037634175 -0.23020007 -0.019578759 0
0.037613075 -0.23020002 -0.016655905 0
0.037441816 -0.23020001 -0.013674321 0
0.037569575 -0.23019999 -0.010273837 0
0.037504602 -0.23020005 -0.0076814583 0
0.03728186 -0.23020001 -0.0042624227 0
0.037546474 -0.23019995 -0.0015391527 0
0.037515119 -0.23020002 0.0014547488 0
0.036989909 -0.23020001 0.0040660677 0
0.037383191 -0.23020002 0.007485541 0
0.037462261 -0.23019992 0.010600769 0
0.037447631 -0.23019995 0.013656554 0
0.037787836 -0.2301999 0.016831387 0
0.037587274 -0.2301999 0.019173035 0
0.037511356 -0.23019993 0.022607822 0
0.037825737 -0.23019992 0.025355985 0
0.037188575 -0.23019992 0.028686453 0
0.037501391 -0.2301999 0.03163521 0
0.037480362 -0.23019987 0.034414135 0
0.0377247 -0.23019992 0.037468884 0
0.037832644 -0.23019987 0.040780775 0
0.037458718 -0.23019981 0.0433794 0
0.037270226 -0.2301998 0.046527747 0
0.037459012 -0.23019986 0.049367033 0
0.037433986 -0.23019984 0.052275117 0
0.037441626 -0.23019978 0.055205513 0
0.037383255 -0.23019975 0.058452711 0
0.037377391 -0.23025972 0.061542775 0
0.036453132 -0.23032741 0.063391395 0
0.039567105 -0.23045515 -0.060425438 0
0.040394247 -0.23024015 -0.058536902 0
0.040523294 -0.23020017 -0.055628374 0
0.040107142 -0.23020017 -0.052416705 0
0.04015103 -0.23020019 -0.049245078 0
0.040451694 -0.23020013 -0.046533797 0
0.040471267 -0.23020016 -0.043473382 0
0.040572215 -0.23020019 -0.040612597 0
0.040478382 -0.2302001 -0.037268076 0
0.040755499 -0.23020011 -0.034673851 0
0.040163264 -0.23020017 -0.031632863 0
0.040697981 -0.2302001 -0.028565325 0
0.040502582 -0.23020005 -0.025535652 0
0.040491909 -0.23020005 -0.022663549 0
0.04052205 -0.23020004 -0.01943426 0
0.040759675 -0.23020008 -0.016607922 0
0.040497512 -0.23020004 -0.013569167 0
0.040582612 -0.23020007 -0.010521623 0
0.040618133 -0.23019996 -0.0073519666 0
0.040223684 -0.23020004 -0.0044463496 0
0.040453926 -0.23019999 -0.0015923235 0
0.040435579 -0.23020002 0.0016848873 0
0.04037372 -0.23019998 0.0044764988 0
0.040389363 -0.23019993 0.007535472 0
0.040601533 -0.23019993 0.010228378 0
0.040329713 -0.23019993 0.013420029 0
0.040637545 -0.23019998 0.016447231 0
0.039991919 -0.23019989 0.019399254 0
0.040600248 -0.23019987 0.022847664 0
0.040211983 -0.2301999 0.025780389 0
0.040359028 -0.23019987 0.028614141 0
0.040566631 -0.23019987 0.03127208 0
0.040669341 -0.23019987 0.034401104 0
0.040708587 -0.23019986 0.037403382 0
0.040737748 -0.23019981 0.040378053 0
0.040315587 -0.23019989 0.043238707 0
0.0407327 -0.2301998 0.046281002 0
0.040812131 -0.2301998 0.049680304 0
0.040815003 -0.23019983 0.052432466 0
0.040589575 -0.23019975 0.055711962 0
0.040706325 -0.23021087 0.058325555 0
0.040321052 -0.23052345 0.060143348 0
0.043385815 -0.23025578 -0.058767807 0
0.043385375 -0.23020023 -0.055410091 0
0.043567173 -0.23020017 -0.052682109 0
0.043639615 -0.23020014 -0.049402945 0
0.043563325 -0.23020011 -0.046433397 0
0.0433309 -0.23020013 -0.04347562 0
0.043800771 -0.23020019 -0.040415321 0
0.04333666 -0.23020008 -0.037382394 0
0.04351991 -0.23020007 -0.03472162 0
0.043415148 -0.23020016 -0.031895492 0
0.043580558 -0.23020005 -0.028145298 0
0.04307704 -0.2302001 -0.025908433 0
0.043441486 -0.23020002 -0.022548854 0
0.04349703 -0.23020007 -0.019606082 0
0.043378916 -0.23020001 -0.016086714 0
0.043248851 -0.23020005 -0.013511378 0
0.043543637 -0.23020007 -0.010538768 0
0.043241739 -0.23020005 -0.007642759 0
0.043136403 -0.23020002 -0.0046995794 0
0.043180298 -0.23020004 -0.0016984565 0
0.043620333 -0.23020001 0.0016262284 0
0.043718092 -0.23019998 0.0043185046 0
0.043561921 -0.23020001 0.0076299505 0
0.043400377 -0.23019995 0.01093601 0
0.043393992 -0.23019999 0.013460084 0
0.043800499 -0.23019998 0.01656843 0
0.043389112 -0.23019984 0.019770466 0
0.043652892 -0.2301999 0.022532541 0
0.043439809 -0.23019987 0.025682306 0
0.043648571 -0.23019987 0.028606333 0
0.043333806 -0.23019986 0.031438865 0
0.043600705 -0.2301999 0.034035459 0
0.043643672 -0.23019983 0.037491921 0
0.043016572 -0.23019986 0.040469661 0
0.043568734 -0.23019978 0.043393228 0
0.043650642 -0.23019978 0.046246044 0
0.043412134 -0.23019987 0.049335834 0
0.043626145 -0.23019975 0.052367568 0
0.043724131 -0.23019983 0.055615336 0
0.043400504 -0.23019978 0.058845617 0
0.043967839 -0.23060988 0.060000997 0
0.045140617 -0.23082177 -0.059999004 0
0.046459958 -0.23022927 -0.058740404 0
0.046562277 -0.23020022 -0.055183277 0
0.046440057 -0.23020023 -0.052750189 0
0.046449419 -0.23020017 -0.049571846 0
0.046616714 -0.23020013 -0.046510093 0
0.046577297 -0.23020016 -0.043378025 0
0.046531778 -0.23020011 -0.040389627 0
0.046584729 -0.23020014 -0.037684742 0
0.04658315 -0.23020013 -0.034591973 0
0.046351962 -0.2302001 -0.031467188 0
0.046330053 -0.23020008 -0.028505549 0
0.046679717 -0.23020005 -0.025640782 0
0.046768311 -0.2302001 -0.022604521 0
0.046784166 -0.2302001 -0.01907542 0
0.046499457 -0.23020004 -0.01588005 0
0.046343025 -0.23020004 -0.013371033 0
0.046398129 -0.23020001 -0.010595227 0
0.04678316 -0.23020005 -0.0074393386 0
0.046812497 -0.23020002 -0.004572276 0
0.046038009 -0.23019998 -0.0016135765 0
0.046691455 -0.23020001 0.0016287543 0
0.046454426 -0.23019992 0.0044581131 0
0.046193015 -0.23020001 0.0074813501 0
0.046321139 -0.23019993 0.010511762 0
0.046415474 -0.2301999 0.013654943 0
0.046661843 -0.23019993 0.016839715 0
0.046273708 -0.2301999 0.019706126 0
0.046357919 -0.23019993 0.022779549 0
0.046683609 -0.23019987 0.025407976 0
0.046258058 -0.23019989 0.028499838 0
0.046408542 -0.23019984 0.031553283 0
0.046487313 -0.23019984 0.034786243 0
0.046734106 -0.2301999 0.037877381 0
0.046418618 -0.23019989 0.040524792 0
0.046341803 -0.23019986 0.043791633 0
0.046489887 -0.23019984 0.046528526 0
0.046633899 -0.23019977 0.049554389 0
0.046415165 -0.23019977 0.052241459 0
0.046482854 -0.23019977 0.055541757 0
0.046388969 -0.23023903 0.058193073 0
0.047405921 -0.23052962 0.060001004 0
0.04870094 -0.23065746 -0.059998993 0
0.049239118 -0.23040199 -0.059014261 0
0.049196031 -0.23027526 -0.055628281 0
0.049310483 -0.23039572 -0.052265286 0
0.048646983 -0.23020022 -0.0494643 0
0.04948039 -0.23031503 -0.046553414 0
0.049379267 -0.23036213 -0.043613076 0
0.049282707 -0.23031065 -0.040577516 0
0.049152594 -0.23031603 -0.037467256 0
0.049273975 -0.23033307 -0.034542829 0
0.049218278 -0.230312 -0.031315215 0
0.049062867 -0.23024645 -0.028499521 0
0.049258944 -0.23040563 -0.025445433 0
0.049615715 -0.23031558 -0.022695048 0
0.0492948 -0.23030955 -0.019298693 0
0.049315836 -0.23026535 -0.016278187 0
0.049036566 -0.23032737 -0.013808412 0
0.048945699 -0.2302001 -0.010567823 0
0.049386982 -0.23033251 -0.0079198647 0
0.049136732 -0.23030122 -0.0044567129 0
0.049047038 -0.23022513 -0.0017675696 0
0.049325835 -0.23032922 0.0013098945 0
0.049515925 -0.23030716 0.0045868596 0
0.049262997 -0.23029362 0.0075830049 0
0.04946623 -0.23029783 0.01055464 0
0.049442522 -0.23035224 0.013563798 0
0.04910595 -0.23024921 0.016363986 0
0.049272805 -0.2303026 0.019346451 0
0.049069319 -0.23023221 0.022530904 0
0.049255058 -0.23031114 0.025089143 0
0.049249701 -0.23027563 0.028493118 0
0.049324252 -0.23029812 0.031303775 0
0.049505778 -0.23031521 0.03425777 0
0.049118917 -0.23030129 0.037188251 0
0.049363919 -0.23029178 0.04025726 0
0.049280308 -0.23034334 0.043316655 0
0.049309243 -0.23033142 0.046327878 0
0.049368955 -0.2303696 0.049647126 0
0.049270559 -0.23030052 0.052533533 0
0.049441718 -0.23028824 0.055708673 0
0.049305763 -0.23035522 0.058412395 0
0.049121037 -0.23044932 0.060001012 0
-0.0098293629 -0.22662173 -0.009722339 0
-0.0099999709 -0.22624536 -0.0077660419 0
-0.0099999849 -0.22654951 -0.0043859468 0
-0.0099999951 -0.22657292 -0.001655287 0
-0.010000005 -0.22664796 0.0016723195 0
-0.010000017 -0.22647642 0.0039984952 0
-0.010000031 -0.22675535 0.0079184873 0
-0.0097734286 -0.22644579 0.009736021 0
-0.0072512254 -0.22648557 -0.0099992082 0
-0.0076980861 -0.22673813 0.010000793 0
-0.0045124497 -0.22650617 -0.009999197 0
-0.0043498529 -0.22633553 0.010000804 0
-0.0013487057 -0.22634721 -0.0099991849 0
-0.0018205548 -0.22623253 0.010000812 0
0.0015813573 -0.22656436 -0.0099991756 0
0.0013169695 -0.22620752 0.010000824 0
0.0046939529 -0.22657499 -0.0099991634 0
0.0044212681 -0.22666483 0.010000838 0
0.0074396124 -0.22653557 -0.0099991532 0
0.0076534511 -0.22627091 0.010000848 0
0.0098000029 -0.22663394 -0.0096816607 0
0.010000028 -0.22618359 -0.0074302796 0
0.010000016 -0.22656658 -0.0042120349 0
0.010000006 -0.22654419 -0.0016144242 0
0.0099999942 -0.22677101 0.0015792284 0
0.0099999858 -0.22657047 0.0043772128 0
0.0099999746 -0.22669463 0.0072524925 0
0.0097184032 -0.22650592 0.0096844919 0
-0.0097069843 -0.22369266 -0.0096832346 0
-0.0099999709 -0.22350857 -0.0075272648 0
-0.0099999858 -0.22350129 -0.0043550893 0
-0.0099999951 -0.22327332 -0.0018335992 0
-0.010000004 -0.2232292 0.0013015142 0
-0.010000017 -0.22336906 0.0043547614 0
-0.010000026 -0.22336835 0.0074210516 0
-0.0096852044 -0.22339401 0.0098731872 0
-0.0073831244 -0.22355114 -0.0099992203 0
-0.0078680273 -0.22347873 0.010000779 0
-0.0044256658 -0.22350639 -0.0099992072 0
-0.0043908372 -0.22328651 0.010000793 0
-0.0016834657 -0.22337636 -0.009999197 0
-0.0012555481 -0.2236516 0.010000804 0
0.0016397664 -0.22333823 -0.0099991858 0
0.0013939661 -0.22311749 0.010000813 0
0.0044800169 -0.22371888 -0.0099991756 0
0.0043236758 -0.22350955 0.010000827 0
0.0076929792 -0.22351754 -0.0099991634 0
0.0075175092 -0.22346051 0.010000835 0
0.0096797179 -0.22354227 -0.0097984113 0
0.010000028 -0.22353922 -0.0074349684 0
0.010000017 -0.22331631 -0.004168856 0
0.010000006 -0.22358127 -0.0013285285 0
0.0099999942 -0.22376963 0.0017443675 0
0.0099999858 -0.22339056 0.0044891466 0
0.0099999728 -0.22375202 0.0074250614 0
0.0097687859 -0.22317882 0.0097673489 0
-0.0099168681 -0.22037515 -0.0096331621 0
-0.0099999737 -0.22036214 -0.0076388977 0
-0.0099999839 -0.22050481 -0.0046800845 0
-0.0099999951 -0.22083916 -0.0015011273 0
-0.010000004 -0.22041722 0.0013861712 0
-0.010000017 -0.22055231 0.0046379524 0
-0.010000027 -0.2205487 0.0075371554 0
-0.0097691948 -0.22033651 0.0096957637 0
-0.0074725291 -0.22072245 -0.0099992286 0
-0.0074625318 -0.22059983 0.010000772 0
-0.0048015839 -0.22020531 -0.0099992212 0
-0.0048240502 -0.22048788 0.010000781 0
-0.0017691923 -0.22048858 -0.00999921 0
-0.0014205885 -0.22042581 0.010000792 0
0.0013891998 -0.22094855 -0.009999196 0
0.0017327308 -0.22054696 0.010000806 0
0.0045979572 -0.22053793 -0.0099991867 0
0.0046715694 -0.22076915 0.010000817 0
0.0076903882 -0.22012317 -0.0099991765 0
0.0077061714 -0.22037254 0.010000827 0
0.0097815795 -0.22058608 -0.0097082779 0
0.010000027 -0.22066216 -0.0075387708 0
0.010000018 -0.22024494 -0.0045164144 0
0.010000006 -0.22081746 -0.0014578851 0
0.0099999961 -0.22074616 0.0011340113 0
0.0099999849 -0.22057451 0.0044489522 0
0.0099999718 -0.22046258 0.0075473161 0
0.0096222367 -0.22043113 0.0099054622 0
-0.0096449703 -0.2170708 -0.0099026682 0
-0.0099999746 -0.21760961 -0.0071478449 0
-0.009999983 -0.21751547 -0.0044324426 0
-0.009999997 -0.21751842 -0.0013985184 0
-0.010000003 -0.21764687 0.0013149518 0
-0.010000017 -0.21735424 0.0045729298 0
-0.010000029 -0.21744578 0.0077220704 0
-0.0096965535 -0.21733761 0.009790061 0
-0.0073316051 -0.21783492 -0.009999237 0
-0.0075096767 -0.21731326 0.010000761 0
-0.0044295229 -0.21765645 -0.0099992296 0
-0.0044485903 -0.21762946 0.010000771 0
-0.001464228 -0.21792954 -0.0099992184 0
-0.0012382532 -0.21749255 0.010000782 0
0.0015915884 -0.21744303 -0.0099992082 0
0.0015696135 -0.21778576 0.010000795 0
0.0046618818 -0.21773501 -0.009999197 0
0.0047709723 -0.21736807 0.010000805 0
0.0074745077 -0.21753865 -0.0099991839 0
0.0078469114 -0.21774074 0.010000818 0
0.0097422721 -0.21745077 -0.0097385533 0
0.01000003 -0.21776301 -0.0076332469 0
0.010000017 -0.21764168 -0.0046641296 0
0.010000006 -0.21729235 -0.0013337194 0
0.0099999951 -0.21747552 0.0015731063 0
0.0099999839 -0.21786784 0.0046736524 0
0.0099999728 -0.21739779 0.0073567117 0
0.0098039899 -0.21772197 0.0098199556 0
-0.0096793333 -0.21464594 -0.0099992584 0
-0.0099999746 -0.21455941 -0.0072204238 0
-0.0099999839 -0.21451554 -0.0042416621 0
-0.0099999951 -0.21449277 -0.0018679436 0
-0.010000007 -0.2145274 0.0016832012 0
-0.010000017 -0.21421382 0.0041858437 0
-0.010000028 -0.21449335 0.0073308288 0
-0.0098194871 -0.2145979 0.0094742058 0
-0.0078426581 -0.21453427 -0.0099992529 0
-0.007543236 -0.21450441 0.01000075 0
-0.0043126205 -0.21481732 -0.0099992398 0
-0.0044971076 -0.21427909 0.010000761 0
-0.0015424659 -0.21492928 -0.0099992277 0
-0.001610133 -0.2144706 0.010000773 0
0.0013807734 -0.2146333 -0.0099992193 0
0.0014499335 -0.21418931 0.010000782 0
0.004590149 -0.21427509 -0.0099992082 0
0.0046726381 -0.21466266 0.010000793 0
0.0073500928 -0.21438596 -0.009999196 0
0.0074618836 -0.21442033 0.010000803 0
0.0097006317 -0.21443292 -0.0098722 0
0.010000029 -0.21431974 -0.0075011766 0
0.010000017 -0.21439284 -0.0045947805 0
0.010000004 -0.21439637 -0.001274047 0
0.009999997 -0.21437949 0.0012739021 0
0.0099999849 -0.21462423 0.0040083141 0
0.0099999728 -0.21437767 0.0073670777 0
0.0096379863 -0.21481487 0.0097541055 0
-0.0096548563 -0.21205702 -0.0097233346 0
-0.0099999728 -0.21133386 -0.0077831578 0
-0.0099999849 -0.21140638 -0.0045623854 0
-0.0099999961 -0.21174873 -0.0016101151 0
-0.010000007 -0.21144035 0.0014212374 0
-0.010000017 -0.21166135 0.0044633532 0
-0.010000029 -0.21144725 0.007701945 0
-0.0098453341 -0.21179414 0.009700723 0
-0.0075017856 -0.21144232 -0.0099992622 0
-0.00760329 -0.2115351 0.010000739 0
-0.004460894 -0.21125428 -0.0099992519 0
-0.0042811004 -0.21128964 0.010000749 0
-0.0017211351 -0.21165608 -0.0099992389 0
-0.0020178694 -0.21153925 0.010000758 0
0.0014868983 -0.21160264 -0.0099992296 0
0.0016771342 -0.21139865 0.010000774 0
0.004529376 -0.21163879 -0.0099992175 0
0.0047725346 -0.21152848 0.010000785 0
0.0074142637 -0.21170463 -0.0099992072 0
0.0077080294 -0.21143667 0.010000794 0
0.0095599974 -0.21148257 -0.0098623112 0
0.010000027 -0.2114781 -0.0075562634 0
0.010000017 -0.21166179 -0.0042100167 0
0.010000005 -0.2115974 -0.0013971438 0
0.0099999951 -0.21141963 0.0014369083 0
0.0099999858 -0.21160413 0.0044763479 0
0.0099999746 -0.21133402 0.0073140608 0
0.0097259684 -0.21103689 0.0099119684 0
-0.0096364608 -0.20860553 -0.0098665291 0
-0.0099999737 -0.20830525 -0.0072486666 0
-0.0099999849 -0.20844227 -0.0046857111 0
-0.0099999923 -0.20854945 -0.0016719459 0
-0.010000005 -0.20853476 0.0013762972 0
-0.010000018 -0.20865151 0.0046992782 0
-0.010000029 -0.2085792 0.0073952633 0
-0.0098715257 -0.20869899 0.0095411241 0
-0.0075866859 -0.20839445 -0.0099992733 0
-0.0074621555 -0.20835215 0.010000729 0
-0.0045891372 -0.20828502 -0.009999264 0
-0.0044949567 -0.20869483 0.01000074 0
-0.0014351237 -0.20796885 -0.0099992538 0
-0.0016680672 -0.20849739 0.010000749 0
0.0014414109 -0.20834173 -0.0099992407 0
0.0013070005 -0.20833988 0.010000761 0
0.0046773455 -0.20846248 -0.0099992296 0
0.0047000763 -0.20824082 0.010000771 0
0.0075793536 -0.20847489 -0.0099992184 0
0.0073931557 -0.20832564 0.010000782 0
0.0096683698 -0.20858207 -0.0098173963 0
0.010000029 -0.20825142 -0.0076425588 0
0.010000018 -0.2084695 -0.004535106 0
0.010000005 -0.20834631 -0.0013197762 0
0.0099999961 -0.2079795 0.0013363288 0
0.0099999839 -0.20850447 0.0045729359 0
0.0099999737 -0.20849289 0.0074495412 0
0.0096961483 -0.20848393 0.0096492469 0
-0.0097200302 -0.20559806 -0.0098021133 0
-0.0099999746 -0.20542185 -0.0074450877 0
-0.0099999849 -0.20541234 -0.0046484838 0
-0.0099999951 -0.20576975 -0.0015102854 0
-0.010000008 -0.20543967 0.0017276087 0
-0.010000018 -0.20566553 0.0045298277 0
-0.010000029 -0.20535214 0.0076644719 0
-0.0096860556 -0.20543957 0.0097424602 0
-0.007733772 -0.20539509 -0.0099992873 0
-0.0071694227 -0.20544115 0.01000072 0
-0.0042930907 -0.20577905 -0.0099992724 0
-0.0046796994 -0.20537679 0.010000728 0
-0.0012848227 -0.20536929 -0.0099992622 0
-0.0014987076 -0.20550743 0.01000074 0
0.0013081498 -0.20537373 -0.0099992519 0
0.0016171189 -0.20537829 0.010000749 0
0.0045266813 -0.20519525 -0.0099992407 0
0.0043583405 -0.20546706 0.01000076 0
0.0073253973 -0.20541039 -0.0099992324 0
0.0076636272 -0.20518218 0.010000772 0
0.0098907668 -0.20587665 -0.0096039316 0
0.010000028 -0.2055798 -0.0073566549 0
0.010000018 -0.20557611 -0.0048313905 0
0.010000007 -0.2054871 -0.0016258922 0
0.0099999942 -0.20560995 0.0018416358 0
0.0099999849 -0.20530777 0.0043790946 0
0.0099999728 -0.20561342 0.0077605569 0
0.0098422766 -0.20550205 0.0096181221 0
-0.0097829988 -0.2024077 -0.0097067412 0
-0.0099999728 -0.20258744 -0.0076998915 0
-0.0099999849 -0.20234714 -0.0041863322 0
-0.0099999942 -0.20255019 -0.001540845 0
-0.010000005 -0.20247735 0.0012873125 0
-0.010000016 -0.20232011 0.0041429768 0
-0.010000028 -0.20248687 0.0075594387 0
-0.0098015778 -0.20236188 0.0096507249 0
-0.0075501013 -0.20216051 -0.0099992957 0
-0.0074058995 -0.20237295 0.010000708 0
-0.0046804915 -0.20261662 -0.0099992836 0
-0.0043960973 -0.20248292 0.010000716 0
-0.0012953387 -0.20239635 -0.0099992724 0
-0.0014254809 -0.20287417 0.010000728 0
0.0016910512 -0.20244353 -0.0099992603 0
0.0013543116 -0.20229764 0.010000737 0
0.0047858846 -0.2024031 -0.009999251 0
0.0045346338 -0.20245877 0.010000751 0
0.0073165679 -0.20233828 -0.0099992435 0
0.0072739506 -0.20252818 0.01000076 0
0.0097629894 -0.20230748 -0.0097548096 0
0.010000028 -0.20269619 -0.0074632578 0
0.010000017 -0.20275515 -0.0043712277 0
0.010000007 -0.20258394 -0.0016817005 0
0.0099999951 -0.20249937 0.0014726383 0
0.0099999858 -0.20252734 0.0044959565 0
0.0099999737 -0.20247935 0.0075372853 0
0.0097591113 -0.20254931 0.009633882 0
-0.0097099142 -0.19945659 -0.0097083468 0
-0.0099999746 -0.19935195 -0.0073708496 0
-0.0099999849 -0.19955689 -0.0045334701 0
-0.0099999933 -0.19966471 -0.0015369962 0
-0.010000005 -0.19921753 0.0013593811 0
-0.010000015 -0.19953385 0.0041688578 0
-0.010000027 -0.19954802 0.0072723692 0
-0.0098716365 -0.19886316 0.0096212765 0
-0.00728379 -0.19915621 -0.009999305 0
-0.007221791 -0.19958696 0.010000697 0
-0.0044709756 -0.19963138 -0.0099992948 0
-0.0046883053 -0.19939189 0.010000706 0
-0.0015250503 -0.19945528 -0.0099992845 0
-0.0015964353 -0.19957499 0.010000718 0
0.0016906203 -0.19926973 -0.0099992706 0
0.0013451835 -0.19932219 0.010000726 0
0.0046649878 -0.19907781 -0.009999264 0
0.0050217961 -0.19930065 0.010000742 0
0.0072651375 -0.19910544 -0.0099992538 0
0.0073967646 -0.19941631 0.010000749 0
0.0095950169 -0.19923393 -0.009721769 0
0.010000028 -0.19953518 -0.0074769841 0
0.010000016 -0.19929551 -0.0043658228 0
0.010000005 -0.19963129 -0.0012966353 0
0.0099999961 -0.19937858 0.0012618103 0
0.009999983 -0.1994174 0.0045991316 0
0.0099999718 -0.19976024 0.0077168457 0
0.0096815564 -0.19949347 0.0098063722 0
-0.0097079845 -0.19626273 -0.009766249 0
-0.0099999728 -0.19627298 -0.0072405548 0
-0.0099999858 -0.19642769 -0.0043846904 0
-0.0099999951 -0.19648671 -0.001420539 0
-0.010000004 -0.19643067 0.0015813208 0
-0.010000017 -0.19634295 0.0043678982 0
-0.010000026 -0.19635324 0.0075020776 0
-0.0099106086 -0.19651958 0.0097746402 0
-0.0073018288 -0.19624801 -0.0099993171 0
-0.007790572 -0.19647966 0.010000683 0
-0.0044258353 -0.19661385 -0.0099993041 0
-0.0045567397 -0.19639286 0.010000695 0
-0.0015904369 -0.19635211 -0.0099992966 0
-0.001730922 -0.19645751 0.010000706 0
0.0017115984 -0.19665961 -0.0099992827 0
0.0017040309 -0.19645819 0.010000718 0
0.0044210437 -0.19628237 -0.0099992743 0
0.004391043 -0.19634414 0.010000728 0
0.0075415615 -0.19665876 -0.0099992603 0
0.0074999053 -0.19628705 0.010000738 0
0.0098178489 -0.19688971 -0.0096494118 0
0.01000003 -0.19651642 -0.0074777962 0
0.010000017 -0.19665399 -0.0046883179 0
0.010000009 -0.19636343 -0.0019532561 0
0.0099999942 -0.19634147 0.0015520293 0
0.0099999839 -0.19647606 0.0046174326 0
0.0099999718 -0.19675221 0.007515619 0
0.0096850032 -0.19603278 0.00968906 0
-0.0097276932 -0.19350593 -0.0098079611 0
-0.0099999737 -0.19363663 -0.0074369991 0
-0.0099999849 -0.19349144 -0.0043177549 0
-0.0099999961 -0.19355406 -0.0014854983 0
-0.010000008 -0.19337477 0.0017416818 0
-0.010000017 -0.19355121 0.0044839098 0
-0.010000029 -0.19357698 0.00764718 0
-0.0098544937 -0.19318578 0.0097944206 0
-0.0075415974 -0.19373368 -0.0099993264 0
-0.0072904364 -0.19346085 0.010000675 0
-0.00430904 -0.19315591 -0.0099993171 0
-0.00433503 -0.19334276 0.010000685 0
-0.0013543369 -0.19378419 -0.009999305 0
-0.0016122266 -0.19361036 0.010000696 0
0.0015844734 -0.19314344 -0.0099992948 0
0.0017404772 -0.19311792 0.010000707 0
0.0043517086 -0.19395645 -0.0099992808 0
0.0043817414 -0.19343604 0.010000716 0
0.0075492412 -0.19363515 -0.0099992733 0
0.0075190091 -0.19337906 0.010000727 0
0.0097814221 -0.19348828 -0.009720644 0
0.010000028 -0.19344173 -0.0075359819 0
0.010000017 -0.19325224 -0.0042892699 0
0.010000005 -0.19337349 -0.001301314 0
0.0099999951 -0.1934184 0.0014711447 0
0.009999983 -0.19347148 0.0044754376 0
0.0099999737 -0.19324598 0.0074381949 0
0.0097185234 -0.19377168 0.009813684 0
-0.0097465869 -0.19059826 -0.0097446451 0
-0.0099999746 -0.19056541 -0.0075827353 0
-0.0099999839 -0.19097464 -0.0043282737 0
-0.0099999942 -0.19027105 -0.0014389534 0
-0.010000006 -0.19068706 0.0018573103 0
-0.010000017 -0.19059534 0.0046712249 0
-0.010000025 -0.19032514 0.006988667 0
-0.0097405426 -0.19041419 0.0097772339 0
-0.0073430496 -0.19020016 -0.0099993385 0
-0.0075956006 -0.19044325 0.010000663 0
-0.0044518844 -0.19014457 -0.0099993274 0
-0.0044579692 -0.19060175 0.010000674 0
-0.0013667843 -0.19056271 -0.0099993162 0
-0.0015758579 -0.19044647 0.010000685 0
0.0014640117 -0.19053182 -0.0099993031 0
0.0014048957 -0.19043571 0.010000693 0
0.004375794 -0.19059731 -0.0099992948 0
0.0043462957 -0.19046374 0.010000706 0
0.0076846504 -0.19046888 -0.0099992836 0
0.0076170219 -0.19085455 0.010000719 0
0.0098205442 -0.19071156 -0.009645991 0
0.010000028 -0.19048792 -0.0076462333 0
0.010000015 -0.19042604 -0.0045540086 0
0.010000006 -0.1902564 -0.0015254285 0
0.0099999942 -0.19083101 0.0014404042 0
0.0099999858 -0.19039243 0.0042507998 0
0.0099999728 -0.19059023 0.007606749 0
0.0097561684 -0.19032787 0.0097883102 0
-0.0096662985 -0.18758576 -0.0099067716 0
-0.0099999737 -0.18775408 -0.0075887702 0
-0.0099999849 -0.18758975 -0.0045774374 0
-0.0099999961 -0.18758784 -0.0016335557 0
-0.010000007 -0.1876293 0.0015759552 0
-0.010000015 -0.18712001 0.0043104738 0
-0.010000028 -0.18699774 0.0074089216 0
-0.0096714804 -0.18693161 0.0098032653 0
-0.0071811108 -0.18764548 -0.0099993469 0
-0.007660666 -0.18744366 0.010000653 0
-0.0047148052 -0.18765785 -0.0099993376 0
-0.0043934081 -0.18777084 0.010000666 0
-0.0012210901 -0.1875395 -0.0099993264 0
-0.0017358621 -0.18742637 0.010000674 0
0.0017701122 -0.18761803 -0.0099993153 0
0.0016037562 -0.18726982 0.010000684 0
0.0041223443 -0.18754634 -0.0099993078 0
0.0047462578 -0.18754506 0.010000696 0
0.007579647 -0.18767686 -0.0099992948 0
0.0075912224 -0.18748373 0.010000708 0
0.0097415382 -0.18777759 -0.0097817611 0
0.01000003 -0.18727671 -0.0073685967 0
0.010000017 -0.1874821 -0.0045970925 0
0.010000006 -0.18770279 -0.0014286664 0
0.0099999961 -0.18751171 0.0014659825 0
0.0099999858 -0.18737081 0.0043610381 0
0.0099999746 -0.18744242 0.0074345795 0
0.0095908912 -0.18766874 0.0099336784 0
-0.009889828 -0.18444474 -0.0095502837 0
-0.0099999718 -0.18462926 -0.0074504907 0
-0.0099999849 -0.18440531 -0.0045700944 0
-0.0099999961 -0.18419726 -0.0013888244 0
-0.010000006 -0.18434268 0.0014527682 0
-0.010000017 -0.18455388 0.0043167882 0
-0.010000028 -0.18418439 0.0073902691 0
-0.0097061051 -0.18467286 0.0097929509 0
