# .PCD v0.7 - Point Cloud Data file format
VERSION 0.7
FIELDS x y z rgb
SIZE 4 4 4 4
TYPE F F F F
COUNT 1 1 1 1
WIDTH 1220
HEIGHT 1
VIEWPOINT 0 0 0 1 0 0 0
POINTS 1220
DATA ascii
0.040410683 -0.23999988 0.02258406 0
0.041142367 -0.23999989 0.025408437 0
0.040445521 -0.23999979 0.028582508 0
0.040462404 -0.2399998 0.031806882 0
0.040551599 -0.23999982 0.034615647 0
0.040384099 -0.23999985 0.037292231 0
0.040574647 -0.23999976 0.040527835 0
0.040490936 -0.23999977 0.0438869 0
0.040216655 -0.23999976 0.046271823 0
0.040381353 -0.23889402 0.049638882 0
0.043501306 -0.23899963 -0.04956222 0
0.04323785 -0.24000005 -0.046454243 0
0.043637123 -0.24000011 -0.043796662 0
0.043580901 -0.24000007 -0.040306207 0
0.043326676 -0.24000008 -0.037630629 0
0.043440975 -0.2400001 -0.034200389 0
0.04344238 -0.24000013 -0.031318307 0
0.04365883 -0.2400001 -0.028175533 0
0.043780904 -0.23999999 -0.025498793 0
0.043431491 -0.24000002 -0.022734754 0
0.043685414 -0.24000004 -0.019464405 0
0.043482121 -0.23999998 -0.016475579 0
0.043278962 -0.23999996 -0.013344541 0
0.043156944 -0.23999999 -0.010386806 0
0.044025373 -0.24000002 -0.0076190559 0
0.043617364 -0.23999991 -0.0046452135 0
0.043343484 -0.23999996 -0.0014790583 0
0.043724734 -0.23999994 0.0014046255 0
0.043734975 -0.23999992 0.004522996 0
0.043496147 -0.23999986 0.0075107147 0
0.043299623 -0.23999994 0.010494382 0
0.043258231 -0.23999991 0.013525554 0
0.043812759 -0.23999989 0.016355084 0
0.043477923 -0.23999988 0.019289639 0
0.043743216 -0.23999988 0.022530658 0
0.043590803 -0.23999992 0.025460189 0
0.043496493 -0.23999982 0.028434703 0
0.043653678 -0.2399998 0.031596899 0
0.043571897 -0.23999986 0.034244519 0
0.043735262 -0.23999976 0.037231758 0
0.043643698 -0.2399998 0.040497214 0
0.043346975 -0.23999971 0.043339647 0
0.043412276 -0.23999976 0.046308514 0
0.043561365 -0.23913506 0.049597964 0
0.04641794 -0.2390725 -0.049620744 0
0.046665993 -0.24000005 -0.046611719 0
0.046821542 -0.24000008 -0.043477684 0
0.046509139 -0.24000004 -0.040601883 0
0.046495169 -0.24000005 -0.037280925 0
0.04620235 -0.24000004 -0.034446847 0
0.046812233 -0.2400001 -0.031655099 0
0.046654202 -0.24000002 -0.02863753 0
0.046753608 -0.24000001 -0.025609516 0
0.046170469 -0.24000001 -0.022694994 0
0.046578038 -0.23999998 -0.019702962 0
0.046556588 -0.23999998 -0.016396318 0
0.046597578 -0.24000005 -0.01360308 0
0.046324085 -0.23999999 -0.010572362 0
0.04631944 -0.23999996 -0.007202833 0
0.046392407 -0.23999994 -0.0044063739 0
0.046511013 -0.23999992 -0.0014704297 0
0.046601336 -0.23999992 0.0014404273 0
0.046527728 -0.23999994 0.0045974068 0
0.046217673 -0.23999989 0.0071628164 0
0.046529256 -0.23999995 0.010327867 0
0.046428986 -0.23999991 0.013291295 0
0.046301957 -0.23999994 0.016474346 0
0.046305452 -0.23999988 0.019751623 0
0.046608016 -0.23999991 0.022699624 0
0.046380114 -0.2399998 0.025459679 0
0.046425149 -0.23999977 0.028402414 0
0.046528917 -0.2399998 0.03150668 0
0.046460263 -0.23999979 0.034439355 0
0.04632527 -0.23999977 0.037567493 0
0.046819087 -0.23999982 0.040590871 0
0.046576321 -0.23999971 0.043424089 0
0.046625827 -0.23999976 0.046539258 0
0.046539135 -0.23897518 0.049652405 0
0.049362872 -0.23889527 -0.049416676 0
0.049522437 -0.2389688 -0.046343669 0
0.049382895 -0.23926789 -0.043455958 0
0.049606595 -0.23913354 -0.040646885 0
0.049633201 -0.23906906 -0.037666727 0
0.049709048 -0.23880808 -0.034509365 0
0.049579829 -0.23913197 -0.031451833 0
0.049636733 -0.23887207 -0.028495302 0
0.049517892 -0.23902892 -0.025371306 0
0.049731441 -0.23885445 -0.022638118 0
0.04971125 -0.23894638 -0.019317234 0
0.049694292 -0.23891757 -0.016303198 0
0.049723372 -0.2389098 -0.013574501 0
0.049592849 -0.23899791 -0.010375312 0
0.049760487 -0.2389468 -0.0075514587 0
0.049702827 -0.23889142 -0.0045160744 0
0.04958922 -0.23890033 -0.0015031574 0
0.049628761 -0.23917942 0.0014793278 0
0.049604326 -0.23901564 0.0043515274 0
0.049595587 -0.23911871 0.007284502 0
0.049871217 -0.23870619 0.010405531 0
0.04970571 -0.23899564 0.013477301 0
0.049647667 -0.23910211 0.016197169 0
0.049746819 -0.23897526 0.019428855 0
0.049532995 -0.23908339 0.022480404 0
0.049714439 -0.23909722 0.025405159 0
0.049550615 -0.23914738 0.028593931 0
0.049610343 -0.23898326 0.031523809 0
0.049581978 -0.23907892 0.034606803 0
0.049666006 -0.2391184 0.037521619 0
0.049503464 -0.23913747 0.040417735 0
0.049626376 -0.23906091 0.043633625 0
0.049630459 -0.23894323 0.046413083 0
0.049340084 -0.23894352 0.04936808 0
-0.0030376581 -0.23404618 -0.0040684305 0
-0.0030291737 -0.23406281 -0.0021893431 0
-0.0030392015 -0.23404318 0.0046667396 0
-0.0017024828 -0.23551303 -0.0044964659 0
-0.0022878028 -0.23551589 -0.0012913665 0
-0.0022629804 -0.2355646 0.001462072 0
-0.001814413 -0.23541485 0.0045029563 0
0.0011322421 -0.23544125 -0.049693223 0
1.6841751e-07 -0.23560128 -0.046523448 0
1.5650983e-07 -0.23557253 -0.043234024 0
1.4651104e-07 -0.23572916 -0.040471919 0
1.3537628e-07 -0.23551612 -0.03739601 0
1.2413254e-07 -0.23525237 -0.034289997 0
1.1507162e-07 -0.23554668 -0.031786975 0
1.0262978e-07 -0.23559095 -0.028349992 0
9.1370964e-08 -0.23539481 -0.025239816 0
8.1341184e-08 -0.23536266 -0.02246915 0
7.0278773e-08 -0.23531148 -0.019413227 0
6.0277095e-08 -0.23558074 -0.016650323 0
4.7939427e-08 -0.23565051 -0.013242118 0
3.7005069e-08 -0.23569934 -0.01022157 0
2.7662844e-08 -0.23546676 -0.0076408386 0
1.9416664e-08 -0.23564583 -0.0053628809 0
-1.9452861e-08 -0.23512767 0.0053745843 0
-2.7964282e-08 -0.23554134 0.0077258134 0
-3.7912525e-08 -0.23554465 0.010473954 0
-4.8321084e-08 -0.2353988 0.013349255 0
-5.9674527e-08 -0.23577838 0.016485574 0
-7.0468445e-08 -0.23530285 0.019467326 0
-8.1568245e-08 -0.23560505 0.022533579 0
-9.3683212e-08 -0.23577698 0.025880264 0
-1.0341857e-07 -0.23534977 0.028569596 0
-1.1423928e-07 -0.23546061 0.031558752 0
-1.2500141e-07 -0.23558071 0.034531724 0
-1.3612029e-07 -0.23525779 0.037603248 0
-1.469829e-07 -0.23557313 0.040603973 0
-1.579558e-07 -0.23556827 0.043635171 0
-1.6762162e-07 -0.23548721 0.046305295 0
0.00069199491 -0.23555282 0.049435377 0
0.0044771084 -0.23544517 -0.049999118 0
0.0043064789 -0.23538849 0.050000854 0
0.007468597 -0.23555869 -0.049999103 0
0.007159546 -0.23524234 0.050000872 0
0.01025216 -0.2354047 -0.049999092 0
0.010382316 -0.23573866 0.050000872 0
0.013461214 -0.23514877 -0.049999084 0
0.013502936 -0.23564734 0.050000887 0
0.016535385 -0.23532857 -0.049999088 0
0.016420899 -0.23548259 0.050000913 0
0.019376345 -0.23523358 -0.049999062 0
0.019555546 -0.23540552 0.05000091 0
0.022359222 -0.23547551 -0.049999047 0
0.022836939 -0.23553027 0.050000917 0
0.025436305 -0.23547712 -0.049999043 0
0.025404206 -0.23563416 0.050000925 0
0.028429663 -0.23530546 -0.049999032 0
0.028561786 -0.23558763 0.050000947 0
0.031384517 -0.23547746 -0.049999028 0
0.031412289 -0.23547691 0.050000954 0
0.034480806 -0.23544493 -0.04999901 0
0.034571741 -0.23545499 0.050000966 0
0.037261102 -0.2355753 -0.049998999 0
0.037695359 -0.23560303 0.050000988 0
0.040413186 -0.23548837 -0.049998987 0
0.040612482 -0.23546578 0.050000977 0
0.043740511 -0.23516531 -0.04999898 0
0.043426797 -0.23565756 0.050000988 0
0.046588577 -0.23556173 -0.049998961 0
0.046610978 -0.23562841 0.050001018 0
0.049413223 -0.23527078 -0.049557921 0
0.050000146 -0.2352791 -0.046711717 0
0.05000015 -0.23568279 -0.043146037 0
0.050000124 -0.23561852 -0.040485248 0
0.050000116 -0.23571554 -0.03752223 0
0.05000012 -0.23569077 -0.034424771 0
0.050000109 -0.2355012 -0.031640533 0
0.050000079 -0.23539163 -0.028290445 0
0.05000009 -0.23560166 -0.025857363 0
0.050000086 -0.23559026 -0.022091256 0
0.050000072 -0.23523887 -0.019113636 0
0.05000006 -0.23550071 -0.016467784 0
0.050000034 -0.23531592 -0.01355244 0
0.050000019 -0.23542541 -0.010587929 0
0.050000016 -0.23566715 -0.0075902636 0
0.050000023 -0.23541322 -0.0045535155 0
0.049999993 -0.23582524 -0.0016481433 0
0.049999978 -0.23539203 0.0017408393 0
0.049999967 -0.23566841 0.0045924778 0
0.049999956 -0.23556538 0.0074642855 0
0.049999945 -0.23567073 0.010426803 0
0.049999945 -0.23556158 0.013573451 0
0.049999926 -0.23559377 0.016802887 0
0.049999919 -0.23540612 0.019415624 0
0.049999904 -0.23540063 0.022664908 0
0.049999904 -0.23545334 0.025506206 0
0.049999882 -0.23559351 0.028378818 0
0.049999867 -0.23569994 0.031507939 0
0.049999859 -0.23545508 0.03458862 0
0.049999855 -0.23561512 0.037435111 0
0.049999844 -0.23552132 0.040380929 0
0.049999822 -0.23540777 0.043373737 0
0.049999811 -0.2354499 0.046624262 0
0.049424939 -0.23556028 0.049447708 0
-0.003780449 -0.23234974 -0.0042824112 0
-0.0038071149 -0.23253803 -0.0015306475 0
-0.0037517105 -0.23264667 0.001479878 0
-0.003844412 -0.2321358 0.0044539957 0
-0.0016637562 -0.23270746 -0.0049991626 0
-0.0015363616 -0.23238201 0.0050008367 0
0.00094597787 -0.23241238 -0.049535397 0
1.6818773e-07 -0.23255324 -0.04645998 0
1.57714e-07 -0.23255403 -0.043566681 0
1.4579534e-07 -0.23248985 -0.040274225 0
1.3552641e-07 -0.23253264 -0.037437495 0
1.248378e-07 -0.23251452 -0.03448483 0
1.1329801e-07 -0.23247087 -0.031297036 0
1.0409678e-07 -0.23242612 -0.028755255 0
9.2386834e-08 -0.23248601 -0.025520453 0
8.1683339e-08 -0.23258875 -0.022563677 0
7.1551021e-08 -0.2324522 -0.019764688 0
5.9256049e-08 -0.2326614 -0.016368277 0
4.9961042e-08 -0.23248583 -0.013800588 0
3.7375585e-08 -0.23259048 -0.010323933 0
2.6237316e-08 -0.23258571 -0.0072470554 0
1.9348557e-08 -0.23232628 -0.0053440789 0
-2.0060211e-08 -0.23230332 0.0055423509 0
-2.8357542e-08 -0.2325068 0.0078344382 0
-3.8524519e-08 -0.23248245 0.010643004 0
-4.9697466e-08 -0.23248577 0.013729461 0
-6.0370908e-08 -0.23203275 0.016677933 0
-7.1088415e-08 -0.2325512 0.019638579 0
-8.1460769e-08 -0.23222934 0.022503877 0
-9.2926463e-08 -0.23234911 0.025671206 0
-1.0330029e-07 -0.2326577 0.028536912 0
-1.1428067e-07 -0.23251995 0.031570174 0
-1.2459878e-07 -0.23236282 0.03442049 0
-1.3608471e-07 -0.23246926 0.037593406 0
-1.4671318e-07 -0.23243663 0.040529456 0
-1.5749676e-07 -0.23251987 0.043508351 0
-1.6794866e-07 -0.23242615 0.046395626 0
0.00081150542 -0.23247088 0.049623407 0
0.0042380337 -0.23257641 -0.049999136 0
0.0046225949 -0.23245633 0.050000843 0
0.0071680616 -0.23249224 -0.049999118 0
0.007688072 -0.23261449 0.050000861 0
0.010623462 -0.23265085 -0.049999118 0
0.010550049 -0.23246108 0.050000861 0
0.013571163 -0.2325522 -0.049999107 0
0.01355908 -0.23247954 0.05000088 0
0.016589222 -0.23233914 -0.049999084 0
0.016646456 -0.23237063 0.050000887 0
0.019230869 -0.2326881 -0.049999073 0
0.019338919 -0.232581 0.050000895 0
0.022486854 -0.23245539 -0.049999066 0
0.022417611 -0.23199379 0.050000913 0
0.025513973 -0.23251249 -0.049999051 0
0.025577929 -0.23237348 0.050000921 0
0.028375613 -0.23240334 -0.04999904 0
0.028711939 -0.23273017 0.050000936 0
0.031605083 -0.23251529 -0.049999028 0
0.031604391 -0.23250295 0.050000951 0
0.034408435 -0.23269427 -0.049999021 0
0.034446251 -0.23228234 0.050000962 0
0.03779459 -0.23268206 -0.049999021 0
0.037469205 -0.23258062 0.050000958 0
0.040596828 -0.2326718 -0.049998991 0
0.040475063 -0.23239882 0.05000098 0
0.043284997 -0.23234999 -0.049998999 0
0.043318965 -0.23254576 0.050000977 0
0.046694759 -0.23256733 -0.04999898 0
0.046384111 -0.23262011 0.050000995 0
0.049505565 -0.2324622 -0.049570307 0
0.05000015 -0.23251759 -0.04644011 0
0.050000146 -0.23225944 -0.04358995 0
0.050000131 -0.23240574 -0.040442955 0
0.050000131 -0.23246267 -0.037594941 0
0.050000105 -0.23251246 -0.034197025 0
0.050000101 -0.23220858 -0.031403814 0
0.050000086 -0.2325718 -0.028489109 0
0.050000079 -0.23261067 -0.025650654 0
0.050000075 -0.23281834 -0.02267628 0
0.050000057 -0.23229246 -0.019807033 0
0.050000053 -0.23258038 -0.016364174 0
0.050000042 -0.23239173 -0.013454038 0
0.050000027 -0.23244433 -0.010531061 0
0.050000004 -0.23236893 -0.0075514931 0
0.050000008 -0.23247866 -0.004354842 0
0.04999999 -0.23258394 -0.0013419542 0
0.04999999 -0.23266247 0.0014880778 0
0.049999967 -0.23233341 0.0046952902 0
0.049999952 -0.23232815 0.0075910157 0
0.049999949 -0.2323608 0.010686991 0
0.049999937 -0.23232649 0.013443683 0
0.049999937 -0.23249397 0.016532406 0
0.049999919 -0.23240499 0.019373447 0
0.049999904 -0.23252478 0.022366991 0
0.049999908 -0.23280473 0.025444467 0
0.049999885 -0.23245524 0.028601773 0
0.049999882 -0.23247173 0.031148151 0
0.049999863 -0.2325727 0.034480456 0
0.049999859 -0.23255531 0.037458688 0
0.049999841 -0.23254609 0.040831562 0
0.049999837 -0.23221447 0.043395605 0
0.049999814 -0.23280911 0.046557739 0
0.04947469 -0.2324661 0.049452249 0
-0.00440046 -0.22956179 -0.0043969927 0
-0.0049457536 -0.2294431 -0.0013556055 0
-0.0049469443 -0.22960816 0.0019769876 0
-0.004354672 -0.22936383 0.0046027945 0
-0.0014718757 -0.22954619 -0.0049991738 0
-0.0015029199 -0.22966117 0.0050008246 0
0.0013371191 -0.23031421 -0.049092084 0
0.0010633769 -0.23032025 -0.046317402 0
0.00096922851 -0.23029552 -0.043512911 0
0.00097970734 -0.23029217 -0.040683508 0
0.0011427511 -0.23024759 -0.037586935 0
0.0011458544 -0.23026331 -0.034851335 0
0.0014485064 -0.23026912 -0.031342294 0
0.0015575419 -0.230267 -0.028577479 0
0.0011620824 -0.23024847 -0.025308624 0
0.0010892643 -0.23026511 -0.022523243 0
0.0011232942 -0.23027615 -0.019692661 0
0.0013015759 -0.23025948 -0.016452415 0
0.0014448032 -0.23022828 -0.013609452 0
0.00121184 -0.2302741 -0.010514443 0
0.00090186181 -0.23033334 -0.0077198204 0
0.0013687916 -0.22931179 -0.0051147928 0
0.0013274511 -0.22964717 0.0051501533 0
0.0010453633 -0.23031934 0.0074243043 0
0.0010969383 -0.23030132 0.01035305 0
0.00088550954 -0.23031773 0.013686527 0
0.0014694664 -0.23026513 0.016481709 0
0.0013420189 -0.23029509 0.019497851 0
0.0011404483 -0.23029315 0.022405231 0
0.0011501835 -0.23027572 0.025574552 0
0.001260606 -0.23024474 0.028300563 0
0.001588632 -0.23023279 0.031419422 0
0.0010488058 -0.23034418 0.034578308 0
0.0010471658 -0.23034181 0.037563011 0
0.0011773774 -0.23027843 0.040464237 0
0.0010819916 -0.23032297 0.043438695 0
0.0012163501 -0.23033613 0.046613656 0
0.0013800266 -0.23036765 0.04927969 0
0.0044103432 -0.23029283 -0.049218249 0
0.0043974039 -0.23020008 -0.046603046 0
0.0043764589 -0.23020008 -0.043393224 0
0.0043776417 -0.23020011 -0.040545173 0
0.0046488782 -0.23020005 -0.037433498 0
0.004104468 -0.23020005 -0.034526143 0
0.0044820276 -0.23020008 -0.031337969 0
0.0044819522 -0.23020007 -0.02824921 0
0.0049185096 -0.23019999 -0.02550403 0
0.0046045035 -0.23020004 -0.022610195 0
0.0045481483 -0.23020004 -0.019615956 0
0.0047104135 -0.23019999 -0.016576754 0
0.0044037378 -0.23019996 -0.013512991 0
0.0046772049 -0.23019998 -0.010444332 0
0.0045063538 -0.23019999 -0.0075457706 0
0.00484316 -0.22934437 -0.0051383739 0
0.0046510245 -0.22941431 0.0051671788 0
0.0044078566 -0.2301999 0.0076481649 0
0.0044767191 -0.23019987 0.010309813 0
0.0044624913 -0.23019987 0.013340711 0
0.0042279144 -0.23019987 0.016377186 0
0.0046235844 -0.23019986 0.019477788 0
0.0046794792 -0.23019984 0.022584165 0
0.0044552726 -0.23019984 0.025626563 0
0.0043752645 -0.23019983 0.028643148 0
0.0044454513 -0.23019984 0.031235054 0
0.0048186947 -0.2301998 0.034400288 0
0.00435811 -0.23019978 0.037456058 0
0.0044435686 -0.23019978 0.040431462 0
0.0044615874 -0.23019975 0.043415152 0
0.0048128557 -0.23019975 0.046537604 0
0.0045310236 -0.2302807 0.049134508 0
0.0073508555 -0.23035578 -0.049371645 0
0.0075593716 -0.2302001 -0.046639919 0
0.0074856062 -0.23020007 -0.043098651 0
0.0073805805 -0.23020005 -0.040508814 0
0.0076386672 -0.23020005 -0.037061162 0
0.0074983113 -0.23020005 -0.034397572 0
0.0073645227 -0.23020004 -0.031552244 0
0.0073035834 -0.23020004 -0.028263975 0
0.0074643265 -0.23020002 -0.025580931 0
0.0075801699 -0.23020002 -0.022681611 0
0.007366044 -0.23020004 -0.019693572 0
0.0075346669 -0.23020002 -0.016483346 0
0.0075060939 -0.23019996 -0.013366864 0
0.0076972521 -0.23019998 -0.010517978 0
0.0077146771 -0.23019999 -0.0073371907 0
0.007320167 -0.22954489 -0.005188941 0
0.0075650956 -0.2292563 0.0051751607 0
0.0075723794 -0.23019989 0.007456366 0
0.0074077961 -0.2301999 0.010527132 0
0.0077476213 -0.23019992 0.013847749 0
0.007365976 -0.23019986 0.016485948 0
0.0073055592 -0.23019984 0.019664269 0
0.0073269801 -0.23019986 0.022611612 0
0.0076648705 -0.23019984 0.025685469 0
0.0076791532 -0.23019983 0.028707707 0
0.0076790652 -0.23019978 0.031465393 0
0.0074687186 -0.23019981 0.03434179 0
0.0074219508 -0.23019981 0.037598964 0
0.0074376548 -0.2301998 0.040540736 0
0.0077818516 -0.23019977 0.043466467 0
0.0072695301 -0.23019975 0.046583217 0
0.0074280533 -0.23029643 0.049214922 0
0.010434872 -0.23035756 -0.049291052 0
0.010484898 -0.23020008 -0.046329405 0
0.010376494 -0.2302001 -0.043670312 0
0.010099283 -0.23020008 -0.040587623 0
0.0105502 -0.23020005 -0.037366655 0
0.010359343 -0.23020005 -0.034630839 0
0.010364162 -0.23020004 -0.031326886 0
0.010390524 -0.23020007 -0.028475236 0
0.010348087 -0.23020002 -0.02533135 0
0.010467413 -0.23019996 -0.022329018 0
0.010532516 -0.23019999 -0.019728098 0
0.010503856 -0.23019999 -0.016223902 0
0.010446573 -0.23019996 -0.013651848 0
0.010568862 -0.23019998 -0.010556801 0
0.010386715 -0.23019999 -0.0074792886 0
0.01069726 -0.229307 -0.0051014251 0
0.010523423 -0.22939053 0.0051201149 0
0.010275966 -0.2301999 0.0074900743 0
0.010457838 -0.23019986 0.010466805 0
0.010237546 -0.2301999 0.013137246 0
0.010384095 -0.23019986 0.0167554 0
0.010655019 -0.23019984 0.019850168 0
0.010354847 -0.23019986 0.02269927 0
0.010495525 -0.23019987 0.025483824 0
0.010340399 -0.23019981 0.02835403 0
0.010698896 -0.2301998 0.031753376 0
0.010435249 -0.23019984 0.03463994 0
0.010630799 -0.23019981 0.0373495 0
0.010615037 -0.23019983 0.040917601 0
0.010491649 -0.23019975 0.043466412 0
0.010473778 -0.23019974 0.046636838 0
0.010579128 -0.23036109 0.049338367 0
0.013809848 -0.2302995 -0.049133178 0
0.013582058 -0.23020014 -0.046400245 0
0.013346536 -0.2302001 -0.04330454 0
0.013742015 -0.23020011 -0.040441021 0
0.013511532 -0.23020007 -0.037328467 0
0.013434811 -0.23020005 -0.034571629 0
0.013309473 -0.23020005 -0.031512812 0
0.013348397 -0.23020002 -0.028802853 0
0.013418732 -0.23020005 -0.025731385 0
0.01368702 -0.23019999 -0.022381002 0
0.013838978 -0.23019998 -0.01944273 0
0.013444262 -0.23019999 -0.016516052 0
0.013486558 -0.23019998 -0.013612545 0
0.013563291 -0.23019998 -0.010433475 0
0.013527295 -0.23019995 -0.0075042425 0
0.013681666 -0.22922187 -0.0047716573 0
0.014456577 -0.22911313 -0.0014303547 0
0.01449576 -0.22919151 0.0016189249 0
0.01397098 -0.22920999 0.0045870556 0
0.013306174 -0.2301999 0.007559556 0
0.013722147 -0.23019992 0.010644414 0
0.013355522 -0.2301999 0.013467336 0
0.013580122 -0.23019989 0.01673675 0
0.013408099 -0.23019984 0.019433158 0
0.013784375 -0.23019989 0.022478905 0
0.013300746 -0.23019986 0.025490345 0
0.013747874 -0.23019986 0.028545376 0
0.013361949 -0.2301998 0.031620421 0
0.013636162 -0.2301998 0.034637727 0
0.013347781 -0.2301998 0.037766166 0
0.013444077 -0.23019977 0.040306855 0
0.013495513 -0.23019975 0.04346944 0
0.013799137 -0.23019975 0.04675756 0
0.013631372 -0.23026596 0.049407039 0
0.016494105 -0.23029709 -0.049178574 0
0.016460085 -0.2302001 -0.046688948 0
0.016504291 -0.2302001 -0.043484699 0
0.016396448 -0.23020011 -0.040499467 0
0.016498532 -0.23020004 -0.037520178 0
0.016453519 -0.23020007 -0.034618922 0
0.016489014 -0.23020005 -0.031612661 0
0.016549619 -0.23020004 -0.028478188 0
0.016425744 -0.23020002 -0.025485648 0
0.016523408 -0.23019999 -0.022484172 0
0.016618496 -0.23020001 -0.019363644 0
0.016612142 -0.23020005 -0.016267471 0
0.016410252 -0.23019999 -0.013486574 0
0.016578143 -0.23019996 -0.010404794 0
0.016427564 -0.23019995 -0.0072976025 0
0.016677544 -0.23019996 -0.0046156491 0
0.016295895 -0.23019998 -0.0013982138 0
0.016641358 -0.23019992 0.0013691983 0
0.016633283 -0.23019999 0.0045483788 0
0.016673744 -0.23019989 0.0075278305 0
0.016678901 -0.23019987 0.010346101 0
0.016534878 -0.23019987 0.013385643 0
0.016511632 -0.23019993 0.016748218 0
0.01665459 -0.23019986 0.019528901 0
0.016170172 -0.23019984 0.022695852 0
0.016738858 -0.23019981 0.025584731 0
0.016507722 -0.23019987 0.028523719 0
0.016492881 -0.23019981 0.031308874 0
0.016565276 -0.23019981 0.034633134 0
0.016550232 -0.23019978 0.0374569 0
0.016729422 -0.2301998 0.040578701 0
0.016573319 -0.23019977 0.043511912 0
0.016372474 -0.23019975 0.046407711 0
0.016509518 -0.23031802 0.049219869 0
0.019699611 -0.23029913 -0.049239691 0
0.019749466 -0.2302001 -0.046539694 0
0.019602431 -0.23020013 -0.043646988 0
0.019540213 -0.23020004 -0.040578991 0
0.019711887 -0.2302001 -0.037137017 0
0.01947161 -0.23020004 -0.034684382 0
0.019531447 -0.23020011 -0.031458247 0
0.019563977 -0.23020004 -0.028564608 0
0.01963543 -0.23020002 -0.025486995 0
0.019385045 -0.23020005 -0.02271934 0
0.019642293 -0.23020001 -0.01951649 0
0.019269824 -0.23019998 -0.016444013 0
0.019503329 -0.23019998 -0.013449779 0
0.01965482 -0.23019999 -0.010437133 0
0.019373834 -0.23019995 -0.0077657211 0
0.019345853 -0.23019993 -0.0044621709 0
0.019538226 -0.23019996 -0.0011390204 0
0.019604789 -0.23019993 0.0013525365 0
0.01932228 -0.23019992 0.0045842924 0
0.0192807 -0.2301999 0.007621414 0
0.019479299 -0.23019986 0.010560985 0
0.019334516 -0.2301999 0.013573836 0
0.019385103 -0.23019987 0.016280325 0
0.019346425 -0.23019986 0.019702073 0
0.019465351 -0.23019987 0.02246597 0
0.01950749 -0.23019987 0.025515374 0
0.019590771 -0.23019983 0.028394904 0
0.019233767 -0.23019981 0.031349633 0
0.019290628 -0.2301999 0.034522235 0
0.019219428 -0.23019981 0.037621684 0
0.019678865 -0.23019975 0.040566362 0
0.019397635 -0.23019978 0.043737251 0
0.019455517 -0.23019978 0.046781529 0
0.019462287 -0.23031305 0.049243763 0
0.022474583 -0.23032935 -0.049171194 0
0.022599034 -0.23020008 -0.046552151 0
0.02240584 -0.23020008 -0.043591049 0
0.022679809 -0.23020005 -0.040601157 0
0.022508198 -0.23020007 -0.037561283 0
0.022277286 -0.23020007 -0.034598872 0
0.022284111 -0.23020007 -0.03149876 0
0.022518178 -0.23020002 -0.02852346 0
0.022441227 -0.23020008 -0.02541771 0
0.022516225 -0.23019999 -0.02228703 0
0.022404101 -0.23020002 -0.019587392 0
0.022410823 -0.23020002 -0.01671028 0
0.022406898 -0.23019995 -0.013202806 0
0.022253519 -0.23019996 -0.01028651 0
0.022360822 -0.23019996 -0.0075240256 0
0.022493947 -0.23019993 -0.0043678964 0
0.02231052 -0.23019993 -0.0013900899 0
0.022391733 -0.2301999 0.0015747974 0
0.022642717 -0.23019998 0.0046895412 0
0.022625066 -0.23019995 0.0074424241 0
0.022511967 -0.2301999 0.010473448 0
0.022464903 -0.23019992 0.013564932 0
0.022412216 -0.23019987 0.016475238 0
0.022248736 -0.23019987 0.019543657 0
0.022101361 -0.23019987 0.022361949 0
0.022257166 -0.23019983 0.025690397 0
0.022599794 -0.23019981 0.028151561 0
0.022476731 -0.23019981 0.031516533 0
0.022636229 -0.23019978 0.034586281 0
0.02238982 -0.23019983 0.03768171 0
0.022269137 -0.23019978 0.040633071 0
0.022336615 -0.23019977 0.043386832 0
0.022573918 -0.23019975 0.04661471 0
0.022618609 -0.23029198 0.049186774 0
0.025398312 -0.23029983 -0.049450696 0
0.02563538 -0.23020014 -0.046402026 0
0.025396721 -0.23020008 -0.043410011 0
0.02574916 -0.23020007 -0.040827841 0
0.025432602 -0.23020004 -0.037476119 0
0.025401235 -0.23020005 -0.034636874 0
0.025320364 -0.23020007 -0.031473812 0
0.025400862 -0.23020007 -0.02838878 0
0.025339952 -0.23020002 -0.025664825 0
0.025391186 -0.23020001 -0.022352885 0
0.025702223 -0.23020004 -0.019496728 0
0.025499895 -0.23019998 -0.016581761 0
0.025363753 -0.23019998 -0.013515143 0
0.025267022 -0.23019998 -0.01046746 0
0.025493126 -0.23019999 -0.0073935897 0
0.025430802 -0.23019995 -0.0047989371 0
0.025532685 -0.23019996 -0.00176984 0
0.025598612 -0.23019992 0.0013780518 0
0.025467077 -0.2301999 0.0043930709 0
0.025528118 -0.23019989 0.0075291381 0
0.025491793 -0.23019989 0.010636228 0
0.025611857 -0.2301999 0.013623704 0
0.025326166 -0.23019986 0.016680634 0
0.025545271 -0.23019987 0.019214444 0
0.0254799 -0.23019984 0.022369886 0
0.025490204 -0.23019983 0.025395542 0
0.025502488 -0.23019983 0.028604778 0
0.025269695 -0.23019984 0.03141351 0
0.025592893 -0.23019981 0.034577522 0
0.025683079 -0.23019978 0.037454918 0
0.025704192 -0.23019978 0.040564585 0
0.025537809 -0.23019978 0.043311775 0
0.025471464 -0.2301998 0.046481293 0
0.025460429 -0.23041765 0.04945014 0
0.028336566 -0.2303462 -0.049122576 0
0.028643234 -0.23020013 -0.046531763 0
0.02848473 -0.2302001 -0.043281473 0
0.028440202 -0.23020005 -0.040385243 0
0.02834243 -0.23020008 -0.037236921 0
0.02824367 -0.23020004 -0.034351844 0
0.028368248 -0.23020007 -0.031679679 0
0.028289298 -0.23020005 -0.028622663 0
0.028218519 -0.23020002 -0.025539424 0
0.028596675 -0.23020001 -0.022600891 0
0.028348824 -0.23019999 -0.019692834 0
0.028608656 -0.23020004 -0.016246693 0
0.028380819 -0.23019996 -0.013380935 0
0.028324902 -0.23019996 -0.010584901 0
0.028239174 -0.23019996 -0.0072115748 0
0.02838126 -0.23019995 -0.0046829605 0
0.028443171 -0.23019993 -0.0014274564 0
0.028455654 -0.23019995 0.0015886248 0
0.02861454 -0.23019993 0.0044189263 0
0.02856677 -0.23019992 0.0073216925 0
0.028617147 -0.23019989 0.010514081 0
0.028407177 -0.23019989 0.0137427 0
0.028712898 -0.23019986 0.016334156 0
0.028696055 -0.23019981 0.019250836 0
0.028445015 -0.23019983 0.022475794 0
0.028436232 -0.23019983 0.025580522 0
0.028626563 -0.23019983 0.028243041 0
0.028730219 -0.23019981 0.031457659 0
0.028349638 -0.2301998 0.034729648 0
0.028433474 -0.23019981 0.037362132 0
0.028613579 -0.23019977 0.040636227 0
0.028550262 -0.23019977 0.043184418 0
0.02833879 -0.23019975 0.046694767 0
0.02849107 -0.23034948 0.049344379 0
0.031623114 -0.23033813 -0.049371105 0
0.031467143 -0.23020014 -0.046531029 0
0.031222939 -0.23020011 -0.043391012 0
0.03160036 -0.23020007 -0.040742047 0
0.031576425 -0.23020008 -0.037465945 0
0.031441491 -0.23020005 -0.034403782 0
0.031543009 -0.23020005 -0.031821627 0
0.031569824 -0.23020002 -0.028565394 0
0.031468578 -0.23020005 -0.025462124 0
0.031385776 -0.23019999 -0.022416847 0
0.031085238 -0.23020007 -0.019367838 0
0.031395737 -0.23019998 -0.016546136 0
0.031380333 -0.23019996 -0.013396613 0
0.031560354 -0.23019996 -0.010611726 0
0.031197961 -0.23020001 -0.0076533975 0
0.031537633 -0.23019995 -0.0048957281 0
0.031319458 -0.23019993 -0.0015341588 0
0.031363148 -0.23019996 0.0016350942 0
0.031556796 -0.2301999 0.0045558298 0
0.031636581 -0.23019987 0.0073273904 0
0.031314466 -0.23019992 0.010426008 0
0.031709086 -0.23019995 0.013405113 0
0.031501092 -0.23019986 0.01654407 0
0.031264972 -0.23019986 0.019668564 0
0.03151729 -0.23019984 0.02239763 0
0.031621292 -0.23019986 0.025874007 0
0.031577148 -0.23019984 0.028608622 0
0.031549659 -0.23019984 0.031343188 0
0.031517632 -0.2301998 0.034296248 0
0.031692408 -0.2301998 0.037512537 0
0.031443063 -0.23019975 0.040619664 0
0.031475909 -0.2301998 0.043400936 0
0.031629551 -0.23019983 0.046657734 0
0.031500105 -0.23032743 0.049310595 0
0.034340493 -0.23029393 -0.049337253 0
0.034581289 -0.23020008 -0.046704661 0
0.034378592 -0.2302001 -0.043519687 0
0.03451423 -0.2302001 -0.040661208 0
0.034589764 -0.2302001 -0.037597455 0
0.034426365 -0.23020008 -0.034563702 0
0.034991521 -0.23020004 -0.031741209 0
0.034597248 -0.23020004 -0.028680924 0
0.034455601 -0.23019999 -0.025720214 0
0.034763597 -0.23020002 -0.022936618 0
0.034890398 -0.23020004 -0.019549914 0
0.034543585 -0.23019999 -0.016532848 0
0.034684539 -0.23020001 -0.013830962 0
0.034697067 -0.23019996 -0.010481327 0
0.034355525 -0.23019999 -0.0073797344 0
0.034329634 -0.23019993 -0.0045284806 0
0.034240343 -0.23019996 -0.0015718086 0
0.034585562 -0.23019993 0.0014141027 0
0.03434471 -0.23019995 0.0045975144 0
0.034450136 -0.23019993 0.0076417746 0
0.034524199 -0.2301999 0.010459315 0
0.034694117 -0.23019989 0.013688589 0
0.034580071 -0.2301999 0.016672973 0
0.034547698 -0.23019986 0.019440247 0
0.03455447 -0.23019989 0.022474958 0
0.034544189 -0.23019983 0.02559559 0
0.034825068 -0.23019984 0.028375017 0
0.034546956 -0.23019978 0.031679709 0
0.034431003 -0.23019984 0.034658164 0
0.034764048 -0.23019987 0.037441649 0
0.034508161 -0.23019975 0.040210031 0
0.034599371 -0.2301998 0.043656066 0
0.034878083 -0.23019975 0.04649289 0
0.034380279 -0.2302613 0.049058869 0
0.0369271 -0.23026671 -0.049246538 0
0.037576739 -0.23020013 -0.046496924 0
0.037444446 -0.23020008 -0.043592632 0
0.037865724 -0.23020014 -0.040564183 0
0.0375452 -0.23020007 -0.037521254 0
0.037694 -0.23020005 -0.034343753 0
0.037833262 -0.23020008 -0.031583946 0
0.037479047 -0.23020007 -0.028368745 0
0.037088871 -0.23020002 -0.025416419 0
0.037225582 -0.23020004 -0.022704529 0
0.037554 -0.23020001 -0.019616203 0
0.037399564 -0.23019998 -0.016599601 0
0.037544295 -0.23019996 -0.013503657 0
0.037515271 -0.23019998 -0.010286154 0
0.037712883 -0.23019998 -0.0077872812 0
0.037527934 -0.23019993 -0.0045646806 0
0.03748998 -0.2301999 -0.0016153656 0
0.037784606 -0.23019993 0.0011684851 0
0.037529062 -0.2301999 0.0044370834 0
0.037474286 -0.23019989 0.007441388 0
0.037695773 -0.23019987 0.010522774 0
0.03754779 -0.23019987 0.013447887 0
0.037428629 -0.23019987 0.016384762 0
0.0373387 -0.23019989 0.019733204 0
0.037154075 -0.23019986 0.022362785 0
0.037474606 -0.23019984 0.025539845 0
0.03753427 -0.23019986 0.028372468 0
0.037435967 -0.23019981 0.031458318 0
0.037474249 -0.2301999 0.034418613 0
0.03736693 -0.23019981 0.03716382 0
0.037463084 -0.23019981 0.040434189 0
0.03735207 -0.23019975 0.043728802 0
0.037610121 -0.23019975 0.046527583 0
0.037487712 -0.23029131 0.049313679 0
0.040424377 -0.23036565 -0.049430918 0
0.040260579 -0.2302001 -0.046455581 0
0.04039336 -0.23020008 -0.043488063 0
0.040408611 -0.23020007 -0.040261492 0
0.040427417 -0.23020016 -0.037825007 0
0.040483121 -0.23020007 -0.034415781 0
0.040321879 -0.23020005 -0.031685196 0
0.040399186 -0.23020004 -0.02848915 0
0.040491145 -0.23020002 -0.025522823 0
0.04039187 -0.23020002 -0.022698423 0
0.040717844 -0.23020001 -0.01948736 0
0.040280908 -0.23019998 -0.016530296 0
0.040365424 -0.23020001 -0.01344127 0
0.040440965 -0.23019998 -0.010415681 0
0.040554568 -0.23019995 -0.0075765303 0
0.040580112 -0.23019993 -0.0044400841 0
0.040597141 -0.23019993 -0.0014944065 0
0.040392619 -0.23019992 0.0016451728 0
0.040484179 -0.2301999 0.0045537329 0
0.040799331 -0.23019993 0.0076587647 0
0.040523298 -0.23019995 0.010540564 0
0.040709063 -0.23019992 0.013497883 0
0.04069991 -0.2301999 0.016348571 0
0.040739194 -0.23019984 0.019624628 0
0.040306918 -0.23019984 0.022543885 0
0.040396314 -0.23019983 0.025353359 0
0.040394131 -0.23019986 0.028377322 0
0.040549595 -0.23019981 0.031412028 0
0.040372241 -0.23019984 0.03419292 0
0.040425632 -0.23019978 0.037509672 0
0.04055189 -0.2301998 0.0407441 0
0.040335089 -0.2301998 0.043667395 0
0.040431447 -0.23019975 0.046387125 0
0.040586472 -0.23033424 0.049421299 0
0.043518312 -0.23032683 -0.049288191 0
0.043594912 -0.23020013 -0.046211708 0
0.043534745 -0.23020013 -0.043254606 0
0.043405559 -0.23020008 -0.040377744 0
0.043482061 -0.23020005 -0.037368182 0
0.04327273 -0.23020008 -0.034493577 0
0.043481216 -0.23020008 -0.031514078 0
0.043684594 -0.23020007 -0.028370254 0
0.043447159 -0.23020001 -0.025290586 0
0.043452471 -0.23019999 -0.022163436 0
0.043470509 -0.23020001 -0.019420631 0
0.043160077 -0.23019999 -0.016454332 0
0.043795727 -0.23019996 -0.013613366 0
0.043633346 -0.23019996 -0.01045778 0
0.043410182 -0.23019999 -0.007364098 0
0.043406636 -0.23019993 -0.004763538 0
0.043716412 -0.23019993 -0.0016883069 0
0.043566126 -0.23019992 0.0014353878 0
0.043453693 -0.23019992 0.0043653459 0
0.043508146 -0.23019989 0.0074011916 0
0.043353945 -0.2301999 0.010449846 0
0.043538157 -0.2301999 0.013586255 0
0.043398194 -0.23019986 0.016510498 0
0.043342348 -0.23019989 0.01926529 0
0.043571893 -0.23019989 0.022573853 0
0.043394104 -0.23019987 0.025459781 0
0.043556754 -0.23019984 0.028524425 0
0.043466117 -0.2301998 0.031236192 0
0.043514073 -0.2301998 0.034561761 0
0.043180902 -0.23019981 0.037555866 0
0.043146476 -0.23019978 0.040440071 0
0.043325301 -0.23019977 0.043412887 0
0.043402743 -0.23019975 0.046671633 0
0.043706108 -0.23027648 0.049238473 0
0.046811804 -0.23031576 -0.04928489 0
0.046557605 -0.2302001 -0.04659541 0
0.04657533 -0.2302001 -0.043594856 0
0.046757441 -0.2302001 -0.0404514 0
0.046313852 -0.23020007 -0.037462644 0
0.046283539 -0.23020005 -0.034495387 0
0.04652863 -0.23020007 -0.03175899 0
0.046527721 -0.23020004 -0.028771669 0
0.04673193 -0.23020002 -0.025177762 0
0.046782762 -0.23020005 -0.02267462 0
0.04657872 -0.23020001 -0.019400688 0
0.046424486 -0.23019999 -0.016381647 0
0.046570748 -0.23020002 -0.013401829 0
0.046359178 -0.23020001 -0.010818247 0
0.046388015 -0.23019999 -0.007240348 0
0.04653785 -0.23019993 -0.0042581107 0
0.046387814 -0.23019996 -0.0016193831 0
0.046284635 -0.23019993 0.0017391188 0
0.046647396 -0.23019995 0.004380798 0
0.046477657 -0.23019989 0.0075050662 0
0.046475779 -0.23019986 0.010510714 0
0.046633746 -0.23019989 0.013509535 0
0.046598226 -0.23019989 0.016536294 0
0.046165314 -0.23019986 0.019468188 0
0.046418004 -0.23019987 0.022335315 0
0.046351176 -0.23019983 0.025533332 0
0.046444401 -0.23019981 0.028331561 0
0.046459455 -0.23019984 0.031439021 0
0.046615127 -0.2301998 0.034532472 0
0.046646181 -0.23019981 0.037535459 0
0.046522498 -0.2301998 0.040305249 0
0.04656459 -0.2301998 0.043289643 0
0.046419647 -0.23019977 0.046539575 0
0.046608314 -0.23030186 0.049111795 0
0.049153443 -0.23035957 -0.049312659 0
0.049456451 -0.23035637 -0.046174418 0
0.04941209 -0.23033164 -0.043346461 0
0.049258981 -0.23037969 -0.040545292 0
0.049150988 -0.23031269 -0.037840325 0
0.049421426 -0.23034883 -0.034524955 0
0.049057182 -0.23022281 -0.031332143 0
0.049159944 -0.23028292 -0.028535362 0
0.049317144 -0.23037073 -0.025444577 0
0.049251009 -0.23029658 -0.022368798 0
0.049213029 -0.23028408 -0.019686751 0
0.049263157 -0.23029423 -0.01655709 0
0.049179979 -0.23026183 -0.013432509 0
0.049254563 -0.2303465 -0.010635939 0
0.049218483 -0.23033792 -0.0075201602 0
0.04944424 -0.23037662 -0.0045092283 0
0.049431771 -0.23037314 -0.0011769808 0
0.049508944 -0.23047529 0.0013698868 0
0.049199872 -0.23027964 0.0046960204 0
0.049322933 -0.2303246 0.0076499213 0
0.049367011 -0.23030594 0.010608572 0
0.04917701 -0.23026004 0.013797895 0
0.049468163 -0.23033653 0.016514484 0
0.049363632 -0.23038158 0.019449024 0
0.049374864 -0.23033564 0.022609143 0
0.049554478 -0.23033091 0.025343137 0
0.04923382 -0.23031814 0.028425209 0
0.04927621 -0.23029037 0.031501051 0
0.04914939 -0.23031105 0.034702163 0
0.049254287 -0.23028025 0.037424736 0
0.04931286 -0.230287 0.040410642 0
0.049282119 -0.23032995 0.043570895 0
0.04926404 -0.23031412 0.046519347 0
0.049282327 -0.23045358 0.04932934 0
-0.0044373954 -0.2263848 -0.0043342984 0
-0.0049999938 -0.22634692 -0.0015114493 0
-0.0050000036 -0.22641312 0.0013823371 0
-0.0046800803 -0.22640075 0.0044308268 0
-0.0018397719 -0.22662613 -0.0049991864 0
-0.0014053638 -0.22654119 0.0050008153 0
0.0015888346 -0.2263685 -0.0049991738 0
0.0012594941 -0.2265262 0.0050008236 0
0.004390425 -0.22650707 -0.004999164 0
0.0042711589 -0.2264301 0.0050008353 0
0.0074230745 -0.22661538 -0.0049991529 0
0.0077573336 -0.22657898 0.0050008488 0
0.010457098 -0.22669531 -0.0049991412 0
0.01032299 -0.22646624 0.0050008567 0
0.013141312 -0.22674005 -0.0043336777 0
0.013146501 -0.22649297 -0.0016321845 0
0.013128909 -0.22645788 0.0013004827 0
0.012865813 -0.22666147 0.0045311954 0
-0.0045551378 -0.22346652 -0.0044473591 0
-0.0049999929 -0.22336954 -0.0014948915 0
-0.005000005 -0.22353916 0.0015746845 0
-0.0042357757 -0.22346489 0.0046023452 0
-0.0014052941 -0.22321126 -0.0049991962 0
-0.0015830875 -0.22344716 0.0050008022 0
0.001494083 -0.22339989 -0.0049991845 0
0.001425527 -0.2234232 0.0050008129 0
0.0044467407 -0.22345813 -0.0049991738 0
0.0042837244 -0.22365668 0.0050008246 0
0.0076277177 -0.22380157 -0.0049991622 0
0.0075415596 -0.22324587 0.0050008339 0
0.010661646 -0.22343999 -0.0046236943 0
0.01144811 -0.22309619 -0.0015401774 0
0.011568999 -0.22333801 0.0017625106 0
0.010677972 -0.22361904 0.004635022 0
0.012210759 -0.2246217 -0.003845392 0
0.012159537 -0.22451904 -0.0017121076 0
0.012225284 -0.22465058 0.0014268825 0
0.012166468 -0.22453296 0.0041165985 0
-0.0045929076 -0.22051238 -0.0044445498 0
-0.0049999943 -0.22071433 -0.0017318714 0
-0.0050000041 -0.22054376 0.0014519688 0
-0.0045378027 -0.22038196 0.0045953849 0
-0.0014290293 -0.22039904 -0.0049992064 0
-0.0016518441 -0.22054648 0.005000791 0
0.0019634606 -0.22039609 -0.0049991962 0
0.0015452938 -0.22052456 0.0050008032 0
0.0045294492 -0.22052331 -0.0049991859 0
0.0044816686 -0.22036853 0.0050008143 0
0.0075598941 -0.22039987 -0.0049991752 0
0.0074162316 -0.22061612 0.0050008255 0
0.009849946 -0.22061121 -0.0043941038 0
0.010135341 -0.22047068 -0.0012546795 0
0.010195928 -0.22059186 0.0016911471 0
0.0099418694 -0.22046156 0.0044353735 0
-0.0045316732 -0.21747586 -0.0045338143 0
-0.0049999948 -0.21745886 -0.0014726118 0
-0.005000005 -0.21756564 0.0015683442 0
-0.0045666303 -0.21754324 0.0045094867 0
-0.0014586675 -0.21760277 -0.0049992166 0
-0.0016122794 -0.21754743 0.0050007817 0
0.0014360918 -0.21762185 -0.0049992073 0
0.0014503135 -0.21752703 0.0050007915 0
0.0044828188 -0.21750936 -0.0049991966 0
0.0043600136 -0.2175152 0.0050008018 0
0.0075549134 -0.21743685 -0.0047454084 0
0.0084089926 -0.21701801 -0.0017923693 0
0.0085322717 -0.21726453 0.0013706295 0
0.0077485731 -0.21751542 0.0047190422 0
0.0091738356 -0.21854764 -0.0040779402 0
0.0092227701 -0.21864553 -0.0017787936 0
0.0091842189 -0.21856846 0.0014305542 0
0.0092064915 -0.21865073 0.0041594929 0
-0.0044202204 -0.21467412 -0.0046389392 0
-0.0049999929 -0.21436654 -0.0017287593 0
-0.0050000059 -0.21430513 0.0015549915 0
-0.0044898218 -0.21434581 0.0045975558 0
-0.0013755283 -0.21448556 -0.0049992278 0
-0.00149002 -0.21448374 0.0050007696 0
0.0013205457 -0.2147584 -0.0049992176 0
0.0015914298 -0.21454102 0.0050007808 0
0.0045207422 -0.21468444 -0.0049992064 0
0.0043013101 -0.2142854 0.0050007896 0
0.0071010427 -0.21472621 -0.0042124586 0
0.007087504 -0.21437502 -0.0014516682 0
0.0071404334 -0.21448083 0.0014445157 0
0.0070297476 -0.21479058 0.0043116859 0
-0.0045455098 -0.21148935 -0.0044230474 0
-0.0049999929 -0.2116597 -0.0015898631 0
-0.0050000064 -0.21184838 0.0015172437 0
-0.0044367989 -0.21158212 0.0045102634 0
-0.001347056 -0.21160193 -0.0049992385 0
-0.0016023875 -0.21159212 0.0050007594 0
0.0014827995 -0.21147032 -0.0049992283 0
0.0017440241 -0.21156184 0.0050007715 0
0.0048255753 -0.21141011 -0.0045748781 0
0.0054595671 -0.21111861 -0.0019277852 0
0.0053249006 -0.21080738 0.0016021435 0
0.0046920902 -0.21156357 0.0047142711 0
0.0061743017 -0.2125926 -0.0044838758 0
0.0061793905 -0.21255878 -0.0016634363 0
0.0061394656 -0.21247897 0.0014802453 0
0.0061699157 -0.21255723 0.0043566087 0
-0.0044594789 -0.20856446 -0.0046011931 0
-0.0049999934 -0.2082022 -0.0016472925 0
-0.0050000041 -0.20864049 0.0014205265 0
-0.0044285175 -0.20838585 0.0046158461 0
-0.0016125927 -0.20823762 -0.0049992516 0
-0.0015729959 -0.20859121 0.0050007482 0
0.0015222975 -0.20860277 -0.0049992395 0
0.0012804692 -0.20843203 0.0050007575 0
0.004548606 -0.20838478 -0.0042866301 0
0.0050000055 -0.20874524 -0.0016415826 0
0.0049999938 -0.20870614 0.0014855912 0
0.0045316685 -0.20859495 0.00448923 0
-0.0043864641 -0.20552951 -0.0044635008 0
-0.0049999934 -0.20542338 -0.0013753499 0
-0.0050000027 -0.20544338 0.001164819 0
-0.0046555731 -0.20528939 0.0043688039 0
-0.0012635716 -0.20555675 -0.0049992604 0
-0.0013555302 -0.20572786 0.0050007389 0
0.001238963 -0.20582375 -0.0049992506 0
0.0016664712 -0.2055584 0.0050007491 0
0.0044133053 -0.20545204 -0.0046013105 0
0.0050000064 -0.20533647 -0.0017043287 0
0.0049999924 -0.20541072 0.0017126967 0
0.0045448393 -0.20573997 0.0044733672 0
-0.0044620987 -0.20251802 -0.0045187413 0
-0.0049999929 -0.20221551 -0.0015173841 0
-0.0050000045 -0.20253271 0.0014709755 0
-0.0046101096 -0.20265616 0.0045382129 0
-0.0015608312 -0.20242222 -0.0049992725 0
-0.0015812576 -0.20244172 0.0050007282 0
0.0016016416 -0.2028151 -0.0049992595 0
0.0016993053 -0.20228824 0.0050007384 0
0.0044389986 -0.20270212 -0.0046827276 0
0.0050000036 -0.20265077 -0.0012089801 0
0.0049999948 -0.20255801 0.0012537559 0
0.004491447 -0.20243795 0.004535683 0
-0.0046656067 -0.19947219 -0.004287025 0
-0.0049999929 -0.19935116 -0.0016333952 0
-0.0050000055 -0.19954245 0.0013346137 0
-0.0044513606 -0.1995168 0.0044862875 0
-0.0013469717 -0.19965822 -0.0049992823 0
-0.0014858941 -0.19948341 0.0050007151 0
0.00131402 -0.19943273 -0.004999273 0
0.0016103267 -0.19950578 0.0050007273 0
0.0047860071 -0.19921485 -0.0040734764 0
0.0050000045 -0.19952977 -0.0014346391 0
0.004999992 -0.19973372 0.0017672126 0
0.0045507103 -0.19945867 0.004507279 0
-0.0044427132 -0.19647011 -0.0045800325 0
-0.0049999938 -0.19629708 -0.0013667012 0
-0.0050000041 -0.19640185 0.0013373176 0
-0.0046249023 -0.19666071 0.0043146168 0
-0.0012748686 -0.19595757 -0.0049992953 0
-0.0018990148 -0.19655947 0.0050007035 0
0.0013392214 -0.19663526 -0.0049992818 0
0.0016127436 -0.19651173 0.0050007165 0
0.0044784746 -0.19649492 -0.0045577884 0
0.0050000059 -0.19642384 -0.001578682 0
0.0049999948 -0.19615588 0.0014308826 0
0.0045649977 -0.19662459 0.0044337623 0
-0.0045374273 -0.19335398 -0.0044633239 0
-0.0049999929 -0.19365111 -0.0017354027 0
-0.0050000055 -0.19349644 0.0013817505 0
-0.0044505573 -0.19340457 0.0044225529 0
-0.0012326976 -0.19343846 -0.0049993033 0
-0.0013212028 -0.19360822 0.0050006951 0
0.0011180416 -0.19349684 -0.0049992944 0
0.0013011621 -0.19357312 0.0050007049 0
0.0045673628 -0.19354099 -0.0043962067 0
0.0050000059 -0.19344701 -0.0015605802 0
0.0049999948 -0.19357309 0.0011909656 0
0.0045019938 -0.1936233 0.0044805491 0
-0.0044323648 -0.19045196 -0.0045601018 0
-0.0049999948 -0.19039573 -0.0014371201 0
-0.0050000059 -0.19045265 0.0017797353 0
-0.00451431 -0.19037376 0.0044539729 0
-0.0013350197 -0.19044703 -0.0049993154 0
-0.0012246995 -0.19075783 0.0050006863 0
0.0014879343 -0.19067134 -0.0049993042 0
0.0014716281 -0.19014078 0.0050006937 0
0.004539717 -0.19051675 -0.0045347209 0
0.0050000045 -0.19033584 -0.0013242755 0
0.0049999952 -0.19033411 0.0014727383 0
0.004509558 -0.19048311 0.0045840498 0
-0.0045589567 -0.18745311 -0.004500242 0
-0.0049999943 -0.18746722 -0.0017245625 0
-0.005000005 -0.18758133 0.0016670681 0
-0.0044389493 -0.18777922 0.0044759703 0
-0.0014677452 -0.18746442 -0.0049993256 0
-0.0015235158 -0.18753526 0.0050006723 0
0.0016314599 -0.1874298 -0.0049993154 0
0.0016106826 -0.18770674 0.0050006844 0
0.0042557525 -0.18766023 -0.004764827 0
0.0050000036 -0.18734379 -0.0014099794 0
0.0049999943 -0.18731546 0.0014565452 0
0.0045138728 -0.18754242 0.0046072039 0
-0.0045114257 -0.18466255 -0.0044091074 0
-0.0049999934 -0.18425845 -0.0016295809 0
-0.0050000041 -0.18445551 0.0014556602 0
-0.0044171233 -0.1847719 0.0045884913 0
-0.0014382482 -0.18454345 -0.0049993359 0
-0.0014334711 -0.18445146 0.0050006621 0
0.0012826278 -0.18429545 -0.0049993284 0
0.0014981923 -0.184599 0.0050006723 0
0.0047082067 -0.18440908 -0.0042847749 0
0.0050000045 -0.18430759 -0.0013321594 0
0.0049999934 -0.18453109 0.0017103085 0
0.0044692787 -0.18431632 0.0046901917 0
-0.0043427646 -0.18166126 -0.0046366104 0
-0.0049999952 -0.18152903 -0.0015897719 0
-0.005000005 -0.18149537 0.0015490735 0
-0.0043769428 -0.18159939 0.0046986286 0
-0.0012482613 -0.18146025 -0.0049993466 0
-0.0016500093 -0.18158464 0.0050006504 0
0.0014308513 -0.1813197 -0.0049993377 0
0.0015888927 -0.18139407 0.0050006611 0
0.0045931134 -0.18120158 -0.0045137214 0
0.0050000055 -0.18144259 -0.0015416727 0
0.0049999952 -0.18153299 0.0013651081 0
0.0044644452 -0.18145627 0.0043957592 0
-0.0044448455 -0.17851691 -0.0044679805 0
-0.0049999948 -0.17847855 -0.0015113985 0
-0.0050000041 -0.17845234 0.0013885305 0
-0.0045881341 -0.17858551 0.0044479459 0
-0.0015581704 -0.17835885 -0.0049993601 0
-0.0016196385 -0.17858507 0.0050006388 0
0.001493316 -0.1782276 -0.004999348 0
0.0015729839 -0.17847212 0.0050006509 0
0.0044873687 -0.17852271 -0.0045782747 0
0.0050000045 -0.17856936 -0.0015512941 0
0.0049999938 -0.17852227 0.0015033664 0
0.0045102774 -0.17857876 0.0044995015 0
-0.0045252019 -0.17561598 -0.0045391647 0
-0.0049999948 -0.17547299 -0.0015115747 0
-0.005000005 -0.17528737 0.0014063135 0
-0.004441191 -0.17534184 0.0045355833 0
-0.0014898909 -0.17557259 -0.0049993689 0
-0.0013475608 -0.17551027 0.0050006299 0
0.0015232494 -0.17556372 -0.0049993577 0
0.0014021748 -0.17555797 0.0050006397 0
0.0045285542 -0.17540279 -0.0043673748 0
0.0050000036 -0.17548302 -0.0014735061 0
0.0049999943 -0.17557594 0.0016698381 0
0.0047568916 -0.17541336 0.0044255862 0
-0.0044736359 -0.17255384 -0.0044084713 0
-0.0049999943 -0.17247123 -0.0013542416 0
-0.0050000045 -0.17282178 0.001272822 0
-0.004570548 -0.17256711 0.004468177 0
-0.0012457123 -0.17251126 -0.004999381 0
-0.0013980258 -0.17229323 0.0050006192 0
0.0017943643 -0.17265071 -0.0049993685 0
0.0014181302 -0.17249866 0.0050006285 0
0.0045996932 -0.1723958 -0.0044792402 0
0.0050000045 -0.17257172 -0.0014245575 0
0.0049999934 -0.17240675 0.0015232967 0
0.0045500081 -0.17245424 0.0045338753 0
-0.0045797033 -0.16930616 -0.0043986104 0
-0.0049999929 -0.16940905 -0.0016338187 0
-0.0050000041 -0.1694572 0.0017123633 0
-0.0045563737 -0.16963878 0.0044794544 0
-0.0014621142 -0.16951163 -0.0049993903 0
-0.001601529 -0.16971266 0.005000608 0
0.0017488098 -0.16967976 -0.0049993796 0
0.0013256726 -0.16967477 0.0050006178 0
0.0045191883 -0.16942427 -0.004450032 0
0.0050000045 -0.16953211 -0.0016472243 0
0.0049999934 -0.16953215 0.0014086741 0
0.0045634755 -0.16944228 0.0044565764 0
-0.004587864 -0.16635357 -0.0043284637 0
-0.0049999952 -0.16667767 -0.0014418972 0
-0.0050000045 -0.16650885 0.0015338506 0
-0.0047320104 -0.1666345 0.0043561263 0
-0.0014954807 -0.16653121 -0.004999401 0
-0.001765451 -0.16658083 0.0050005969 0
0.0012925932 -0.16641882 -0.0049993917 0
0.0013622344 -0.16649228 0.0050006066 0
0.0045213071 -0.16648525 -0.0045227124 0
0.0050000041 -0.16635874 -0.0014219766 0
0.0049999943 -0.16656791 0.0012418302 0
0.0046271221 -0.1665265 0.0043503018 0
-0.0043960959 -0.16353637 -0.0046040174 0
-0.0049999929 -0.1630687 -0.0020211437 0
-0.0050000045 -0.16362871 0.0014628681 0
-0.0044076545 -0.16359492 0.0045492165 0
-0.0014392537 -0.16360021 -0.0049994122 0
-0.0015675065 -0.16381712 0.0050005871 0
0.0017277055 -0.16377491 -0.004999402 0
0.0015691348 -0.16361728 0.0050005973 0
0.0046239579 -0.16353282 -0.00452914 0
0.005000005 -0.16359775 -0.0013030375 0
0.0049999938 -0.16338018 0.0013693204 0
0.0043429849 -0.16336659 0.0044918596 0
-0.004406332 -0.16033767 -0.0046116575 0
-0.0049999938 -0.16025499 -0.0016268922 0
-0.0050000045 -0.16075249 0.0011891411 0
-0.0044207429 -0.16039114 0.0045615346 0
-0.0014405027 -0.16053227 -0.0049994239 0
-0.0011631612 -0.16044889 0.0050005754 0
0.0012278958 -0.16081966 -0.0049994127 0
0.0016259737 -0.16045541 0.0050005857 0
0.0045767282 -0.16071798 -0.0044604526 0
0.0050000041 -0.16021703 -0.0012721061 0
0.0049999938 -0.16058396 0.001551806 0
0.0046446621 -0.16027607 0.0043045315 0
-0.0045627663 -0.15730281 -0.0042947712 0
-0.0049999929 -0.1574486 -0.0016176645 0
-0.0050000041 -0.15758629 0.0014693941 0
-0.004587613 -0.15761548 0.0045794761 0
-0.0014648563 -0.15746301 -0.0049994341 0
-0.0016684595 -0.15751252 0.0050005629 0
0.0015060983 -0.15729341 -0.0049994239 0
0.00098042935 -0.15749568 0.0050005731 0
0.0044520837 -0.15762787 -0.0045131431 0
0.0050000045 -0.15745725 -0.0017009676 0
0.0049999948 -0.15735753 0.0012501008 0
0.0045645372 -0.15763757 0.0044136648 0
-0.0045364229 -0.15426452 -0.004686554 0
-0.0049999934 -0.15459786 -0.0014926676 0
-0.0050000059 -0.15424421 0.0015580794 0
-0.004522597 -0.15474711 0.0044291881 0
-0.0015037706 -0.15430319 -0.0049994476 0
-0.0018351768 -0.15465008 0.0050005526 0
0.0014977687 -0.15435146 -0.0049994355 0
0.0012648157 -0.15422758 0.0050005633 0
0.004496966 -0.15420219 -0.0044857678 0
