# .PCD v0.7 - Point Cloud Data file format
VERSION 0.7
FIELDS x y z rgb
SIZE 4 4 4 4
TYPE F F F F
COUNT 1 1 1 1
WIDTH 1184
HEIGHT 1
VIEWPOINT 0 0 0 1 0 0 0
POINTS 1184
DATA ascii
0.0016267935 -0.22636312 0.065000832 0
0.0046514729 -0.22667238 -0.064296678 0
0.0050002239 -0.22632487 -0.061572887 0
0.0050002118 -0.22633557 -0.058470935 0
0.0050002001 -0.22610521 -0.055180166 0
0.0050001913 -0.22622482 -0.052554507 0
0.0050001792 -0.22638208 -0.049446609 0
0.005000168 -0.22653203 -0.046477214 0
0.0050001564 -0.22668356 -0.043039158 0
0.005000147 -0.22672166 -0.040578727 0
0.0050001368 -0.22662745 -0.037581 0
0.0050001247 -0.22639532 -0.034394596 0
0.0050001154 -0.22627604 -0.031605784 0
0.0050001056 -0.2267653 -0.028978752 0
0.0050000902 -0.22629844 -0.024975235 0
0.0050000809 -0.22631131 -0.022314044 0
0.0050000702 -0.2264259 -0.019600557 0
0.0050000604 -0.2263038 -0.016453795 0
0.0050000474 -0.22651158 -0.013097184 0
0.0050000395 -0.22673592 -0.010824906 0
0.0050000278 -0.22635135 -0.0076443669 0
0.0050000167 -0.22637761 -0.0043497221 0
0.0050000064 -0.22649287 -0.0017061674 0
0.0049999952 -0.22618517 0.0015537314 0
0.0049999841 -0.22651173 0.0045922641 0
0.0049999724 -0.22645287 0.0075474703 0
0.0049999617 -0.22652525 0.010712413 0
0.0049999515 -0.22657944 0.013544033 0
0.0049999403 -0.2266092 0.01650057 0
0.00499993 -0.22642078 0.019577455 0
0.0049999189 -0.2265839 0.022337241 0
0.0049999082 -0.22651023 0.025508745 0
0.004999897 -0.22649735 0.028400186 0
0.0049998863 -0.2264768 0.031619821 0
0.0049998756 -0.22674516 0.034478407 0
0.0049998648 -0.22646216 0.037434187 0
0.0049998537 -0.22632319 0.040667526 0
0.0049998425 -0.22636881 0.043550376 0
0.0049998336 -0.22665954 0.046300761 0
0.0049998215 -0.22672305 0.049554732 0
0.0049998104 -0.22675762 0.052459259 0
0.0049997992 -0.22662643 0.055565294 0
0.0049997894 -0.22635996 0.05841317 0
0.0049997792 -0.2267869 0.061113399 0
0.0044992967 -0.22660337 0.064513825 0
-0.0046313582 -0.22366378 -0.064381219 0
-0.0049997764 -0.22318994 -0.061717704 0
-0.0049997871 -0.22372441 -0.058704458 0
-0.0049997983 -0.22347532 -0.055647038 0
-0.0049998113 -0.2231482 -0.052314248 0
-0.0049998215 -0.2238584 -0.049406338 0
-0.0049998323 -0.22328375 -0.046459556 0
-0.004999843 -0.22325839 -0.043496348 0
-0.0049998541 -0.22319658 -0.040440809 0
-0.0049998644 -0.22353956 -0.037523005 0
-0.0049998737 -0.22356084 -0.034817457 0
-0.0049998863 -0.22347941 -0.031512719 0
-0.0049998984 -0.22370318 -0.028327409 0
-0.0049999086 -0.22366384 -0.025418185 0
-0.0049999179 -0.22353336 -0.022674596 0
-0.0049999296 -0.22355008 -0.019617215 0
-0.0049999407 -0.22316822 -0.016581137 0
-0.0049999519 -0.22350083 -0.013469869 0
-0.0049999631 -0.22336364 -0.010312099 0
-0.0049999733 -0.22353028 -0.0073739281 0
-0.0049999836 -0.22334786 -0.0045677354 0
-0.0049999948 -0.22359776 -0.00172617 0
-0.0050000045 -0.22359285 0.0012109219 0
-0.0050000167 -0.22337165 0.0043515698 0
-0.0050000274 -0.22359835 0.0074365065 0
-0.0050000381 -0.22334397 0.010419755 0
-0.0050000483 -0.22334912 0.013219265 0
-0.0050000581 -0.22365455 0.016192738 0
-0.0050000721 -0.22348638 0.019744992 0
-0.0050000832 -0.2235963 0.022815078 0
-0.0050000916 -0.22358246 0.025208216 0
-0.0050001033 -0.22359139 0.028395165 0
-0.0050001144 -0.22323561 0.031603377 0
-0.0050001238 -0.22318693 0.034329742 0
-0.0050001349 -0.22343168 0.037435859 0
-0.005000147 -0.22343817 0.040603835 0
-0.0050001568 -0.22325896 0.043389764 0
-0.0050001685 -0.22340018 0.046381485 0
-0.0050001801 -0.22343186 0.049603812 0
-0.0050001894 -0.22380489 0.052408215 0
-0.0050002015 -0.22354043 0.055470791 0
-0.0050002104 -0.22349399 0.058214746 0
-0.0050002229 -0.22367275 0.061657742 0
-0.0044395928 -0.22349454 0.064625069 0
-0.0014398145 -0.22353604 -0.06509918 0
-0.0018172999 -0.22327372 0.065000795 0
0.0016421226 -0.22349723 -0.06509918 0
0.0015823434 -0.22351445 0.065000825 0
0.0045397277 -0.22351132 -0.064669453 0
0.0050002229 -0.22369529 -0.061443083 0
0.0050002127 -0.22341034 -0.058592476 0
0.0050002011 -0.2237514 -0.055530511 0
0.0050001899 -0.22344068 -0.052432816 0
0.0050001792 -0.22360165 -0.049424697 0
0.0050001685 -0.22347759 -0.046498563 0
0.0050001568 -0.22336155 -0.043504596 0
0.005000147 -0.22346053 -0.040528882 0
0.0050001359 -0.22350784 -0.037476607 0
0.0050001261 -0.22359331 -0.034573644 0
0.005000114 -0.22308569 -0.031281646 0
0.0050001033 -0.22394532 -0.028494434 0
0.0050000916 -0.2232085 -0.025364531 0
0.0050000818 -0.22343314 -0.02246025 0
0.0050000707 -0.22331139 -0.019240204 0
0.0050000586 -0.22330299 -0.016295306 0
0.0050000492 -0.22314352 -0.0134918 0
0.005000039 -0.22361061 -0.010723528 0
0.0050000283 -0.22340263 -0.0079099024 0
0.0050000157 -0.22331467 -0.0044329315 0
0.0050000069 -0.22354476 -0.001694237 0
0.0049999948 -0.22356516 0.0015885248 0
0.0049999855 -0.22359818 0.0042466288 0
0.0049999757 -0.22332625 0.0069494098 0
0.0049999622 -0.22368386 0.01061123 0
0.0049999519 -0.22356303 0.013527854 0
0.0049999407 -0.22350699 0.01649534 0
0.00499993 -0.223791 0.01937212 0
0.0049999198 -0.22320037 0.022436384 0
0.0049999082 -0.22336398 0.025603671 0
0.0049998979 -0.22344726 0.028283078 0
0.0049998858 -0.22325113 0.031615697 0
0.0049998742 -0.22364604 0.034418166 0
0.0049998644 -0.22344173 0.037494686 0
0.0049998537 -0.22384474 0.040665526 0
0.004999843 -0.22374146 0.043394141 0
0.0049998309 -0.22346221 0.046851251 0
0.0049998197 -0.22310857 0.049799509 0
0.0049998113 -0.22340497 0.052343067 0
0.0049998011 -0.22351383 0.055239696 0
0.0049997894 -0.22341077 0.05825277 0
0.0049997778 -0.2234955 0.061612532 0
0.0044306326 -0.22347677 0.064514779 0
-0.0041018226 -0.22075148 -0.064330272 0
-0.0042683356 -0.22042792 -0.061450649 0
-0.0045337314 -0.22067443 -0.058358263 0
-0.0042835772 -0.22056091 -0.055630594 0
-0.0043521025 -0.22052969 -0.052503251 0
-0.00460032 -0.22069709 -0.049754895 0
-0.004500086 -0.22051367 -0.04667744 0
-0.0045387638 -0.22010525 -0.043482758 0
-0.0049998541 -0.22039787 -0.040403873 0
-0.0049998639 -0.22016545 -0.037526567 0
-0.0049998751 -0.22039975 -0.034493729 0
-0.0049998844 -0.22057359 -0.031780206 0
-0.0049998979 -0.22066204 -0.028330414 0
-0.0049999077 -0.22037257 -0.025591357 0
-0.0049999203 -0.22058003 -0.022297688 0
-0.0049999305 -0.2204808 -0.01940327 0
-0.0049999412 -0.2206493 -0.016348617 0
-0.004999951 -0.22072138 -0.013575761 0
-0.0049999626 -0.22037126 -0.010423386 0
-0.0049999747 -0.22078045 -0.0072447918 0
-0.0049999836 -0.22044617 -0.0047795633 0
-0.0049999943 -0.22029935 -0.0017468138 0
-0.0050000064 -0.2206931 0.0015726354 0
-0.0050000157 -0.22021577 0.0043667802 0
-0.0050000278 -0.22035059 0.0075350767 0
-0.0050000371 -0.22065496 0.010136114 0
-0.0050000502 -0.22045738 0.013572923 0
-0.0050000609 -0.22024409 0.016716579 0
-0.0050000707 -0.22026582 0.019247558 0
-0.0050000814 -0.2203794 0.022547165 0
-0.005000094 -0.22068726 0.025783863 0
-0.0050001037 -0.22040132 0.028686384 0
-0.0050001154 -0.22034004 0.03169797 0
-0.005000127 -0.22048157 0.034851123 0
-0.0050001359 -0.22018531 0.037306223 0
-0.0050001461 -0.22064714 0.040295705 0
-0.004371806 -0.21999072 0.043655135 0
-0.0044086776 -0.22064392 0.046337042 0
-0.004676315 -0.22065628 0.049574297 0
-0.004482131 -0.2206036 0.052591428 0
-0.0045140898 -0.22052789 0.055514257 0
-0.004561123 -0.22068423 0.05839847 0
-0.0043501342 -0.22054189 0.061668292 0
-0.00437241 -0.22076075 0.06412866 0
-0.0014736556 -0.22067226 -0.06456878 0
-0.0016035108 -0.22020027 -0.061528366 0
-0.0013330303 -0.22020024 -0.058486298 0
-0.0012774626 -0.22020026 -0.055622108 0
-0.0014308934 -0.22020026 -0.052923199 0
-0.0014850186 -0.22020023 -0.049472004 0
-0.0013494899 -0.22019999 -0.046422001 0
-0.0015510914 -0.21947353 -0.043638729 0
-0.0013740512 -0.21952426 0.043649692 0
-0.0011261639 -0.22019987 0.04687817 0
-0.0011924594 -0.22019988 0.049722414 0
-0.0015390785 -0.22019987 0.052390654 0
-0.0014050504 -0.22019985 0.055430237 0
-0.001458102 -0.22019985 0.058592018 0
-0.0013586362 -0.22019982 0.061266065 0
-0.001341155 -0.22049673 0.064448908 0
0.0017799217 -0.22061689 -0.064650945 0
0.0011687384 -0.22020027 -0.061368052 0
0.0015473661 -0.22020026 -0.058516346 0
0.0014750549 -0.22020027 -0.055621948 0
0.0013974536 -0.22020024 -0.052843485 0
0.0013912424 -0.22020021 -0.049335051 0
0.0015228937 -0.22020021 -0.046634577 0
0.0015522925 -0.21966168 -0.044016764 0
0.0015933615 -0.21941735 0.043435786 0
0.0016376405 -0.22019987 0.046282031 0
0.0015855372 -0.22019987 0.049518541 0
0.0016658788 -0.22019987 0.052734744 0
0.0014738833 -0.22019985 0.055442829 0
0.0015040094 -0.22019984 0.058809973 0
0.0013881429 -0.22019982 0.061554987 0
0.0014108816 -0.22043292 0.064269997 0
0.0044625583 -0.22083457 -0.064404033 0
0.0044090431 -0.22054151 -0.06148909 0
0.0045159021 -0.22081511 -0.058205862 0
0.0045033419 -0.22057645 -0.055387001 0
0.0043966374 -0.22055 -0.052368924 0
0.004608368 -0.22077399 -0.049376439 0
0.0043539163 -0.22055361 -0.046205346 0
0.0045672772 -0.22021955 -0.043728095 0
0.0050001484 -0.2205746 -0.040811203 0
0.0050001363 -0.22067404 -0.037416171 0
0.0050001247 -0.2204859 -0.034561709 0
0.005000113 -0.22055589 -0.031216316 0
0.0050001042 -0.22075413 -0.02871329 0
0.0050000926 -0.22052915 -0.025484743 0
0.00500008 -0.22032382 -0.02224822 0
0.0050000707 -0.22049606 -0.019392479 0
0.0050000604 -0.22039066 -0.01661812 0
0.0050000506 -0.22029731 -0.013708507 0
0.0050000381 -0.22035229 -0.010296547 0
0.0050000283 -0.22023167 -0.0077282232 0
0.0050000176 -0.22061956 -0.0045951614 0
0.0050000059 -0.22047298 -0.0014326423 0
0.0049999957 -0.22020128 0.001439143 0
0.0049999855 -0.22061095 0.0042813076 0
0.0049999738 -0.22036712 0.0073665711 0
0.0049999622 -0.22023149 0.010623311 0
0.0049999505 -0.22031522 0.013567388 0
0.0049999403 -0.22041541 0.016491307 0
0.00499993 -0.22082447 0.019401018 0
0.0049999198 -0.22015728 0.022323571 0
0.0049999086 -0.22067028 0.025361059 0
0.0049998974 -0.22040848 0.028368434 0
0.0049998872 -0.2205414 0.031440366 0
0.0049998756 -0.22056286 0.034626525 0
0.0049998644 -0.22040422 0.03754437 0
0.0049998527 -0.22029002 0.040478341 0
0.0047219386 -0.2203429 0.043253157 0
0.0045161983 -0.2206506 0.046393938 0
0.0044960035 -0.22074161 0.049373768 0
0.0044485927 -0.22059831 0.052468747 0
0.0044082217 -0.22045748 0.055438343 0
0.00445747 -0.22057356 0.058280654 0
0.0045194062 -0.22065125 0.061512031 0
0.0042565451 -0.22077082 0.064215392 0
-0.0035957068 -0.21887551 -0.0424367 0
-0.004297805 -0.21809007 -0.04044079 0
-0.0044745943 -0.21716657 -0.037982773 0
-0.0049998751 -0.21750575 -0.034756199 0
-0.0049998858 -0.2174152 -0.031514239 0
-0.004999896 -0.21743308 -0.028750826 0
-0.0049999091 -0.21750592 -0.025412014 0
-0.0049999184 -0.21757871 -0.022599151 0
-0.00499993 -0.21737944 -0.019419599 0
-0.0049999407 -0.21748616 -0.016472196 0
-0.0049999515 -0.2174332 -0.013662679 0
-0.0049999617 -0.21768138 -0.010662639 0
-0.0049999738 -0.21766183 -0.0074209762 0
-0.0049999841 -0.21756822 -0.0044608111 0
-0.0049999952 -0.21730821 -0.0014571892 0
-0.0050000073 -0.21757883 0.0017637765 0
-0.0050000157 -0.21747218 0.0044809426 0
-0.0050000288 -0.21757284 0.0077421442 0
-0.0050000395 -0.21723233 0.0107167 0
-0.0050000492 -0.21766394 0.013480169 0
-0.0050000595 -0.21784262 0.016427305 0
-0.0050000702 -0.21759398 0.019481901 0
-0.0050000818 -0.21772659 0.022497851 0
-0.005000093 -0.21758704 0.025413761 0
-0.0050001042 -0.2176213 0.028688695 0
-0.005000113 -0.21752816 0.03116562 0
-0.005000127 -0.21763307 0.034823034 0
-0.0046792454 -0.21725169 0.037726793 0
-0.0041767615 -0.2181154 0.040559433 0
-0.0041606603 -0.21886668 0.042334422 0
-0.0011544038 -0.21884513 -0.042375613 0
-0.0015712662 -0.21793161 -0.040539391 0
-0.0012732153 -0.21665345 -0.037970442 0
-0.0015937437 -0.21660677 0.03781452 0
-0.0011519217 -0.2180485 0.040698111 0
-0.00093426084 -0.21886106 0.042323191 0
0.0022321788 -0.21877244 -0.04222947 0
0.0014877416 -0.21795744 -0.040591359 0
0.0013785831 -0.2165174 -0.037696887 0
0.0013737173 -0.21661173 0.037824538 0
0.0017181073 -0.21799286 0.040586829 0
0.0018912791 -0.21884826 0.04229762 0
0.0038855481 -0.21884587 -0.042377099 0
0.0044100019 -0.21803825 -0.040298559 0
0.0047176774 -0.21757555 -0.037615065 0
0.0050001256 -0.21792285 -0.034424167 0
0.005000114 -0.21719749 -0.031422257 0
0.0050001037 -0.21726151 -0.028594226 0
0.005000094 -0.21752855 -0.025938423 0
0.0050000823 -0.21741848 -0.022458553 0
0.0050000707 -0.21758515 -0.019462671 0
0.00500006 -0.21761671 -0.016556755 0
0.0050000497 -0.21736111 -0.013491826 0
0.0050000385 -0.21737328 -0.010569427 0
0.0050000274 -0.2175556 -0.0073423185 0
0.005000018 -0.21749304 -0.0047216043 0
0.0050000059 -0.21724476 -0.0015932677 0
0.0049999948 -0.21733743 0.0016473216 0
0.0049999836 -0.21741432 0.0047982088 0
0.0049999733 -0.21755253 0.0076171234 0
0.0049999631 -0.21734022 0.010262479 0
0.0049999519 -0.21749809 0.013557737 0
0.0049999398 -0.21755858 0.016817622 0
0.00499993 -0.21787779 0.019454733 0
0.0049999203 -0.21745057 0.022185437 0
0.0049999082 -0.21705836 0.02554144 0
0.004999897 -0.21720731 0.028549144 0
0.0049998858 -0.21734922 0.031591218 0
0.0049998742 -0.21737911 0.034521349 0
0.0046669962 -0.21769531 0.0376915 0
0.0042591491 -0.21817097 0.040377703 0
0.0043065017 -0.21882565 0.042252406 0
-0.0033846381 -0.21593206 -0.036520381 0
-0.004419114 -0.21490601 -0.034121606 0
-0.004561685 -0.21410094 -0.031718977 0
-0.0049998979 -0.21514654 -0.028228311 0
-0.0049999082 -0.21454173 -0.025625071 0
-0.0049999184 -0.21450526 -0.022359911 0
-0.0049999296 -0.21437182 -0.019497331 0
-0.0049999403 -0.21447352 -0.016642498 0
-0.0049999533 -0.21456833 -0.012826065 0
-0.0049999626 -0.21412864 -0.010457676 0
-0.0049999738 -0.21431161 -0.0075151967 0
-0.0049999831 -0.21485543 -0.0047949143 0
-0.0049999957 -0.21421249 -0.0012859398 0
-0.0050000064 -0.21477485 0.0016909413 0
-0.0050000157 -0.2145354 0.0043319529 0
-0.0050000283 -0.2142794 0.0075617936 0
-0.0050000376 -0.21454895 0.010355134 0
-0.0050000497 -0.21447323 0.01346293 0
-0.00500006 -0.21437298 0.016344503 0
-0.0050000688 -0.21442695 0.019004613 0
-0.0050000823 -0.21451573 0.02245393 0
-0.0050000916 -0.21463376 0.025257587 0
-0.0050001023 -0.21456479 0.028364927 0
-0.0047073346 -0.21393566 0.031336863 0
-0.004189733 -0.21505643 0.034513809 0
-0.0042155711 -0.21587442 0.036349885 0
-0.0011638933 -0.21580169 -0.036258366 0
-0.0013943448 -0.21484965 -0.034344755 0
-0.0014355909 -0.21362682 -0.031886902 0
-0.001212795 -0.21362984 0.031860717 0
-0.0014429217 -0.2150048 0.034610659 0
-0.0013486868 -0.21580699 0.036215041 0
0.0019227846 -0.21589971 -0.036455389 0
0.0016441919 -0.21481127 -0.034267589 0
0.0016773319 -0.2134385 -0.03150839 0
0.00162693 -0.21366379 0.031928614 0
0.0016935706 -0.21499129 0.034583621 0
0.0012922004 -0.21587096 0.036342971 0
0.0040950719 -0.21585439 -0.036364295 0
0.0042972015 -0.21502882 -0.034489881 0
0.0047891345 -0.21442981 -0.031340457 0
0.0050001042 -0.21439518 -0.028741375 0
0.0050000935 -0.21455641 -0.025705112 0
0.0050000809 -0.21453065 -0.022330821 0
0.0050000716 -0.21443374 -0.019534893 0
0.0050000595 -0.21474579 -0.016448414 0
0.0050000497 -0.21473953 -0.013550377 0
0.0050000385 -0.21428202 -0.010387966 0
0.0050000288 -0.21470258 -0.0076994393 0
0.0050000171 -0.21459784 -0.004439374 0
0.005000005 -0.21477312 -0.0015225589 0
0.0049999952 -0.2142868 0.0015619023 0
0.0049999845 -0.214762 0.0043116212 0
0.0049999733 -0.21473211 0.0073982612 0
0.0049999612 -0.21467115 0.010950102 0
0.0049999505 -0.21483678 0.013719008 0
0.0049999403 -0.21452785 0.01660802 0
0.0049999314 -0.21471506 0.018971981 0
0.0049999175 -0.21439973 0.022790954 0
0.0049999086 -0.21465838 0.025453722 0
0.004999897 -0.21483338 0.028573228 0
0.0047352081 -0.2143206 0.031194743 0
0.0043259119 -0.21505366 0.034282144 0
0.00395715 -0.21586925 0.036339533 0
-0.0042324881 -0.21283828 -0.030298758 0
-0.0043628355 -0.21213384 -0.028494006 0
-0.0042696618 -0.21087486 -0.025547726 0
-0.0046227905 -0.2110344 -0.022585833 0
-0.004713533 -0.21127364 -0.019460985 0
-0.0045202854 -0.21108699 -0.016422393 0
-0.0044488977 -0.21065208 -0.013834942 0
-0.0047015422 -0.21126354 -0.010575518 0
-0.0045590308 -0.21077818 -0.0074717053 0
-0.0045598624 -0.21073094 -0.0047597527 0
-0.0049999948 -0.21153203 -0.0015822749 0
-0.005000005 -0.21120243 0.0014015355 0
-0.0047980342 -0.21103956 0.0044143777 0
-0.0046438561 -0.21112733 0.0074362834 0
-0.0047880006 -0.21139257 0.010561582 0
-0.0046356912 -0.2110334 0.01353574 0
-0.0045732968 -0.21107525 0.016168807 0
-0.0047211912 -0.2113142 0.01940609 0
-0.0045857313 -0.21084163 0.022534844 0
-0.0044097877 -0.21111794 0.025439817 0
-0.0042552855 -0.21208587 0.028394373 0
-0.0043957825 -0.21286058 0.030322138 0
-0.0010772068 -0.21286502 -0.030355699 0
-0.0010959338 -0.21198998 -0.028596887 0
-0.0015189124 -0.21050967 -0.025388278 0
-0.0015332381 -0.21020012 -0.022469234 0
-0.001273975 -0.21020009 -0.019500412 0
-0.0013601888 -0.21020006 -0.016520727 0
-0.0016151962 -0.21020003 -0.013526376 0
-0.0012661322 -0.21020007 -0.011025885 0
-0.0012067893 -0.21020006 -0.0078429487 0
-0.0014390184 -0.21016809 -0.0054773865 0
-0.0015808217 -0.21019997 0.0056415019 0
-0.0016180238 -0.2102 0.007684269 0
-0.0014080235 -0.21019997 0.010308727 0
-0.0015939205 -0.21019992 0.013494704 0
-0.0013758448 -0.21019992 0.016173022 0
-0.0015589019 -0.21019994 0.019358221 0
-0.0014958393 -0.21019995 0.022071637 0
-0.001719642 -0.21055257 0.025576659 0
-0.0015493222 -0.21211961 0.02884018 0
-0.0015477095 -0.21276745 0.030135879 0
0.0016695084 -0.21280439 -0.030233858 0
0.0011191845 -0.21187799 -0.0283718 0
0.0013895507 -0.2105559 -0.025603985 0
0.0013344545 -0.21020009 -0.022346608 0
0.0016036438 -0.21020007 -0.019382015 0
0.0013977863 -0.21020009 -0.016236711 0
0.0016507502 -0.21020009 -0.013777291 0
0.0015070373 -0.21020006 -0.010409772 0
0.0015594034 -0.21020001 -0.0075129382 0
0.0013218506 -0.21019998 -0.0054355105 0
0.0017673988 -0.21019998 0.0055136136 0
0.0016326042 -0.21019997 0.0072447807 0
0.0012472775 -0.21019998 0.010435036 0
0.0016575503 -0.21019994 0.013259606 0
0.0018862194 -0.21019995 0.016562546 0
0.0011920444 -0.21019995 0.019560296 0
0.0017695214 -0.21019995 0.022513477 0
0.0013162425 -0.21058139 0.025605628 0
0.0013234522 -0.21210396 0.028808899 0
0.0022254221 -0.21289758 0.030396156 0
0.0036755323 -0.21278074 -0.030186316 0
0.0043520494 -0.21214753 -0.028422467 0
0.0045443219 -0.2113094 -0.025387809 0
0.0044879876 -0.21105382 -0.022266861 0
0.0048786141 -0.21123281 -0.019691424 0
0.004712583 -0.21097504 -0.016209528 0
0.004463959 -0.21111356 -0.013328498 0
0.0045475685 -0.21116069 -0.010389829 0
0.0045558191 -0.21131448 -0.0071847006 0
0.0047652777 -0.21120845 -0.0046506613 0
0.005000005 -0.21145134 -0.0013353085 0
0.0049999943 -0.21113972 0.0016303062 0
0.004791535 -0.21143022 0.0044069197 0
0.00453234 -0.21103461 0.0076158224 0
0.0044225086 -0.21079855 0.010332067 0
0.0044187335 -0.21092878 0.013582451 0
0.0044841873 -0.21073477 0.016495883 0
0.004626458 -0.21112631 0.019696802 0
0.0044796742 -0.21101846 0.022471068 0
0.0046541844 -0.2111055 0.025569767 0
0.0042894529 -0.21216676 0.028551824 0
0.0049998895 -0.21299399 0.030513868 0
-0.0046032411 -0.20858826 -0.0044124858 0
-0.0049999938 -0.20858483 -0.0015604103 0
-0.0050000055 -0.20833099 0.0014103974 0
-0.0046079 -0.20860557 0.0046581593 0
-0.0015898503 -0.20846564 -0.0049992511 0
-0.0012008542 -0.20869163 0.0050007519 0
0.0013954383 -0.20856014 -0.0049992399 0
0.0015293461 -0.20879899 0.0050007617 0
0.0044683926 -0.20826176 -0.0046133036 0
0.0050000064 -0.20847481 -0.0018713697 0
0.0049999952 -0.20829099 0.0015455473 0
0.0043942146 -0.20851436 0.0045879236 0
-0.004676125 -0.20558721 -0.0042291698 0
-0.0049999952 -0.20548782 -0.0015479891 0
-0.0050000059 -0.20541763 0.0015568226 0
-0.0044288961 -0.20568046 0.0043992093 0
-0.0015772152 -0.20551753 -0.0049992618 0
-0.0016307218 -0.20567447 0.0050007389 0
0.0015762097 -0.20536733 -0.0049992511 0
0.0012697529 -0.20562248 0.0050007487 0
0.0044690459 -0.20567249 -0.0045666643 0
0.0050000073 -0.20551854 -0.0019325622 0
0.0049999943 -0.20553263 0.0016400025 0
0.0044618268 -0.20551626 0.0045906827 0
-0.0046375631 -0.2024322 -0.0043607173 0
-0.0049999943 -0.20288248 -0.0018148914 0
-0.0050000064 -0.20248245 0.0015162765 0
-0.0046402486 -0.20257396 0.0042706165 0
-0.0014210456 -0.20248507 -0.0049992725 0
-0.00095278618 -0.20264854 0.0050007305 0
0.0016019081 -0.20258306 -0.0049992618 0
0.0015787331 -0.20260461 0.0050007389 0
0.0042591318 -0.20235726 -0.0047579464 0
0.0050000055 -0.20259333 -0.0014936599 0
0.0049999962 -0.20269372 0.0013240222 0
0.0047586267 -0.20259041 0.0041418988 0
-0.0046001887 -0.19947998 -0.0044802972 0
-0.0049999948 -0.19924632 -0.0013628756 0
-0.0050000059 -0.19948129 0.0013554282 0
-0.0046337154 -0.19957316 0.0043651713 0
-0.0014749654 -0.19947982 -0.0049992832 0
-0.0018822218 -0.19926199 0.0050007142 0
0.0017752554 -0.19937973 -0.0049992721 0
0.0015286575 -0.19966273 0.0050007291 0
0.0047445553 -0.19968008 -0.004362803 0
0.0050000059 -0.19910376 -0.001726336 0
0.0049999957 -0.19967885 0.0012914328 0
0.0044359057 -0.19960058 0.0045750462 0
-0.004481649 -0.19695307 -0.0046077883 0
-0.0049999957 -0.19634634 -0.001294281 0
-0.0050000059 -0.19651078 0.0014225048 0
-0.0045697982 -0.19640929 0.0044581485 0
-0.0017161128 -0.19646917 -0.0049992949 0
-0.0014406361 -0.19625209 0.0050007054 0
0.0014010965 -0.19643147 -0.0049992846 0
0.0017280419 -0.19646963 0.0050007179 0
0.0047060736 -0.19663833 -0.0044922815 0
0.005000005 -0.19638744 -0.0015458949 0
0.0049999952 -0.19645357 0.0014523608 0
0.0042445301 -0.19663829 0.0045997673 0
-0.0043905429 -0.19352818 -0.004639518 0
-0.0049999952 -0.19339474 -0.0014436396 0
-0.0050000055 -0.19354409 0.0013900494 0
-0.004473343 -0.19339581 0.0044839373 0
-0.0018072118 -0.19338398 -0.0049993061 0
-0.0012404196 -0.19338162 0.0050006961 0
0.0017114577 -0.19386983 -0.004999293 0
0.0011144779 -0.19380495 0.0050007068 0
0.0045817853 -0.19301628 -0.0044361618 0
0.0050000069 -0.19354033 -0.0016915781 0
0.0049999943 -0.19339682 0.0016189823 0
0.0044117165 -0.19371018 0.0045969118 0
-0.0044255424 -0.19024765 -0.0043784813 0
-0.0049999938 -0.19043477 -0.0016952776 0
-0.0050000064 -0.19049758 0.0015233501 0
-0.0047482592 -0.19043761 0.0043777889 0
-0.0013244776 -0.19076785 -0.0049993144 0
-0.0015376912 -0.19011787 0.005000683 0
0.0014908493 -0.19041844 -0.0049993061 0
0.0015298402 -0.1905683 0.0050006956 0
0.0045533758 -0.19047607 -0.0043910081 0
0.0050000064 -0.19047305 -0.0017103994 0
0.0049999952 -0.1904038 0.0014508342 0
0.0045247134 -0.19053774 0.0044421838 0
-0.0044417861 -0.18778627 -0.0046010036 0
-0.0049999957 -0.18765157 -0.0012402731 0
-0.005000005 -0.18812799 0.0013011199 0
-0.0045361514 -0.18743096 0.0047055334 0
-0.0012076984 -0.18746309 -0.0049993261 0
-0.0016059739 -0.18737066 0.0050006728 0
0.0014478477 -0.18742236 -0.0049993168 0
0.0015618219 -0.18756284 0.0050006849 0
0.004538089 -0.18722589 -0.0045298175 0
0.0050000064 -0.18735734 -0.001654329 0
0.0049999962 -0.18754356 0.001274987 0
0.0044233371 -0.18754442 0.0045289216 0
-0.0043918677 -0.18448173 -0.0044339737 0
-0.0049999957 -0.18454723 -0.0012759288 0
-0.0050000073 -0.18457758 0.001850892 0
-0.0044149347 -0.18453556 0.0046531605 0
-0.0016542203 -0.18421555 -0.0049993391 0
-0.0015190785 -0.18435092 0.0050006616 0
0.0016748444 -0.18487056 -0.0049993256 0
0.0015197968 -0.18423845 0.0050006728 0
0.0042396383 -0.18433818 -0.0047174743 0
0.0050000064 -0.18453264 -0.0017076923 0
0.0049999948 -0.18449914 0.0016938493 0
0.0044872435 -0.18417972 0.004548396 0
-0.0046911384 -0.1813667 -0.0043754177 0
-0.0049999948 -0.18173124 -0.0016012246 0
-0.0050000055 -0.18154152 0.0014554061 0
-0.0045684194 -0.18145686 0.0044590831 0
-0.0014785951 -0.1815709 -0.0049993475 0
-0.0015538498 -0.1812489 0.0050006509 0
0.0014913203 -0.18152846 -0.0049993377 0
0.0018254499 -0.18163973 0.0050006644 0
0.0044620703 -0.18162359 -0.0045056278 0
0.0050000059 -0.18172131 -0.0014333667 0
0.0049999966 -0.18176909 0.00096111634 0
0.0045030736 -0.18166524 0.0043802555 0
-0.00467323 -0.17857549 -0.0044588009 0
-0.0049999952 -0.17844211 -0.0015511401 0
-0.0050000069 -0.17844826 0.0018374824 0
-0.0045734504 -0.17850547 0.0043150391 0
-0.0013486685 -0.17865328 -0.0049993582 0
-0.0018079355 -0.17843972 0.0050006402 0
0.0015119386 -0.17856853 -0.0049993484 0
0.0015841564 -0.17855166 0.0050006527 0
0.0046080439 -0.17855763 -0.0044456399 0
0.0050000055 -0.17852141 -0.0014289025 0
0.0049999943 -0.1786385 0.0014336279 0
0.0043584886 -0.17842962 0.0046097552 0
-0.0045618168 -0.17536341 -0.0042322748 0
-0.0049999952 -0.17544957 -0.0015916753 0
-0.0050000064 -0.17535061 0.0015012819 0
-0.0046380959 -0.17542881 0.0043126945 0
-0.0018015921 -0.1753584 -0.0049993717 0
-0.0013310503 -0.17546235 0.0050006313 0
0.0014803332 -0.17552713 -0.0049993591 0
0.0014684469 -0.17545417 0.0050006411 0
0.0043908791 -0.17530301 -0.0044959821 0
0.005000005 -0.1751914 -0.0012974975 0
0.0049999948 -0.1754519 0.001720427 0
0.0044793673 -0.17535311 0.0044494653 0
-0.0044259094 -0.17275961 -0.0043595331 0
-0.0049999952 -0.17245485 -0.0013527476 0
-0.0050000055 -0.17263928 0.0015999157 0
-0.004463078 -0.17257924 0.0044457735 0
-0.0015339392 -0.17235871 -0.0049993824 0
-0.0016199537 -0.1723308 0.0050006183 0
0.0018141443 -0.17272966 -0.004999368 0
0.0015693925 -0.17270951 0.0050006309 0
0.0046833502 -0.17246196 -0.004401912 0
0.0050000055 -0.17288002 -0.0015512885 0
0.0049999943 -0.17267898 0.001656389 0
0.0046775588 -0.17243232 0.0041919244 0
-0.004484884 -0.16929518 -0.0047559189 0
-0.0049999943 -0.16955335 -0.0016713891 0
-0.0050000073 -0.16924369 0.0019234293 0
-0.004272576 -0.16925058 0.0045445315 0
-0.0013923362 -0.16998075 -0.0049993903 0
-0.0016928086 -0.16950724 0.005000608 0
0.0016834943 -0.16944119 -0.004999381 0
0.001542724 -0.16937138 0.0050006192 0
0.0044096755 -0.16986518 -0.0045414213 0
0.005000005 -0.16957197 -0.0014376452 0
0.0049999948 -0.1693904 0.001484669 0
0.0043379599 -0.16928269 0.0048654787 0
-0.0044635185 -0.16660726 -0.0045591029 0
-0.0049999957 -0.16664465 -0.0013129158 0
-0.0050000064 -0.16637959 0.00152107 0
-0.0046261894 -0.1665127 0.0043625464 0
-0.0013769998 -0.16665222 -0.004999402 0
-0.0016910511 -0.16628712 0.0050005964 0
0.0016343705 -0.1667382 -0.0049993903 0
0.0015152782 -0.16676608 0.005000609 0
0.0045572259 -0.16662736 -0.004438471 0
0.005000005 -0.16658877 -0.0012289147 0
0.0049999952 -0.1666225 0.001473311 0
0.004394135 -0.16651204 0.0045078876 0
-0.0044780248 -0.16332023 -0.0046161423 0
-0.0049999952 -0.16320005 -0.0014136276 0
-0.0050000059 -0.16356015 0.0016025507 0
-0.0044253222 -0.16335769 0.0044962144 0
-0.0015086789 -0.16363482 -0.0049994141 0
-0.0017256552 -0.16322297 0.0050005857 0
0.0014866935 -0.16326576 -0.0049994034 0
0.001539869 -0.16326869 0.0050005973 0
0.0042274538 -0.16370447 -0.0046952921 0
0.0050000078 -0.1636654 -0.0019614212 0
0.0049999952 -0.16337948 0.0014638694 0
0.0047328924 -0.16361505 0.0043339422 0
-0.004611487 -0.16068368 -0.0043760305 0
-0.0049999948 -0.16100892 -0.0016684075 0
-0.0050000064 -0.16051647 0.0017153737 0
-0.004611514 -0.16074021 0.0041866093 0
-0.0015604728 -0.16058251 -0.0049994239 0
-0.0012594206 -0.160349 0.0050005768 0
0.0015573814 -0.16022228 -0.0049994141 0
0.001687853 -0.16060047 0.0050005876 0
0.0044695055 -0.16048297 -0.0045775073 0
0.005000005 -0.16014862 -0.0015472695 0
0.0049999948 -0.16028164 0.0015943358 0
0.0042186626 -0.1604567 0.0047251708 0
-0.0044752192 -0.1575498 -0.0044353381 0
-0.0049999943 -0.15744823 -0.0017947016 0
-0.0050000064 -0.1574472 0.0015820282 0
-0.0044286861 -0.15769525 0.0044391756 0
-0.0014963747 -0.15736264 -0.0049994355 0
-0.001420727 -0.1573427 0.0050005652 0
0.0016621399 -0.1572201 -0.0049994257 0
0.0016276338 -0.15745407 0.0050005768 0
0.0043625324 -0.15742384 -0.0045805052 0
0.0050000055 -0.15770587 -0.001280486 0
0.0049999952 -0.1573384 0.0012395189 0
0.0045708371 -0.15739803 0.0044012223 0
-0.0046081082 -0.15435116 -0.0043939683 0
-0.0049999962 -0.15474719 -0.0012289436 0
-0.005000005 -0.15465264 0.0012412803 0
-0.0042445892 -0.15404452 0.0047766478 0
-0.0016876052 -0.15471844 -0.0049994467 0
-0.0016687667 -0.15445291 0.005000554 0
0.001554888 -0.15472984 -0.0049994341 0
0.0013161969 -0.15482099 0.0050005661 0
0.0043850844 -0.154541 -0.0045755575 0
0.0050000055 -0.15438324 -0.0014552082 0
0.0049999957 -0.15448765 0.00146476 0
0.0043970514 -0.15449135 0.0044618412 0
-0.0043138699 -0.15147746 -0.004520704 0
-0.0049999971 -0.15170386 -0.0010119521 0
-0.0050000059 -0.1514558 0.0014418791 0
-0.0046772864 -0.1512821 0.0043407115 0
-0.0014524357 -0.15177704 -0.0049994555 0
-0.0012037263 -0.15190385 0.0050005461 0
0.0022318782 -0.15101136 -0.0049994453 0
0.0012506915 -0.15145409 0.0050005531 0
0.0046782969 -0.15129636 -0.0042733182 0
0.0050000055 -0.15102647 -0.0013272566 0
0.0049999952 -0.1515004 0.0015318086 0
0.0047041075 -0.15179744 0.0042724572 0
-0.0044586021 -0.14859119 -0.0045184055 0
-0.0049999952 -0.14874287 -0.0015705782 0
-0.0050000055 -0.14833225 0.0014532474 0
-0.004719195 -0.14869533 0.0042386097 0
-0.0014831569 -0.14844565 -0.004999469 0
-0.0016322575 -0.14832525 0.0050005317 0
0.0015391086 -0.14842069 -0.0049994579 0
0.0015376874 -0.1486741 0.0050005442 0
0.0047094189 -0.14852075 -0.0040348875 0
0.0050000055 -0.1488912 -0.0014261078 0
0.0049999957 -0.14815632 0.0013126335 0
0.0043796245 -0.14849688 0.0045421999 0
-0.0045119454 -0.14572829 -0.0044710585 0
-0.0049999938 -0.14555396 -0.0016971515 0
-0.0050000041 -0.14580955 0.001307614 0
-0.004565455 -0.14539577 0.0044963676 0
-0.0013574529 -0.14547756 -0.0049994783 0
-0.0015576901 -0.14541763 0.005000521 0
0.0014367319 -0.14553636 -0.0049994686 0
0.0015031145 -0.14564705 0.0050005321 0
0.0045670988 -0.14549775 -0.0044681667 0
0.0050000064 -0.14565089 -0.00147955 0
0.0049999952 -0.1452668 0.0013231183 0
0.0043915426 -0.14543566 0.0045571662 0
-0.0045948667 -0.1425662 -0.0042687152 0
-0.0049999962 -0.14214399 -0.0013491636 0
-0.0050000055 -0.14224224 0.001657921 0
-0.004767355 -0.1423665 0.0043572341 0
-0.0013909881 -0.14251651 -0.0049994895 0
-0.0013039929 -0.14255701 0.0050005112 0
0.0016493463 -0.14247528 -0.0049994788 0
0.0016956277 -0.14241126 0.0050005224 0
0.0046739564 -0.14280654 -0.0044293557 0
0.0050000059 -0.14255777 -0.0014548023 0
0.0049999929 -0.14264271 0.0017386093 0
0.0043452499 -0.14220752 0.0046129404 0
-0.0047190948 -0.13934129 -0.0043371432 0
-0.0049999952 -0.13959132 -0.001433134 0
-0.0050000064 -0.13947728 0.0015730389 0
-0.0046565626 -0.13954122 0.0043539652 0
-0.0017574187 -0.13930917 -0.0049995026 0
-0.0013895434 -0.13928592 0.0050004995 0
0.0013800542 -0.13931613 -0.0049994914 0
0.0015840001 -0.1396426 0.0050005121 0
0.0044077868 -0.13932972 -0.0047370177 0
0.0050000073 -0.13933845 -0.0019489049 0
0.0049999943 -0.13926488 0.0014228608 0
0.004257095 -0.13929573 0.0046569095 0
-0.0045741517 -0.13675588 -0.0046802396 0
-0.0049999938 -0.13667515 -0.0015059143 0
-0.0050000055 -0.13629657 0.0012590882 0
-0.0047193202 -0.13655552 0.0045243795 0
-0.0012277775 -0.13608921 -0.0049995128 0
-0.0015445824 -0.13627309 0.0050004884 0
0.001176203 -0.1366757 -0.0049995012 0
0.0014563883 -0.1361265 0.0050004981 0
0.0046050446 -0.13653395 -0.0045252522 0
0.0050000045 -0.13659053 -0.0012575476 0
0.0049999962 -0.13681886 0.0011672243 0
0.0047360309 -0.13677563 0.0044775871 0
-0.004537011 -0.13353203 -0.004359948 0
-0.0049999962 -0.13317148 -0.001337441 0
-0.0050000069 -0.13376427 0.0017773706 0
-0.0043834196 -0.13361247 0.00447674 0
-0.0016314414 -0.13360126 -0.0049995231 0
-0.0018259586 -0.13344462 0.0050004758 0
0.0013846802 -0.13335866 -0.0049995128 0
0.0011977401 -0.13335237 0.0050004879 0
0.0045101331 -0.13349192 -0.0045439084 0
0.0050000055 -0.13360503 -0.0013131092 0
0.0049999948 -0.13339084 0.0016359842 0
0.0045091086 -0.13326752 0.0043978649 0
-0.0046032947 -0.13055378 -0.0044285506 0
-0.0049999943 -0.13066518 -0.0015299283 0
-0.0050000055 -0.13077618 0.0014617705 0
-0.0047222716 -0.13047276 0.0044707339 0
-0.0015689407 -0.1300094 -0.0049995342 0
-0.0014667854 -0.13069643 0.0050004688 0
0.0015571942 -0.13071688 -0.0049995221 0
0.0015345359 -0.13068496 0.0050004795 0
0.0046250029 -0.13049038 -0.0042703017 0
0.005000005 -0.1304372 -0.0012698009 0
0.0049999948 -0.13075672 0.0015396303 0
0.0045034001 -0.13060489 0.00449637 0
-0.00449774 -0.12743941 -0.0046166745 0
-0.0049999952 -0.12746094 -0.0013648149 0
-0.0050000059 -0.12744506 0.0015084796 0
-0.0040476713 -0.12747772 0.0045697009 0
-0.0014328376 -0.12719005 -0.0049995449 0
-0.0015702804 -0.1270245 0.0050004544 0
0.0010903289 -0.12761122 -0.0049995347 0
0.0016119701 -0.12753114 0.0050004679 0
0.0047306614 -0.12739028 -0.0043394468 0
0.0050000064 -0.12724501 -0.0015450954 0
0.0049999952 -0.1276563 0.0014044526 0
0.004494736 -0.12726322 0.0044861147 0
-0.0045191273 -0.12431467 -0.004448521 0
-0.0049999948 -0.12471282 -0.0016357882 0
-0.0050000055 -0.12463618 0.0013567322 0
-0.0044175838 -0.12442718 0.0044837915 0
-0.0013398139 -0.12465269 -0.0049995543 0
-0.0013193865 -0.12461513 0.0050004465 0
0.0014770271 -0.12448241 -0.0049995449 0
0.0017399855 -0.12442297 0.0050004562 0
0.0045651761 -0.12430078 -0.0044499575 0
0.0050000055 -0.12464445 -0.001422897 0
0.0049999966 -0.12437667 0.0011981387 0
0.0044847317 -0.12484639 0.0046275565 0
-0.0045481692 -0.12125211 -0.0044302456 0
-0.0049999943 -0.12143502 -0.0015195607 0
-0.0050000055 -0.12181176 0.001415405 0
-0.0043587498 -0.12163919 0.0047513125 0
-0.0014170733 -0.12147869 -0.0049995654 0
-0.0017560822 -0.12131595 0.0050004325 0
0.0012584124 -0.12179617 -0.0049995543 0
0.0015736651 -0.12140819 0.0050004455 0
0.0045068469 -0.12118445 -0.0043905163 0
0.0050000059 -0.12140658 -0.0016972275 0
0.0049999952 -0.12151656 0.0013311955 0
0.0044276668 -0.12138995 0.0045810556 0
-0.0043653767 -0.11866681 -0.0044936696 0
-0.0049999952 -0.11876884 -0.0015973453 0
-0.005000005 -0.11837668 0.0013944715 0
-0.0042807562 -0.11839195 0.0045672362 0
-0.0015239815 -0.1186462 -0.0049995771 0
-0.001231742 -0.11825362 0.0050004241 0
0.0012645284 -0.11868346 -0.0049995659 0
0.0017259611 -0.11844502 0.0050004357 0
0.0044780881 -0.11834259 -0.0045235087 0
0.005000005 -0.11851439 -0.0013390975 0
0.0049999938 -0.11855306 0.0016212593 0
0.0044596931 -0.118636 0.0045294361 0
-0.0044318712 -0.11518096 -0.0044677211 0
-0.0049999948 -0.11567724 -0.0016045028 0
-0.0050000059 -0.11563835 0.0017849262 0
-0.0043377215 -0.11545795 0.0045397012 0
-0.0016336181 -0.11535916 -0.0049995882 0
-0.0014824079 -0.11530626 0.0050004125 0
0.0013875207 -0.11590315 -0.0049995757 0
0.00101607 -0.11556744 0.0050004218 0
0.0044864104 -0.11567778 -0.0044454061 0
0.0050000055 -0.11543073 -0.0014069584 0
0.0049999938 -0.11541528 0.0016519979 0
0.0044397139 -0.1156735 0.0047023022 0
-0.0045172018 -0.11234424 -0.0045515741 0
-0.0049999943 -0.11265869 -0.0015340919 0
-0.0050000045 -0.1127062 0.0010554774 0
-0.0044804057 -0.11214179 0.0045490703 0
-0.0014317794 -0.11243106 -0.004999599 0
-0.0015735604 -0.11208238 0.0050004004 0
0.0012961261 -0.11251611 -0.0049995887 0
0.0016406513 -0.11260989 0.0050004134 0
0.0046543377 -0.11224505 -0.0043824804 0
0.0050000055 -0.11266464 -0.0015392364 0
0.0049999948 -0.11258851 0.0018314854 0
0.0044454951 -0.11255285 0.0045810486 0
-0.0041796742 -0.10945466 -0.0048324782 0
-0.0049999952 -0.10940722 -0.0013769328 0
-0.0050000069 -0.10934135 0.0017569971 0
-0.0045241006 -0.10929233 0.004571537 0
-0.0012703538 -0.10970497 -0.0049996078 0
-0.0014762905 -0.10891631 0.0050003892 0
0.0015001036 -0.10957687 -0.004999598 0
0.0012990544 -0.10938188 0.0050004008 0
0.0045723123 -0.10944471 -0.0042617097 0
0.0050000069 -0.10969631 -0.0017060013 0
0.0049999948 -0.10940756 0.0016997663 0
0.0046544331 -0.10948229 0.0046204724 0
-0.0045222044 -0.10678173 -0.0045066634 0
-0.0049999948 -0.10642432 -0.0015941929 0
-0.0050000064 -0.10654218 0.0016919282 0
-0.0043608965 -0.10641719 0.0046461564 0
-0.0016885856 -0.10689875 -0.0049996199 0
-0.0016800895 -0.10622507 0.0050003794 0
0.0013185312 -0.10631354 -0.0049996106 0
0.0014312589 -0.10638609 0.0050003906 0
0.0045385305 -0.10651934 -0.0045457496 0
0.0050000055 -0.10666022 -0.0014417097 0
0.0049999957 -0.10677379 0.0012259561 0
0.0046987156 -0.10650314 0.0042315586 0
-0.0045709908 -0.10347808 -0.0044366969 0
-0.0049999952 -0.10327483 -0.001548633 0
-0.0050000055 -0.10363131 0.0013241709 0
-0.00470783 -0.10350253 0.0046072914 0
-0.0011189807 -0.10363878 -0.0049996288 0
-0.0017124929 -0.10369329 0.0050003701 0
0.001674146 -0.10342021 -0.0049996199 0
0.0016594504 -0.10387538 0.0050003827 0
0.0045293136 -0.10361862 -0.004503421 0
0.0050000059 -0.10383924 -0.0016061299 0
0.0049999952 -0.10341545 0.0014137883 0
0.0043937336 -0.10379445 0.0046783276 0
-0.004479934 -0.10045716 -0.0044730571 0
-0.0049999952 -0.10073604 -0.001457787 0
-0.0050000041 -0.10051271 0.0010176854 0
-0.0045901309 -0.10032584 0.0046159592 0
-0.0014697146 -0.10027464 -0.0049996413 0
-0.0014220875 -0.10051829 0.0050003584 0
0.0011203871 -0.10042716 -0.0049996329 0
0.0016986275 -0.10027511 0.0050003701 0
0.0043962668 -0.10023685 -0.0045182421 0
0.0050000059 -0.10066067 -0.0016283143 0
0.0049999957 -0.10038899 0.001260784 0
0.0045086201 -0.10060175 0.0043882895 0
-0.0045640515 -0.097418934 -0.004514135 0
-0.0049999952 -0.097284101 -0.0015531536 0
-0.0050000055 -0.097631373 0.0014256764 0
-0.0047676521 -0.097546749 0.0044731363 0
-0.0017626587 -0.097517177 -0.0049996534 0
-0.0016644121 -0.097773813 0.0050003487 0
0.0014587749 -0.09749189 -0.0049996423 0
0.0015343955 -0.097595058 0.0050003598 0
0.0045430446 -0.097772844 -0.0044736206 0
0.0050000059 -0.097134203 -0.0014588526 0
0.0049999929 -0.097609818 0.0016880071 0
0.0047387355 -0.097583607 0.0045172209 0
-0.0045471215 -0.094465144 -0.0045089182 0
-0.0049999948 -0.094219245 -0.0016258376 0
-0.005000005 -0.094441086 0.0012264292 0
-0.0044291113 -0.09470281 0.0044241329 0
-0.0015071211 -0.094571784 -0.0049996637 0
-0.0012705377 -0.094835922 0.0050003389 0
0.0013508612 -0.094491929 -0.0049996534 0
0.0011738577 -0.094540782 0.0050003463 0
0.0045217448 -0.094714068 -0.004489969 0
0.0050000036 -0.094261631 -0.001166617 0
0.0049999929 -0.094333149 0.0018962499 0
0.0046730088 -0.094550259 0.0042195534 0
-0.0042560082 -0.0917686 -0.0046410253 0
-0.0049999938 -0.091547772 -0.0017392481 0
-0.005000005 -0.091746904 0.0012427862 0
-0.0047309143 -0.091120191 0.0043788771 0
-0.001544014 -0.091402255 -0.0049996749 0
-0.0016394197 -0.091302387 0.0050003245 0
0.0014794362 -0.091385044 -0.0049996637 0
0.001774639 -0.091375872 0.0050003375 0
0.0044325008 -0.091533311 -0.0044332733 0
0.0050000055 -0.091389775 -0.0014310713 0
0.0049999943 -0.091299511 0.0017017665 0
0.004527756 -0.091369435 0.0045520728 0
-0.0045060553 -0.088708714 -0.004630202 0
-0.0049999957 -0.088663496 -0.0010663896 0
-0.005000005 -0.088367447 0.0014307472 0
-0.0045335754 -0.088747539 0.0046174615 0
-0.0016300962 -0.088501401 -0.0049996856 0
-0.0015411287 -0.08819782 0.0050003137 0
0.0013722637 -0.088341787 -0.0049996753 0
0.0015348941 -0.088925965 0.0050003277 0
0.0046315421 -0.088563092 -0.0043404247 0
0.005000005 -0.088915616 -0.0012950167 0
0.0049999952 -0.088709868 0.0014492855 0
0.004553346 -0.0885254 0.0044294382 0
-0.0046505686 -0.085533157 -0.0044072676 0
-0.0049999948 -0.085621968 -0.0013562541 0
-0.0050000059 -0.085326836 0.0013838483 0
-0.004140907 -0.085674323 0.0045548379 0
-0.0014371075 -0.085578896 -0.0049996949 0
-0.0013332877 -0.085644461 0.0050003054 0
0.0014031954 -0.085398294 -0.0049996856 0
0.0014878173 -0.085457467 0.0050003147 0
0.0045866636 -0.085401639 -0.0044970927 0
0.0050000055 -0.085329115 -0.0015651122 0
0.0049999957 -0.085270174 0.0014449068 0
0.0046842224 -0.085218832 0.0044918335 0
-0.0045011141 -0.082567319 -0.0045434968 0
-0.0049999952 -0.082690358 -0.0015238961 0
-0.005000005 -0.082419999 0.0013589909 0
-0.0045655416 -0.082585625 0.0045357146 0
-0.0015626458 -0.082428314 -0.0049997079 0
-0.0014384049 -0.08236932 0.0050002933 0
0.0012135436 -0.082540087 -0.0049996977 0
0.0014286091 -0.082433462 0.0050003044 0
0.0046648527 -0.082469329 -0.0044176844 0
0.0050000069 -0.082427122 -0.0019218455 0
0.0049999948 -0.082656533 0.0015997704 0
0.0044344347 -0.082445264 0.0046196752 0
-0.0048104152 -0.079604134 -0.0043659415 0
-0.0049999948 -0.079266429 -0.0012787574 0
-0.005000005 -0.079169467 0.0015705882 0
-0.0046150293 -0.079586022 0.0044604046 0
-0.001610774 -0.079342864 -0.0049997186 0
-0.0018769779 -0.079727575 0.0050002821 0
0.0016197858 -0.079437688 -0.004999707 0
0.0015587389 -0.079595409 0.0050002942 0
0.0045664455 -0.079507701 -0.0043754582 0
0.0050000059 -0.079250515 -0.0016515645 0
0.0049999943 -0.079447255 0.0015061789 0
0.0044128215 -0.079355888 0.0045307553 0
-0.0044233087 -0.076383002 -0.0045196437 0
-0.0049999938 -0.076528147 -0.0017491982 0
-0.0050000069 -0.076686062 0.0016428495 0
-0.0042648301 -0.076312728 0.0047430228 0
-0.0016278551 -0.076557972 -0.0049997289 0
-0.0015260812 -0.076610714 0.0050002728 0
0.0016828722 -0.076529361 -0.0049997172 0
0.0016284164 -0.076392896 0.005000283 0
0.0046676733 -0.07664983 -0.0041131866 0
0.0050000059 -0.076525159 -0.0015591998 0
0.0049999948 -0.076348454 0.0014825125 0
0.0044759251 -0.076568425 0.0045227236 0
-0.0043927724 -0.073498644 -0.0045682197 0
-0.0049999952 -0.073528513 -0.0013468914 0
-0.0050000059 -0.073618002 0.0014094724 0
-0.0045400774 -0.073152393 0.0045727342 0
-0.0013042428 -0.073689975 -0.0049997382 0
-0.0015276518 -0.073694713 0.0050002621 0
0.0016651701 -0.073373824 -0.0049997289 0
0.001414288 -0.073642537 0.0050002718 0
0.0044548572 -0.073539943 -0.0047041303 0
0.0050000064 -0.073217452 -0.0014970624 0
0.0049999957 -0.073636986 0.0012775256 0
0.0045359926 -0.073673651 0.0045182738 0
-0.012296893 -0.069415011 -0.012399795 0
-0.012365952 -0.069580086 -0.010602247 0
-0.01235522 -0.069536492 -0.0074317344 0
-0.012342899 -0.069559254 -0.0037672776 0
-0.012355024 -0.069699883 -0.0022727957 0
-0.012330834 -0.069489636 0.0016605363 0
-0.012299727 -0.06964843 0.0050744754 0
-0.012295832 -0.069833316 0.007211389 0
-0.012215308 -0.06990502 0.01058227 0
-0.010260366 -0.069813728 -0.012310094 0
-0.010541832 -0.070000038 -0.010500373 0
-0.010662404 -0.070000052 -0.0075255125 0
-0.010440251 -0.070000015 -0.004241698 0
-0.010066207 -0.070000015 -0.0013417404 0
-0.010521118 -0.070000008 0.0013496614 0
-0.01046786 -0.069999985 0.0047365422 0
-0.010599838 -0.069999978 0.0073019052 0
-0.010642516 -0.069999963 0.010701416 0
-0.010563206 -0.069457717 0.012373678 0
-0.0076043298 -0.069711827 -0.012362296 0
-0.0077756015 -0.070000038 -0.0108468 0
-0.0075187823 -0.070000045 -0.007639322 0
-0.0076216264 -0.07000003 -0.0047784252 0
-0.0070401533 -0.070000008 -0.0012764379 0
-0.0072201141 -0.070000008 0.0015608743 0
-0.0074815745 -0.07 0.0044650771 0
-0.0073475852 -0.069999985 0.0075944099 0
-0.0073746229 -0.069999963 0.010387396 0
-0.0079727434 -0.069574989 0.012373466 0
-0.0043660575 -0.069533564 -0.012397123 0
-0.0044984804 -0.070000052 -0.010683791 0
-0.0047279145 -0.070000052 -0.0074197869 0
-0.0045370883 -0.070595704 -0.0045909313 0
-0.005173767 -0.070717752 -0.0014756109 0
-0.0052635362 -0.070467174 0.0015676268 0
-0.0045211925 -0.070592403 0.0045052888 0
-0.0046153483 -0.069999993 0.0074246493 0
-0.0045758779 -0.069999978 0.010493467 0
-0.0045231422 -0.069538943 0.012384617 0
-0.0014352803 -0.069492608 -0.012348021 0
-0.0017395294 -0.070000052 -0.010383414 0
-0.0013391188 -0.070000045 -0.0072254618 0
-0.001453246 -0.070456676 -0.0052124811 0
-0.0015445842 -0.070665658 0.0051388028 0
-0.0018289721 -0.069999985 0.0075390805 0
-0.001575414 -0.069999978 0.010426155 0
-0.0018943736 -0.069715641 0.012291007 0
0.0019221164 -0.069557473 -0.012369343 0
0.0011985876 -0.070000052 -0.01034344 0
0.0015220189 -0.070000052 -0.0074465978 0
0.0015731922 -0.070948005 -0.0050628614 0
0.0015930372 -0.070722885 0.0052413326 0
0.0016662001 -0.069999993 0.0071873991 0
0.0014774064 -0.069999978 0.010500642 0
0.0015991902 -0.069567278 0.012341283 0
0.004295913 -0.069629453 -0.012372836 0
0.0045844116 -0.070000052 -0.010624716 0
0.0043690098 -0.070000038 -0.0076920413 0
0.0045374967 -0.070795439 -0.0045709112 0
0.0052444628 -0.070586815 -0.0013036896 0
0.0051824828 -0.070533589 0.0012945725 0
0.0047048158 -0.07056766 0.0044160085 0
0.0044739451 -0.069999993 0.0071303654 0
0.0045428891 -0.06999997 0.010327225 0
0.0047744857 -0.069735669 0.012348359 0
0.0069939448 -0.069741942 -0.012348482 0
0.0075176987 -0.070000045 -0.010625319 0
0.0070379861 -0.07000003 -0.0077156238 0
0.007446039 -0.07000003 -0.004575762 0
0.007797855 -0.070000023 -0.0015744854 0
0.007734362 -0.07 0.0011631567 0
0.0072898706 -0.07 0.004564771 0
0.0073331431 -0.069999993 0.0075041032 0
0.0074979775 -0.069999978 0.010449551 0
0.0073804297 -0.069467962 0.012390716 0
0.010482392 -0.06966313 -0.012258773 0
0.010304986 -0.070000052 -0.010811466 0
0.010170999 -0.070000038 -0.0076246788 0
0.010816094 -0.07000003 -0.0044817529 0
0.010450514 -0.070000023 -0.0014054702 0
0.01042175 -0.070000008 0.0016024072 0
0.01033436 -0.07 0.0043417239 0
0.010012024 -0.06999997 0.0075936993 0
0.010536083 -0.069999978 0.01055542 0
0.010269678 -0.069589451 0.01231835 0
0.012400045 -0.069642715 -0.012311163 0
0.012330408 -0.069687098 -0.010634519 0
0.0123203 -0.069734953 -0.0078412788 0
0.012355907 -0.069645919 -0.0049642487 0
0.012281341 -0.069887929 -0.0012367778 0
0.012343237 -0.069556788 0.0019818861 0
0.0123003 -0.069645733 0.0045343656 0
0.01235658 -0.069554634 0.0079841316 0
0.012343228 -0.069764204 0.010294496 0
0.012032514 -0.069711968 0.012400297 0
-0.012337497 -0.067269929 -0.012256793 0
-0.012399962 -0.06750264 -0.010645392 0
-0.012399974 -0.067505337 -0.0074421852 0
-0.012399985 -0.067649484 -0.0044145761 0
-0.012399995 -0.067565463 -0.0016686197 0
-0.012400006 -0.067760609 0.0016057497 0
-0.012400016 -0.067376599 0.0042511337 0
-0.012400028 -0.067245796 0.0075326203 0
-0.012400038 -0.06744612 0.010363814 0
-0.012389208 -0.067312531 0.012219481 0
-0.010460991 -0.067413993 -0.012399795 0
-0.010238192 -0.067567959 0.012400209 0
-0.0076266718 -0.067278519 -0.012399784 0
-0.0072886227 -0.067330055 0.012400219 0
-0.0048817727 -0.067299269 -0.012399773 0
-0.0046901577 -0.067364849 0.012400229 0
-0.0015217456 -0.067667648 -0.012399761 0
-0.0015432241 -0.067427665 0.01240024 0
0.0015130189 -0.067433521 -0.012399751 0
0.001414327 -0.067513563 0.012400249 0
0.0043616537 -0.067609295 -0.012399741 0
0.0047309813 -0.067222483 0.01240026 0
0.0073653385 -0.067616545 -0.012399729 0
0.0073666167 -0.067371108 0.012400271 0
0.010404448 -0.067619294 -0.012399718 0
0.010272494 -0.067682765 0.012400283 0
0.012296229 -0.067526579 -0.012192659 0
0.012400039 -0.067492381 -0.010727951 0
0.012400027 -0.067441337 -0.0074608321 0
0.012400018 -0.067631021 -0.0048773 0
0.012400006 -0.067009531 -0.001457107 0
0.012399995 -0.067606732 0.0014582312 0
0.012399986 -0.067592271 0.0043365825 0
0.012399973 -0.06712012 0.0076370207 0
0.012399962 -0.067340195 0.010323111 0
0.012274341 -0.067427099 0.012258735 0
-0.012354111 -0.064238399 -0.012258483 0
-0.012399962 -0.064496897 -0.010462475 0
-0.012399975 -0.064418018 -0.0070233541 0
-0.012399985 -0.064256154 -0.0046482603 0
-0.012399996 -0.064461745 -0.0014981386 0
-0.012400007 -0.064431824 0.0018545501 0
-0.012400016 -0.064600565 0.0043762363 0
-0.012400029 -0.06425944 0.0076630735 0
-0.012400038 -0.064441651 0.010097788 0
-0.012015792 -0.063657179 0.012400188 0
-0.01035018 -0.06484928 -0.012399804 0
-0.010682983 -0.064581014 0.012400197 0
-0.0074466341 -0.064594314 -0.012399795 0
-0.0074957008 -0.064323902 0.012400206 0
-0.0044603581 -0.064457856 -0.012399783 0
-0.004141795 -0.064207114 0.012400218 0
-0.0013499066 -0.064427778 -0.012399773 0
-0.0014751506 -0.064421095 0.012400228 0
0.0015578837 -0.064598776 -0.012399762 0
0.0013729108 -0.06463214 0.01240024 0
0.0046617985 -0.064255297 -0.012399751 0
0.0043451944 -0.064087577 0.012400249 0
0.0072161681 -0.064445928 -0.012399742 0
0.0075494777 -0.064623699 0.012400261 0
