# .PCD v0.7 - Point Cloud Data file format
VERSION 0.7
FIELDS x y z rgb
SIZE 4 4 4 4
TYPE F F F F
COUNT 1 1 1 1
WIDTH 1235
HEIGHT 1
VIEWPOINT 0 0 0 1 0 0 0
POINTS 1235
DATA ascii
0.01500011 -0.23844719 -0.031305596 0
0.0150001 -0.23832269 -0.028678281 0
0.01605322 -0.23888989 -0.025192961 0
0.01652419 -0.24000002 -0.022644043 0
0.016557656 -0.23999999 -0.019506441 0
0.01663113 -0.23924835 -0.015770487 0
0.015000046 -0.23839132 -0.013473021 0
0.015000031 -0.23866674 -0.010433553 0
0.015000021 -0.23864534 -0.0074634026 0
0.016262466 -0.23898727 -0.0048010461 0
0.01640158 -0.23999988 -0.001595829 0
0.016670173 -0.23999994 0.0017945392 0
0.016053293 -0.23894219 0.0047606193 0
0.014999969 -0.23866124 0.0075222263 0
0.014999955 -0.23877572 0.010628583 0
0.015107008 -0.23857859 0.013593161 0
0.016310249 -0.23925096 0.015678983 0
0.016739905 -0.23999982 0.01954677 0
0.016682662 -0.23999988 0.022305788 0
0.016130753 -0.23879832 0.025237657 0
0.014999893 -0.23863235 0.028195882 0
0.014999881 -0.23862267 0.031384259 0
0.016260026 -0.2388325 0.034740724 0
0.01622919 -0.23999976 0.0372684 0
0.016419899 -0.23999986 0.040238246 0
0.016655179 -0.23999976 0.043418441 0
0.016468367 -0.23870489 0.045000911 0
0.019460341 -0.23867117 -0.04509617 0
0.019459188 -0.24000014 -0.043739494 0
0.019392673 -0.2400001 -0.040444952 0
0.019716371 -0.24000005 -0.03736946 0
0.01936372 -0.23908132 -0.035182182 0
0.019381518 -0.23880166 -0.0249341 0
0.019423759 -0.23999996 -0.022362422 0
0.019483518 -0.24000001 -0.019474268 0
0.019576861 -0.23909381 -0.015734313 0
0.01962126 -0.23921783 -0.0045648743 0
0.019769546 -0.23999992 -0.0016203641 0
0.019296825 -0.23999999 0.001575607 0
0.019428872 -0.23903818 0.0046838983 0
0.0197581 -0.23784474 0.015000931 0
0.019490896 -0.23952557 0.015740814 0
0.019763367 -0.23999989 0.019560076 0
0.019359864 -0.23999982 0.022845615 0
0.019490238 -0.23871237 0.024932213 0
0.019638939 -0.23866996 0.035097241 0
0.019532118 -0.23999976 0.037347864 0
0.019527765 -0.23999979 0.040618386 0
0.019442625 -0.2399998 0.043490015 0
0.019506516 -0.23877324 0.045000926 0
0.022471054 -0.23862036 -0.045099039 0
0.022626167 -0.24000013 -0.043412142 0
0.022776544 -0.2400001 -0.040459655 0
0.022170825 -0.24000007 -0.037499812 0
0.022487005 -0.23880273 -0.035146706 0
0.022684613 -0.23856181 -0.024966091 0
0.022413984 -0.23999999 -0.022464909 0
0.022421343 -0.23999996 -0.019501572 0
0.022424113 -0.23904324 -0.015922442 0
0.022648538 -0.2390648 -0.0046451227 0
0.022358513 -0.23999994 -0.0015056264 0
0.02229429 -0.23999994 0.0015196457 0
0.022449424 -0.23891182 0.004638419 0
0.022775648 -0.23834318 0.015000945 0
0.022610083 -0.23926029 0.015645599 0
0.022531888 -0.23999988 0.019596625 0
0.022403747 -0.23999982 0.022598093 0
0.022532891 -0.23898657 0.024889143 0
0.022650365 -0.23864779 0.035073638 0
0.022532187 -0.23999976 0.037318461 0
0.022681437 -0.23999977 0.040397573 0
0.02247276 -0.23999979 0.043276962 0
0.022348188 -0.23852479 0.045000937 0
0.025488365 -0.2386847 -0.045092504 0
0.025570013 -0.2400001 -0.043702092 0
0.025289828 -0.24000007 -0.040140279 0
0.025475623 -0.24000002 -0.037631333 0
0.025529295 -0.23883243 -0.035214942 0
0.025668381 -0.23895904 -0.024912661 0
0.025854681 -0.24000001 -0.022394653 0
0.025666134 -0.23999999 -0.019589817 0
0.025593877 -0.23933439 -0.015905526 0
0.025408512 -0.23853055 -0.0049523409 0
0.025424089 -0.23999994 -0.0014055523 0
0.025459709 -0.23999992 0.001837021 0
0.02553205 -0.23919871 0.0045715836 0
0.025415575 -0.23825632 0.015000953 0
0.025385628 -0.23903722 0.015523097 0
0.025684005 -0.23999985 0.019508202 0
0.025312636 -0.23999983 0.022637948 0
0.025450883 -0.23865475 0.024927415 0
0.025562858 -0.23908259 0.035178408 0
0.025510758 -0.2399998 0.037827484 0
0.025505835 -0.23999979 0.040376294 0
0.02551054 -0.2399998 0.04383003 0
0.025515541 -0.23826101 0.045000948 0
0.028287984 -0.23873465 -0.045096751 0
0.028362755 -0.2400001 -0.043718189 0
0.02871719 -0.24000007 -0.040524043 0
0.028857585 -0.24000008 -0.037970494 0
0.028143005 -0.23879521 -0.035194017 0
0.028695978 -0.23884706 -0.024997387 0
0.02867531 -0.23999999 -0.022314057 0
0.028242199 -0.24000005 -0.019701051 0
0.028329019 -0.23912832 -0.015670596 0
0.028423846 -0.23889908 -0.0047152019 0
0.02853772 -0.23999996 -0.0013687373 0
0.028602252 -0.23999999 0.0016777507 0
0.028543953 -0.23881087 0.0047613983 0
0.02862558 -0.23840545 0.015000966 0
0.028533604 -0.2394125 0.015622871 0
0.028321354 -0.23999986 0.019355053 0
0.028307332 -0.23999992 0.022464104 0
0.02845327 -0.23918158 0.024831194 0
0.028629109 -0.23876309 0.035096895 0
0.028898429 -0.2399998 0.037340026 0
0.028277755 -0.23999983 0.040451713 0
0.028376993 -0.23999982 0.043428529 0
0.028262889 -0.23858564 0.045000955 0
0.031538095 -0.23854099 -0.045098789 0
0.031567439 -0.24000017 -0.043625709 0
0.031211903 -0.24000013 -0.04002168 0
0.031473972 -0.24000005 -0.037502524 0
0.031348847 -0.23881084 -0.035184093 0
0.03140904 -0.23901358 -0.024986131 0
0.031656373 -0.24000007 -0.022563323 0
0.031578217 -0.23999999 -0.019461093 0
0.031560317 -0.23913085 -0.0156614 0
0.031568769 -0.23903906 -0.0045215022 0
0.031647999 -0.23999989 -0.0014401836 0
0.031349745 -0.23999992 0.001413584 0
0.031499166 -0.23925604 0.0045845751 0
0.031366229 -0.23835447 0.015000976 0
0.031610876 -0.23933311 0.015672535 0
0.031412888 -0.23999983 0.019456949 0
0.031621687 -0.23999983 0.022400212 0
0.031425729 -0.23883826 0.024911966 0
0.031687979 -0.23885009 0.035116136 0
0.031617574 -0.23999982 0.037522182 0
0.03162504 -0.23999974 0.040579256 0
0.031430546 -0.2399998 0.043609958 0
0.031458367 -0.23850517 0.045000989 0
0.034451254 -0.2386058 -0.045098994 0
0.034504514 -0.24000008 -0.043791305 0
0.033935707 -0.24000008 -0.040603943 0
0.034518741 -0.24000002 -0.037452094 0
0.034383155 -0.23844929 -0.035127908 0
0.034454994 -0.23897693 -0.025029318 0
0.034380883 -0.24000002 -0.022888174 0
0.034735359 -0.23999999 -0.0196671 0
0.034307081 -0.23906443 -0.015597768 0
0.034463231 -0.23908517 -0.0045714518 0
0.034309424 -0.23999994 -0.0012402789 0
0.034641597 -0.23999998 0.0014901994 0
0.034405105 -0.23892806 0.0047614132 0
0.034538534 -0.23857401 0.015000988 0
0.03450137 -0.23934944 0.015784038 0
0.03441149 -0.23999986 0.01951394 0
0.034313053 -0.23999986 0.022417929 0
0.034356747 -0.23876518 0.024922557 0
0.034559079 -0.23861416 0.035063259 0
0.034617316 -0.23999983 0.037537862 0
0.034438759 -0.23999977 0.040284213 0
0.034632728 -0.23999983 0.043336716 0
0.034553457 -0.23851517 0.045000985 0
0.037386611 -0.23868431 -0.045098986 0
0.037848722 -0.24000016 -0.043742083 0
0.037551425 -0.24000016 -0.04020045 0
0.037328705 -0.24000007 -0.037275996 0
0.037543017 -0.23893909 -0.035151761 0
0.037326362 -0.23877043 -0.024993218 0
0.037840132 -0.24000001 -0.022358593 0
0.037414808 -0.24000001 -0.019734044 0
0.037414066 -0.23916276 -0.015660331 0
0.037547179 -0.23877507 -0.0047555617 0
0.037509218 -0.23999994 -0.0017850576 0
0.037514873 -0.23999992 0.0014786485 0
0.037626799 -0.23914808 0.0044803843 0
0.037847269 -0.23834696 0.015000999 0
0.037412938 -0.23921119 0.01561654 0
0.037313815 -0.23999986 0.01962084 0
0.03733974 -0.23999985 0.022602672 0
0.037343629 -0.23862556 0.024943553 0
0.037517577 -0.2387713 0.03508414 0
0.037654255 -0.23999977 0.037566662 0
0.037595622 -0.23999983 0.040397286 0
0.037522539 -0.23999973 0.043370944 0
0.037437934 -0.23843935 0.045000989 0
0.040422585 -0.23833267 -0.045098972 0
0.040286228 -0.24000017 -0.043649759 0
0.040588018 -0.24000004 -0.040536493 0
0.040145189 -0.24000011 -0.037617333 0
0.040422656 -0.23891059 -0.035212163 0
0.040305447 -0.23898527 -0.025023166 0
0.040696193 -0.23999998 -0.022650264 0
0.04027006 -0.24000002 -0.019364653 0
0.040390566 -0.23914132 -0.015734199 0
0.040492769 -0.23894751 -0.0046275333 0
0.04064649 -0.23999999 -0.0019819816 0
0.040513564 -0.23999992 0.0017895886 0
0.040556788 -0.23882203 0.004699864 0
0.040630516 -0.23850235 0.01500101 0
0.040315062 -0.23927645 0.01585413 0
0.040580805 -0.23999992 0.019410778 0
0.040563863 -0.23999985 0.022516849 0
0.040537879 -0.23894612 0.024894491 0
0.04041779 -0.23893151 0.035119958 0
0.040763419 -0.23999974 0.037531864 0
0.040516522 -0.23999979 0.039985247 0
0.040295117 -0.23999973 0.043446384 0
0.040365607 -0.23847207 0.045001 0
0.043382667 -0.23822407 -0.0450962 0
0.043494884 -0.24000007 -0.043545693 0
0.043651372 -0.24000016 -0.040243179 0
0.043707315 -0.24000005 -0.037730832 0
0.043770213 -0.23898996 -0.035236381 0
0.043149073 -0.23878483 -0.02502566 0
0.043482304 -0.23999999 -0.022601929 0
0.043639597 -0.24000001 -0.019620137 0
0.043654304 -0.23922181 -0.015645724 0
0.043480225 -0.2389511 -0.0047680466 0
0.043325882 -0.23999989 -0.0016899391 0
0.043271452 -0.23999992 0.0016993264 0
0.043450434 -0.238911 0.0046401792 0
0.043698728 -0.23883097 0.015001022 0
0.043536257 -0.23933816 0.015697256 0
0.043589734 -0.23999992 0.019454679 0
0.043638565 -0.23999991 0.022389051 0
0.043503333 -0.23861308 0.024926215 0
0.043513492 -0.2388604 0.035122339 0
0.043562673 -0.2399998 0.037630282 0
0.04356546 -0.23999979 0.040645007 0
0.043555506 -0.23999976 0.043588676 0
0.043325763 -0.23854662 0.045001011 0
0.046524309 -0.23852424 -0.045098953 0
0.046258286 -0.24000008 -0.043537658 0
0.046613548 -0.24000007 -0.040419452 0
0.046190776 -0.24000001 -0.037279408 0
0.046639752 -0.23879424 -0.035229269 0
0.046510532 -0.23887262 -0.024957811 0
0.046587426 -0.23999998 -0.022408526 0
0.046708949 -0.24000002 -0.019349778 0
0.046582162 -0.23905486 -0.015762232 0
0.046300378 -0.23915398 -0.0046863835 0
0.046599649 -0.23999989 -0.0014336564 0
0.046686195 -0.23999991 0.0017907569 0
0.046492636 -0.23931524 0.0046914718 0
0.047038946 -0.23818646 0.015001033 0
0.046458464 -0.23930964 0.015800063 0
0.046331841 -0.23999988 0.01968978 0
0.046575889 -0.23999985 0.022410274 0
0.046485178 -0.23885083 0.024908476 0
0.046477698 -0.23862727 0.035092756 0
0.046737839 -0.23999974 0.037314359 0
0.04656731 -0.23999979 0.040444598 0
0.046450976 -0.23999979 0.043434966 0
0.046345893 -0.23851845 0.045001026 0
0.048981406 -0.23874217 -0.045098614 0
0.049621589 -0.23902863 -0.043533895 0
0.049670056 -0.2389804 -0.040265046 0
0.049665261 -0.23897418 -0.03742573 0
0.049342006 -0.23886393 -0.035363503 0
0.049117662 -0.23866728 -0.024907108 0
0.049625482 -0.23895507 -0.022549933 0
0.049704205 -0.23906387 -0.019215604 0
0.049563877 -0.23893149 -0.016050072 0
0.049454864 -0.23866992 -0.0045213443 0
0.049637798 -0.23901398 -0.0014545397 0
0.04972785 -0.23883775 0.0014440817 0
0.049396966 -0.23882543 0.004467898 0
0.04929059 -0.2387951 0.015001043 0
0.049370609 -0.23915026 0.01616331 0
0.049615033 -0.23913655 0.019445481 0
0.049692277 -0.23917611 0.022436127 0
0.049255945 -0.23884176 0.024778189 0
0.049332667 -0.23883623 0.035240542 0
0.0495889 -0.23921457 0.037267283 0
0.049776204 -0.23896003 0.040556122 0
0.049637586 -0.23893028 0.04387885 0
0.049081627 -0.2383399 0.045001056 0
-0.0030610519 -0.23400034 -0.00083868095 0
-0.0030374546 -0.23404658 0.0012788939 0
-0.0016091287 -0.23567452 -0.0044960487 0
-0.0023702453 -0.2353543 -0.0014434331 0
-0.0022550086 -0.23558016 0.001414354 0
-0.0016301193 -0.23555517 0.0045175962 0
0.0015526693 -0.23548317 -0.045096967 0
1.5750163e-07 -0.23540811 -0.043508004 0
1.4483352e-07 -0.23509656 -0.040008519 0
1.355879e-07 -0.2355288 -0.037454467 0
1.2468031e-07 -0.23548271 -0.034441315 0
1.1400137e-07 -0.23535594 -0.031491324 0
1.0326519e-07 -0.23560026 -0.028525522 0
9.1416155e-08 -0.23558758 -0.025252298 0
8.2283847e-08 -0.23550537 -0.022729553 0
7.0782313e-08 -0.23532015 -0.019552328 0
5.9002538e-08 -0.23560733 -0.016298234 0
4.8393179e-08 -0.23549137 -0.013367466 0
3.8027842e-08 -0.23558155 -0.010504104 0
2.7470618e-08 -0.23555772 -0.0075877365 0
1.9610981e-08 -0.23572119 -0.00541656 0
-2.0181535e-08 -0.23578061 0.0055758781 0
-2.7625026e-08 -0.23567328 0.0076320963 0
-3.8433186e-08 -0.23534848 0.010617783 0
-4.7865274e-08 -0.23567414 0.013223341 0
-6.0220856e-08 -0.23533803 0.016636493 0
-7.0052998e-08 -0.23584563 0.019352563 0
-8.1825192e-08 -0.2352377 0.022604557 0
-9.3153417e-08 -0.23570143 0.025733911 0
-1.0347111e-07 -0.23546608 0.02858411 0
-1.1416796e-07 -0.23524655 0.031539049 0
-1.2506663e-07 -0.23553734 0.034549743 0
-1.3553333e-07 -0.23550206 0.037441101 0
-1.471476e-07 -0.23562421 0.040649474 0
-1.577226e-07 -0.23543358 0.043570749 0
0.0013534472 -0.23544587 0.045000859 0
0.0044511566 -0.23545824 -0.045099117 0
0.0043635489 -0.2353203 0.045000859 0
0.0074621285 -0.23561537 -0.045099106 0
0.0072826054 -0.23531809 0.045000874 0
0.010258417 -0.23543711 -0.045099095 0
0.010420653 -0.23574597 0.045000877 0
0.013442338 -0.23515062 -0.045099083 0
0.015000123 -0.23519099 -0.033850122 0
0.015000114 -0.23560791 -0.031917814 0
0.015000102 -0.23539032 -0.028301189 0
0.015000094 -0.23563571 -0.026146701 0
0.015000049 -0.23515461 -0.013597127 0
0.015000039 -0.23579161 -0.010710662 0
0.015000024 -0.23535374 -0.0075664623 0
0.015000019 -0.23510838 -0.0057377429 0
0.014999979 -0.23490098 0.0053560711 0
0.014999974 -0.23547685 0.007284794 0
0.014999962 -0.23590611 0.010371349 0
0.01499995 -0.23542722 0.013621538 0
0.014999905 -0.23553482 0.026144128 0
0.014999897 -0.23525199 0.02832365 0
0.014999884 -0.23560993 0.031786479 0
0.014999875 -0.23540829 0.034176603 0
0.013581799 -0.23565938 0.045000892 0
0.016541976 -0.23528787 -0.045099076 0
0.016198982 -0.23552036 -0.03488804 0
0.015000109 -0.23558475 -0.031277854 0
0.0150001 -0.23567769 -0.028217928 0
0.01593495 -0.23563349 -0.025351476 0
0.016554041 -0.23515721 -0.015099091 0
0.015000043 -0.23554803 -0.01378723 0
0.015000033 -0.23561199 -0.010486438 0
0.015000023 -0.23515919 -0.0073469905 0
0.016339427 -0.23535596 -0.0050640125 0
0.01619032 -0.23541756 0.0050355135 0
0.014999969 -0.23568912 0.0074396762 0
0.014999961 -0.2352123 0.010116365 0
0.015339804 -0.23556532 0.013813338 0
0.016690901 -0.23559885 0.015000909 0
0.016123338 -0.23538305 0.02532634 0
0.014999893 -0.23554391 0.028615518 0
0.014999881 -0.23533778 0.031662274 0
0.016022157 -0.2354939 0.034665257 0
0.016476208 -0.23540047 0.045000918 0
0.019294681 -0.23534417 -0.045099065 0
0.01960678 -0.23544307 -0.035099071 0
0.019416837 -0.23524936 -0.025099074 0
0.019824725 -0.23534341 -0.015099078 0
0.019272992 -0.23559655 -0.0049990769 0
0.019516541 -0.23534356 0.0050009228 0
0.019814972 -0.23548631 0.015000924 0
0.019433269 -0.23557366 0.015000919 0
0.019630337 -0.23539968 0.025000917 0
0.019527096 -0.23533273 0.035000928 0
0.019555321 -0.23532911 0.045000907 0
0.022392033 -0.23542564 -0.04509905 0
0.022665128 -0.23526925 -0.035099063 0
0.022572624 -0.23562264 -0.02509906 0
0.022630069 -0.2354572 -0.015099067 0
0.022629872 -0.23565106 -0.0049990639 0
0.022250138 -0.23529164 0.0050009312 0
0.022269456 -0.23529458 0.015000934 0
0.022242472 -0.23537673 0.015000931 0
0.022492679 -0.23557295 0.025000934 0
0.022473199 -0.23541085 0.035000935 0
0.022752259 -0.2354818 0.045000922 0
0.025458775 -0.23548076 -0.045099039 0
0.025371695 -0.23546721 -0.035099044 0
0.025444152 -0.23548009 -0.02509905 0
0.025381595 -0.23539887 -0.015099056 0
0.025328916 -0.23554255 -0.0049990551 0
0.025688507 -0.23564099 0.0050009452 0
0.025672399 -0.23549011 0.015000946 0
0.025888825 -0.23552209 0.015000942 0
0.025459165 -0.23542486 0.025000935 0
0.025486084 -0.23568562 0.035000943 0
0.025368419 -0.23561858 0.045000933 0
0.028497621 -0.23538595 -0.045099027 0
0.028522788 -0.2354939 -0.035099041 0
0.028266797 -0.23537372 -0.025099041 0
0.028439557 -0.2355997 -0.015099044 0
0.028413067 -0.23594746 -0.0049990434 0
0.028537335 -0.23570827 0.0050009545 0
0.028477767 -0.23562227 0.015000955 0
0.02847011 -0.23558092 0.015000951 0
0.028362051 -0.23560761 0.025000947 0
0.028761711 -0.23563543 0.035000965 0
0.028605985 -0.2355967 0.045000948 0
0.031321205 -0.235405 -0.045099024 0
0.031594723 -0.23556617 -0.035099026 0
0.031218985 -0.23567903 -0.025099028 0
0.031527519 -0.23515625 -0.015099037 0
0.031485178 -0.23544531 -0.0049990327 0
0.031413868 -0.23554432 0.0050009652 0
0.031402625 -0.23551823 0.015000965 0
0.031748325 -0.23494326 0.015000959 0
0.031622373 -0.23535275 0.025000956 0
0.031459376 -0.23566927 0.035000972 0
0.031377308 -0.23529577 0.045000963 0
0.034443073 -0.2355164 -0.045099009 0
0.034461264 -0.23546804 -0.035099018 0
0.034387227 -0.23524489 -0.02509902 0
0.03446937 -0.23576574 -0.015099023 0
0.034500577 -0.23572797 -0.0049990215 0
0.03421497 -0.23565847 0.0050009759 0
0.034722053 -0.23527928 0.015000978 0
0.034494027 -0.23545933 0.015000969 0
0.034478217 -0.2355336 0.025000975 0
0.034480277 -0.23541313 0.035000984 0
0.034500282 -0.2353767 0.04500097 0
0.03722585 -0.23559454 -0.045098998 0
0.037523314 -0.23575643 -0.035099007 0
0.0373776 -0.23540136 -0.025099007 0
0.037528738 -0.23546728 -0.015099012 0
0.037307397 -0.23542947 -0.0049990132 0
0.037410352 -0.23567873 0.0050009876 0
0.037244923 -0.23507588 0.015000986 0
0.037522834 -0.23552449 0.015000983 0
0.037514485 -0.23542781 0.025000984 0
0.037536535 -0.23547237 0.035000999 0
0.037573311 -0.23562399 0.045000993 0
0.040447444 -0.23550309 -0.045098986 0
0.040484838 -0.23578344 -0.035098996 0
0.040469579 -0.23562883 -0.025098994 0
0.040522419 -0.23549184 -0.015099001 0
0.04069867 -0.23564866 -0.0049989987 0
0.040562723 -0.23571274 0.0050009992 0
0.040540148 -0.23542118 0.015000999 0
0.040471524 -0.23551069 0.015000992 0
0.04054261 -0.23551242 0.025000991 0
0.040596049 -0.23555285 0.035001002 0
0.040511213 -0.23561879 0.045000982 0
0.043693598 -0.23520616 -0.045098979 0
0.043580737 -0.23572634 -0.035098981 0
0.04321545 -0.23537065 -0.025098987 0
0.043352611 -0.23549306 -0.015098993 0
0.043467879 -0.23547177 -0.0049989889 0
0.043396227 -0.23557989 0.0050010104 0
0.043830141 -0.23539917 0.01500101 0
0.043480232 -0.23553644 0.015001004 0
0.043570317 -0.23539662 0.025000999 0
0.043553755 -0.23537454 0.035001017 0
0.043410283 -0.23559955 0.045000993 0
0.046638627 -0.23555943 -0.045098964 0
0.046730332 -0.23538618 -0.035098974 0
0.046521675 -0.23550108 -0.025098976 0
0.046609301 -0.23553924 -0.015098979 0
0.046436563 -0.23553026 -0.0049989796 0
0.046524625 -0.23551045 0.0050010211 0
0.046265922 -0.23564951 0.01500102 0
0.04656662 -0.23540348 0.015001019 0
0.046540778 -0.23541154 0.025001012 0
0.046529047 -0.2354634 0.035001025 0
0.046543621 -0.23557435 0.045001019 0
0.048990436 -0.23542559 -0.045095593 0
0.05000015 -0.23545107 -0.043821935 0
0.050000135 -0.23546104 -0.040393837 0
0.050000131 -0.23560064 -0.037744019 0
0.049189478 -0.23553544 -0.035249423 0
0.04932278 -0.2354681 -0.024952738 0
0.050000079 -0.23560657 -0.022220312 0
0.050000053 -0.23544101 -0.019452747 0
0.04958 -0.23563859 -0.015891356 0
0.04955744 -0.23547748 -0.0045697032 0
0.049999993 -0.23540975 -0.0013542584 0
0.049999978 -0.23527038 0.0015638954 0
0.04963354 -0.23540436 0.00445688 0
0.04896009 -0.23533313 0.015001029 0
0.049712386 -0.23521215 0.01589437 0
0.049999911 -0.23548339 0.019638523 0
0.0499999 -0.23562209 0.022381835 0
0.049304005 -0.23544672 0.024769172 0
0.049402464 -0.23555791 0.035104122 0
0.049999848 -0.23547837 0.037427355 0
0.049999837 -0.23545024 0.040576633 0
0.049999818 -0.23538105 0.043470059 0
0.048805326 -0.23544481 0.045001041 0
-0.0038449976 -0.2322688 -0.0041998653 0
-0.0038757883 -0.23240344 -0.0015453157 0
-0.004051209 -0.23205972 0.0017124622 0
-0.0036589385 -0.23258102 0.004078357 0
-0.001611043 -0.23224296 -0.0049991659 0
-0.001610474 -0.23262118 0.0050008367 0
0.0017705268 -0.23226994 -0.045099139 0
1.5775629e-07 -0.23256813 -0.043578364 0
1.4747231e-07 -0.2324785 -0.040737476 0
1.347085e-07 -0.23262133 -0.037211552 0
1.2524326e-07 -0.23234229 -0.034596838 0
1.1459223e-07 -0.23250514 -0.031654555 0
1.0264101e-07 -0.23247115 -0.028353106 0
9.2633215e-08 -0.23231439 -0.025588516 0
8.1303625e-08 -0.23247536 -0.022458784 0
7.069022e-08 -0.23269808 -0.019526897 0
6.000684e-08 -0.23238744 -0.016575679 0
4.8792206e-08 -0.2322963 -0.013477705 0
3.8727627e-08 -0.23228022 -0.010697428 0
2.7727424e-08 -0.23240767 -0.0076586888 0
1.9741011e-08 -0.23268624 -0.0054524904 0
-2.0113976e-08 -0.23270243 0.0055572046 0
-2.5327347e-08 -0.23245531 0.0069973655 0
-3.8203183e-08 -0.23242068 0.010554235 0
-4.8795194e-08 -0.2327517 0.013480214 0
-5.88097e-08 -0.23249848 0.01624666 0
-7.0664598e-08 -0.23257437 0.019521503 0
-8.2058342e-08 -0.23259026 0.022668954 0
-9.1539967e-08 -0.23271091 0.025288194 0
-1.0248e-07 -0.2325085 0.028310312 0
-1.1432115e-07 -0.23245001 0.031581357 0
-1.2518252e-07 -0.23247108 0.034581743 0
-1.3527043e-07 -0.23243 0.037368465 0
-1.4648063e-07 -0.23266944 0.040465213 0
-1.5709486e-07 -0.2325009 0.04339733 0
0.0014037328 -0.23218848 0.045000836 0
0.0043170555 -0.23259075 -0.045099132 0
0.0046044453 -0.23236552 0.045000847 0
0.0072422586 -0.23246169 -0.045099121 0
0.0076985834 -0.23276247 0.045000866 0
0.010598154 -0.23265798 -0.045099109 0
0.010603861 -0.23250313 0.045000874 0
0.013587089 -0.23255794 -0.045099098 0
0.015000122 -0.2331842 -0.033641048 0
0.015000114 -0.23269503 -0.0315325 0
0.015000102 -0.23261935 -0.028323861 0
0.015000093 -0.23275027 -0.025940061 0
0.015000048 -0.23245071 -0.013255312 0
0.015000038 -0.23196599 -0.010599082 0
0.015000026 -0.23309146 -0.0073609897 0
0.014999974 -0.23282596 0.0072401175 0
0.014999961 -0.23256402 0.010466017 0
0.014999953 -0.23176615 0.013166299 0
0.014999903 -0.23288561 0.026419694 0
0.014999896 -0.23250981 0.028581869 0
0.014999884 -0.23211549 0.031720906 0
0.014999875 -0.23226975 0.034490325 0
0.013537586 -0.23244035 0.045000881 0
0.016644772 -0.23227057 -0.045099087 0
0.016033435 -0.23222309 -0.034760311 0
0.015000109 -0.23273475 -0.031600058 0
0.015000103 -0.23260656 -0.028846206 0
0.015991362 -0.2325549 -0.025330856 0
0.016550459 -0.23238799 -0.0150991 0
0.015000042 -0.23235115 -0.013436623 0
0.015000037 -0.23267068 -0.010647164 0
0.015000022 -0.23243633 -0.0073174918 0
0.016224856 -0.23250946 -0.0051415209 0
0.016399704 -0.23247942 0.0051490786 0
0.014999973 -0.23213618 0.0074816504 0
0.014999958 -0.23229477 0.010696164 0
0.015196297 -0.23249769 0.013661497 0
0.016187143 -0.23273195 0.0150009 0
0.015983868 -0.23258778 0.025337195 0
0.014999892 -0.23261991 0.028459407 0
0.01499988 -0.23228309 0.031800579 0
0.016000565 -0.23255435 0.034606546 0
0.016530287 -0.23225839 0.045000896 0
0.019244034 -0.23263507 -0.045099072 0
0.019465089 -0.23246203 -0.035099082 0
0.01935498 -0.23242381 -0.025099082 0
0.019332092 -0.23258592 -0.015099089 0
0.019482009 -0.23276313 -0.0049990872 0
0.019482439 -0.23250777 0.0050009107 0
0.020191463 -0.23266977 0.015000914 0
0.019367967 -0.23229325 0.015000904 0
0.019431757 -0.2326946 0.025000904 0
0.019527996 -0.23259401 0.035000924 0
0.019495416 -0.23258205 0.0450009 0
0.022455938 -0.23246929 -0.045099065 0
0.022869557 -0.23253848 -0.035099071 0
0.022253945 -0.23222768 -0.025099074 0
0.022502998 -0.23269926 -0.015099078 0
0.022466537 -0.2324302 -0.0049990769 0
0.022460129 -0.23246147 0.0050009224 0
0.022180913 -0.23311327 0.015000924 0
0.022380393 -0.23254779 0.01500092 0
0.022402057 -0.2323499 0.025000915 0
0.022622548 -0.23241301 0.03500092 0
0.0224234 -0.23198017 0.045000926 0
0.025608592 -0.23260014 -0.04509905 0
0.025632953 -0.23262157 -0.035099059 0
0.025569398 -0.23236348 -0.025099061 0
0.025465136 -0.23260885 -0.015099067 0
0.025678374 -0.23246998 -0.0049990653 0
0.02547285 -0.23264425 0.005000934 0
0.025502736 -0.23225243 0.015000932 0
0.02538389 -0.23260315 0.015000926 0
0.025376191 -0.23253655 0.025000924 0
0.025672823 -0.23239239 0.035000935 0
0.025620548 -0.23236462 0.045000926 0
0.028436936 -0.23240519 -0.045099039 0
0.02867165 -0.23246048 -0.035099048 0
0.028403031 -0.23262908 -0.02509905 0
0.028459772 -0.23237184 -0.015099056 0
0.028431702 -0.23221347 -0.0049990555 0
0.028572528 -0.23231125 0.0050009442 0
0.028366165 -0.23218328 0.015000942 0
0.028403599 -0.23260438 0.015000939 0
0.028682003 -0.23261499 0.025000937 0
0.028367219 -0.23238412 0.035000946 0
0.028670758 -0.23270212 0.045000941 0
0.031587705 -0.23253532 -0.045099027 0
0.03169642 -0.23229679 -0.035099037 0
0.03110222 -0.232492 -0.025099043 0
0.031623438 -0.2324698 -0.015099045 0
0.03164136 -0.23269938 -0.004999042 0
0.031480696 -0.23250453 0.005000955 0
0.031399626 -0.23219867 0.015000954 0
0.031742893 -0.23247363 0.015000953 0
0.031510707 -0.23230989 0.025000947 0
0.03146309 -0.23219317 0.035000958 0
0.031466879 -0.23248115 0.045000948 0
0.034386635 -0.23268346 -0.04509902 0
0.034408621 -0.23231362 -0.03509903 0
0.034300335 -0.23260927 -0.025099028 0
0.034795452 -0.23232917 -0.015099035 0
0.034491766 -0.2323308 -0.0049990336 0
0.03458726 -0.23282771 0.0050009685 0
0.034494806 -0.23300727 0.015000968 0
0.034366172 -0.23254485 0.01500096 0
0.034576252 -0.23240817 0.025000958 0
0.034362946 -0.23263113 0.035000965 0
0.034475278 -0.23234387 0.045000974 0
0.037794571 -0.23268202 -0.045099009 0
0.03723729 -0.23253563 -0.035099022 0
0.037509218 -0.23257674 -0.025099019 0
0.037504759 -0.23253725 -0.015099023 0
0.037300717 -0.23268211 -0.004999022 0
0.037501089 -0.23249629 0.0050009768 0
0.037782103 -0.23277785 0.01500098 0
0.037383761 -0.23263885 0.015000972 0
0.037331704 -0.23250408 0.025000967 0
0.037647698 -0.23247604 0.035000984 0
0.037507076 -0.23264784 0.045000967 0
0.040591136 -0.23267061 -0.045098998 0
0.040711641 -0.23231477 -0.035099003 0
0.040456157 -0.23231944 -0.025099006 0
0.040490322 -0.23260146 -0.015099013 0
0.040762108 -0.23263581 -0.004999009 0
0.0405096 -0.23241445 0.0050009876 0
0.040670488 -0.23302579 0.015000992 0
0.040350717 -0.23258942 0.015000983 0
0.040293276 -0.23249732 0.025000976 0
0.040534098 -0.23233999 0.035000995 0
0.040338539 -0.23238386 0.045000985 0
0.043296352 -0.23230216 -0.04509899 0
0.043399263 -0.23247927 -0.035098996 0
0.043403085 -0.232316 -0.025098998 0
0.043286938 -0.23245423 -0.015099003 0
0.043666486 -0.23230019 -0.0049990015 0
0.043402165 -0.2324051 0.0050009978 0
0.043470617 -0.23248683 0.015000999 0
0.04362645 -0.2323074 0.015000995 0
0.043469481 -0.23263252 0.025000989 0
0.043564126 -0.23262997 0.03500101 0
0.043255553 -0.23263864 0.045000985 0
0.046625055 -0.23251353 -0.045098975 0
0.046701666 -0.23260209 -0.035098989 0
0.046539173 -0.23232788 -0.025098985 0
0.046743378 -0.23255776 -0.015098989 0
0.046391979 -0.23250647 -0.0049989889 0
0.046594329 -0.23252431 0.0050010099 0
0.046550963 -0.23271854 0.015001011 0
0.04668906 -0.23269056 0.015001005 0
0.046508126 -0.23253544 0.025001001 0
0.046503577 -0.23243187 0.035001021 0
0.046390761 -0.23259439 0.045001011 0
0.04917052 -0.23246968 -0.045096662 0
0.050000146 -0.232393 -0.04354145 0
0.050000127 -0.23251681 -0.040318124 0
0.050000116 -0.23244992 -0.037408404 0
0.049379986 -0.23260044 -0.035269111 0
0.049257729 -0.23249249 -0.024901312 0
0.05000006 -0.23239577 -0.022469848 0
0.050000049 -0.23241059 -0.019584859 0
0.049610257 -0.23255374 -0.016054979 0
0.049497034 -0.23238851 -0.0045420341 0
0.04999999 -0.23261966 -0.001589563 0
0.04999999 -0.23248081 0.0014032875 0
0.049516313 -0.23265219 0.0045485222 0
0.049221918 -0.23305568 0.015001021 0
0.049509469 -0.23252754 0.015677359 0
0.049999908 -0.23260468 0.019393725 0
0.049999896 -0.23251055 0.022410778 0
0.049415667 -0.23252916 0.024829574 0
0.049383674 -0.23250239 0.035248067 0
0.049999848 -0.23248647 0.037641801 0
0.049999841 -0.23237877 0.040509015 0
0.049999826 -0.23260322 0.043460291 0
0.048807956 -0.23257655 0.045001026 0
-0.0044387178 -0.22958155 -0.004531859 0
-0.0049553243 -0.22944981 -0.0017229539 0
-0.004950908 -0.22943456 0.0015928801 0
-0.0044733821 -0.22941101 0.0044278023 0
-0.001716992 -0.22945343 -0.0049991747 0
-0.0016349778 -0.22946531 0.0050008236 0
0.0010757884 -0.23050024 -0.045087151 0
0.0010178349 -0.23036987 -0.043739341 0
0.0012953633 -0.23032393 -0.040587544 0
0.0014973909 -0.23026659 -0.037478387 0
0.00088582427 -0.2302974 -0.034210254 0
0.0010473689 -0.23032883 -0.031602856 0
0.0012402274 -0.23028621 -0.028522683 0
0.0013336808 -0.23027407 -0.025647631 0
0.0012233071 -0.23024946 -0.022322243 0
0.0013269107 -0.23025642 -0.01944094 0
0.0011763731 -0.23028979 -0.01662685 0
0.0010596567 -0.23029993 -0.013555245 0
0.0015895785 -0.23025496 -0.010283363 0
0.0011065408 -0.2303025 -0.007586353 0
0.0014421622 -0.2294805 -0.005200325 0
0.0015313737 -0.22942169 0.0051378403 0
0.0011773651 -0.23026456 0.0077108494 0
0.0010247469 -0.23025157 0.010671414 0
0.0012433294 -0.23031855 0.013566769 0
0.0012161173 -0.23027901 0.016469933 0
0.0013807191 -0.23023513 0.019467479 0
0.0013783163 -0.2302973 0.022412254 0
0.00097843143 -0.23033758 0.025567025 0
0.0013296686 -0.2302864 0.028424043 0
0.0011316083 -0.2302869 0.031342823 0
0.0010127374 -0.2303599 0.034480687 0
0.001353735 -0.23025011 0.037429649 0
0.0012900842 -0.2302499 0.040259629 0
0.0012987063 -0.23028639 0.043491684 0
0.0016238432 -0.23061 0.045000851 0
0.0040640021 -0.23060997 -0.045099154 0
0.0044965376 -0.23020008 -0.043451101 0
0.0044724131 -0.23020013 -0.04047564 0
0.0047536949 -0.2302001 -0.037380822 0
0.004520514 -0.23020004 -0.034506138 0
0.0047741942 -0.23020008 -0.031417403 0
0.004370512 -0.23020002 -0.028665703 0
0.0042819954 -0.23020011 -0.025553016 0
0.0047467821 -0.23020001 -0.022184443 0
0.0046104616 -0.23020001 -0.019369738 0
0.0045980052 -0.23020001 -0.016494295 0
0.0045160186 -0.23019996 -0.013478833 0
0.0046505174 -0.23019995 -0.010431199 0
0.0046533737 -0.23019995 -0.0076653445 0
0.0040768306 -0.22932009 -0.0051642773 0
0.0043884413 -0.22950843 0.0051534465 0
0.0049599758 -0.23019993 0.0074961125 0
0.0044388431 -0.2301999 0.010462012 0
0.0042303861 -0.23019987 0.013387932 0
0.0045228419 -0.23019984 0.016408484 0
0.0045739529 -0.23019983 0.01960062 0
0.0044079544 -0.23019989 0.022238849 0
0.0046028066 -0.23019986 0.025586518 0
0.0045342585 -0.23019981 0.028509635 0
0.0043673366 -0.23019983 0.031359803 0
0.0046900921 -0.23019981 0.034332484 0
0.0046524201 -0.2301998 0.037614364 0
0.0046065385 -0.23019978 0.040318497 0
0.0044244565 -0.2301998 0.043546397 0
0.0046920185 -0.23045515 0.045000859 0
0.0075163301 -0.23063244 -0.045099139 0
0.0072554187 -0.2302001 -0.043259274 0
0.0076339776 -0.23020007 -0.040593728 0
0.0073920889 -0.23020008 -0.037321035 0
0.0074446355 -0.23020005 -0.034475736 0
0.0075596999 -0.23020005 -0.031597096 0
0.0075646285 -0.23020004 -0.028375586 0
0.0073906444 -0.23020001 -0.025429452 0
0.0076146303 -0.23020004 -0.022290163 0
0.0076292409 -0.23019998 -0.019618072 0
0.0075054085 -0.23019999 -0.016506514 0
0.0074694897 -0.23019999 -0.013609208 0
0.0072780126 -0.23019998 -0.010453258 0
0.0073661669 -0.23020002 -0.0078061982 0
0.007670037 -0.22957192 -0.0051929397 0
0.0074526211 -0.22937492 0.0050995033 0
0.0074776351 -0.23019987 0.0076485169 0
0.0075833909 -0.23019993 0.010273273 0
0.0073346146 -0.23019987 0.01353522 0
0.0076424093 -0.23019986 0.016573913 0
0.0074656643 -0.23019989 0.019628538 0
0.0074671065 -0.23019986 0.022439541 0
0.0076487442 -0.23019981 0.025473554 0
0.0076009901 -0.23019981 0.028523337 0
0.0074306428 -0.23019981 0.031258978 0
0.0076084211 -0.2301998 0.034779523 0
0.0074498532 -0.23019978 0.037390564 0
0.0074418425 -0.23019975 0.04059932 0
0.0073983632 -0.23019978 0.043607321 0
0.0074904286 -0.23057169 0.045000862 0
0.010255072 -0.23071533 -0.045099132 0
0.010519858 -0.23020008 -0.043622397 0
0.010590701 -0.2302001 -0.040493492 0
0.010430491 -0.23020005 -0.03736895 0
0.010368082 -0.23020005 -0.034488179 0
0.010520206 -0.23020005 -0.031245245 0
0.010594036 -0.23020002 -0.028387599 0
0.010408765 -0.23020005 -0.025314517 0
0.010536484 -0.23020005 -0.022670841 0
0.010727377 -0.23019999 -0.019127227 0
0.010319862 -0.23020001 -0.016705981 0
0.010524943 -0.23019998 -0.013604443 0
0.010685799 -0.23019995 -0.010275811 0
0.010437481 -0.23019993 -0.0074657225 0
0.010074176 -0.2297142 -0.0043464494 0
0.010008215 -0.22973226 -0.001513041 0
0.010138859 -0.22959724 0.0017347974 0
0.010028626 -0.22969255 0.0043430366 0
0.010261237 -0.2301999 0.0073109898 0
0.010561639 -0.23019992 0.010355105 0
0.010268286 -0.23019989 0.013444571 0
0.010710818 -0.23019987 0.0163459 0
0.010439862 -0.23019986 0.019354478 0
0.01050414 -0.23019984 0.02233826 0
0.010400269 -0.23019983 0.025393983 0
0.010274208 -0.23019989 0.028714349 0
0.010589371 -0.2301998 0.03156038 0
0.010528555 -0.23019984 0.034630567 0
0.010481421 -0.23019981 0.03754998 0
0.01073031 -0.23019977 0.040341377 0
0.010498592 -0.23019977 0.043614116 0
0.010507434 -0.23066378 0.045000881 0
0.013544999 -0.23069715 -0.045099117 0
0.013644552 -0.23020008 -0.043368515 0
0.013577715 -0.23020007 -0.040666651 0
0.013668918 -0.23020004 -0.037621345 0
0.013456423 -0.23020169 -0.034487695 0
0.013700536 -0.23020491 -0.031494938 0
0.013502833 -0.23020837 -0.028730256 0
0.01364559 -0.23020005 -0.025504583 0
0.013609982 -0.23020001 -0.022649188 0
0.013405328 -0.23019998 -0.01947104 0
0.01351611 -0.23019996 -0.016643286 0
0.013520462 -0.23019998 -0.013744926 0
0.01370248 -0.23019998 -0.01029345 0
0.013569893 -0.23026763 -0.0075239139 0
0.01340069 -0.23019993 -0.0046164081 0
0.013569162 -0.23019993 -0.0012157222 0
0.013626602 -0.23019992 0.0013233793 0
0.013514475 -0.23021613 0.0043832404 0
0.013166956 -0.23020554 0.0074778697 0
0.013655945 -0.23021936 0.010833135 0
0.013379645 -0.23019989 0.013381606 0
0.013195505 -0.23019986 0.016551843 0
0.013715726 -0.23019987 0.019573595 0
0.013330416 -0.23019984 0.022442445 0
0.013325431 -0.23019983 0.025521271 0
0.013476118 -0.23022932 0.028455783 0
0.013898528 -0.23022701 0.031385995 0
0.013560814 -0.23021567 0.034438241 0
0.013711654 -0.23019983 0.037744001 0
0.013431039 -0.23019977 0.040618338 0
0.013518665 -0.2301998 0.043780524 0
0.013860852 -0.23043251 0.045000885 0
0.016873905 -0.23058791 -0.045088429 0
0.016524684 -0.23020008 -0.043472923 0
0.016461093 -0.2302001 -0.04045156 0
0.016270686 -0.23020008 -0.037311744 0
0.016160769 -0.23045412 -0.035062384 0
0.015000114 -0.23057583 -0.031340275 0
0.015000101 -0.23063797 -0.027909415 0
0.015972223 -0.23048787 -0.024964549 0
0.016728451 -0.23019999 -0.022385554 0
0.016748508 -0.23020001 -0.01934512 0
0.016311714 -0.23026361 -0.016326828 0
0.015000052 -0.2305343 -0.01360944 0
0.015000035 -0.23064938 -0.0095972875 0
0.015000027 -0.23066095 -0.0072828587 0
0.016633121 -0.23028865 -0.0042090104 0
0.016654849 -0.23019992 -0.0014312768 0
0.016363399 -0.23019998 0.0015534424 0
0.016139688 -0.23034079 0.0044768997 0
0.014999975 -0.23068371 0.0073139071 0
0.014999962 -0.23069412 0.010548873 0
0.014999951 -0.23059465 0.013684529 0
0.016540477 -0.23025167 0.016455095 0
0.016369976 -0.23019986 0.019430345 0
0.016481042 -0.23019984 0.022538466 0
0.016262509 -0.23048161 0.024958396 0
0.014999898 -0.23055452 0.027958011 0
0.014999888 -0.23052326 0.03111029 0
0.01632083 -0.23028664 0.03511028 0
0.016664257 -0.23019983 0.037614822 0
0.016480608 -0.23019977 0.040413741 0
0.016518295 -0.23019974 0.043394417 0
0.016774584 -0.23062851 0.045000896 0
0.01980974 -0.23055696 -0.045095507 0
0.019360673 -0.23020014 -0.043602753 0
0.019659676 -0.23020011 -0.040731106 0
0.019407203 -0.23020004 -0.037678596 0
0.019489832 -0.23034319 -0.035333589 0
0.019561589 -0.23043871 -0.024931503 0
0.01940662 -0.23020001 -0.022485362 0
0.01938561 -0.23020002 -0.019486973 0
0.019311184 -0.23026633 -0.016114673 0
0.019203985 -0.23031111 -0.004287031 0
0.019443793 -0.23019995 -0.001526155 0
0.019319803 -0.23019992 0.0014295152 0
0.01958454 -0.23036292 0.0044515408 0
0.019310113 -0.23032533 0.016047845 0
0.019415911 -0.23019983 0.019470936 0
0.019578125 -0.23019989 0.022614319 0
0.019986602 -0.23043925 0.024770727 0
0.019359594 -0.2303682 0.035196863 0
0.019545974 -0.23019978 0.037554812 0
0.01972576 -0.2301998 0.040386513 0
0.019556671 -0.23019974 0.043789763 0
0.019743029 -0.23049259 0.045000911 0
0.022642329 -0.23065238 -0.045088466 0
0.022582801 -0.23020008 -0.043397337 0
0.022494411 -0.23020017 -0.040514983 0
0.022084758 -0.23020013 -0.037399594 0
0.022474548 -0.23041125 -0.035282336 0
0.022391886 -0.23043171 -0.024822911 0
0.022542762 -0.23020004 -0.022373859 0
0.022557512 -0.23019998 -0.019559441 0
0.022647016 -0.23030302 -0.01632859 0
0.022413548 -0.23028995 -0.0041724863 0
0.022348497 -0.2301999 -0.0013209746 0
0.022564139 -0.23019993 0.0015516011 0
0.022558296 -0.23033443 0.004324432 0
0.022495044 -0.23037437 0.015000913 0
0.022373807 -0.23030077 0.016155599 0
0.022785418 -0.23019986 0.019720951 0
0.022265371 -0.23019983 0.022554191 0
0.022360476 -0.23045412 0.024852565 0
0.022420837 -0.23045436 0.035218157 0
0.022515476 -0.23019981 0.037656788 0
0.022573652 -0.23019978 0.040792726 0
0.02285745 -0.23019977 0.04332979 0
0.022615161 -0.23049079 0.045000922 0
0.025507754 -0.23054907 -0.045091189 0
0.025344728 -0.23020008 -0.043689776 0
0.025410231 -0.23020007 -0.040509354 0
0.025551986 -0.23020004 -0.037462488 0
0.025601378 -0.23040007 -0.035301086 0
0.025785401 -0.23035635 -0.024788972 0
0.025773989 -0.23020001 -0.02243536 0
0.025557319 -0.23019999 -0.019537466 0
0.025642658 -0.23029198 -0.016187955 0
0.025393968 -0.23033357 -0.0042894287 0
0.025680557 -0.23019993 -0.0014864072 0
0.025314998 -0.23019993 0.0016111322 0
0.025577215 -0.23029341 0.0042983731 0
0.025576936 -0.23033637 0.015000924 0
0.02553192 -0.23026268 0.01620617 0
0.025378071 -0.23019986 0.019311838 0
0.025108311 -0.23019989 0.022431958 0
0.025195997 -0.23040095 0.024790287 0
0.025026809 -0.23051307 0.035107378 0
0.025582308 -0.23019978 0.037547391 0
0.025580609 -0.23019977 0.040674515 0
0.025334446 -0.23019975 0.043521766 0
0.025009396 -0.23074503 0.045000929 0
0.027901635 -0.23062921 -0.04508768 0
0.028379176 -0.23020013 -0.043854993 0
0.028245384 -0.2302001 -0.040304583 0
0.028510252 -0.23020007 -0.037536643 0
0.029023387 -0.23038405 -0.035362087 0
0.028280009 -0.23041363 -0.024892652 0
0.02824291 -0.23020001 -0.022543615 0
0.028541859 -0.23019999 -0.019631619 0
0.028512083 -0.23029798 -0.016291717 0
0.028592348 -0.23031621 -0.0043234727 0
0.028537102 -0.2301999 -0.0016509313 0
0.028382903 -0.23019995 0.0015248563 0
0.028486811 -0.23035873 0.0043295883 0
0.028396588 -0.23044221 0.015000936 0
0.02877588 -0.23028658 0.016126301 0
0.028552884 -0.23019981 0.019466173 0
0.028481428 -0.23019986 0.02271124 0
0.028706321 -0.23046541 0.024805011 0
0.028325632 -0.23026602 0.035350755 0
0.028621519 -0.23019981 0.037273958 0
0.028789343 -0.23019977 0.040505461 0
0.028758155 -0.23019981 0.043678146 0
0.028769135 -0.23056613 0.045000944 0
0.031623513 -0.23050377 -0.045094661 0
0.031495143 -0.23020014 -0.043809544 0
0.031651802 -0.23020005 -0.040467657 0
0.031540427 -0.23020007 -0.037183471 0
0.031532906 -0.23036724 -0.035376184 0
0.031374384 -0.23026802 -0.024570633 0
0.031299554 -0.23019999 -0.02252459 0
0.031315185 -0.23020004 -0.019500146 0
0.031478897 -0.23024493 -0.016339352 0
0.031645857 -0.23028022 -0.0040380391 0
0.031225173 -0.23019996 -0.0011080937 0
0.031545646 -0.23019993 0.0012994938 0
0.031395666 -0.23033726 0.0042078025 0
0.030992966 -0.23034872 0.015000944 0
0.03145121 -0.23023489 0.016357563 0
0.031780716 -0.23019984 0.019668419 0
0.03168907 -0.23019984 0.022366712 0
0.031894032 -0.23032394 0.024789166 0
0.031284418 -0.23044351 0.035261068 0
0.031564001 -0.23019977 0.037549395 0
0.031620815 -0.23019981 0.040554903 0
0.031264052 -0.23019972 0.043277387 0
0.031870771 -0.23045141 0.045000952 0
0.034085646 -0.23051278 -0.045088243 0
0.034604866 -0.2302001 -0.04361311 0
0.034478642 -0.2302001 -0.040517572 0
0.034522589 -0.23020007 -0.037245955 0
0.034408841 -0.23033115 -0.035363659 0
0.034747764 -0.23031652 -0.024702217 0
0.034536973 -0.23019999 -0.022622604 0
0.03433894 -0.23020004 -0.019495638 0
0.034452707 -0.23029068 -0.016342852 0
0.034588788 -0.23035881 -0.0044598361 0
0.034657907 -0.23019996 -0.0014516559 0
0.034542773 -0.23019992 0.0014587246 0
0.034453556 -0.23028597 0.0042325556 0
0.034104642 -0.23054075 0.015000958 0
0.034511372 -0.23026358 0.016178558 0
0.034424629 -0.23019987 0.019404666 0
0.034534942 -0.23019984 0.022192027 0
0.034502655 -0.23045814 0.024850028 0
0.034091633 -0.23026466 0.035372388 0
0.03433783 -0.2301998 0.03744448 0
0.034582492 -0.23019974 0.040441029 0
0.034534864 -0.23019975 0.043583903 0
0.034084469 -0.23076901 0.045000959 0
0.037244197 -0.23038006 -0.045087833 0
0.037589535 -0.23020008 -0.043361645 0
0.037605543 -0.23020005 -0.040499147 0
0.037580911 -0.23020005 -0.03764955 0
0.037485447 -0.23035444 -0.03534171 0
0.037478693 -0.2304603 -0.024798611 0
0.037404619 -0.23020004 -0.022678487 0
0.037465055 -0.23020001 -0.019581133 0
0.037368294 -0.23032068 -0.016149754 0
0.037564725 -0.23036976 -0.0042966721 0
0.037343062 -0.23019989 -0.0016404827 0
0.037334256 -0.23019993 0.0015123923 0
0.03750148 -0.23029974 0.0042310227 0
0.037657972 -0.23074327 0.015000971 0
0.037721388 -0.23025434 0.016065434 0
0.037493385 -0.23019984 0.019530024 0
0.037417121 -0.23019983 0.022748163 0
0.037804283 -0.23029253 0.024585864 0
0.037659127 -0.23030798 0.035367306 0
0.037720233 -0.23019981 0.037465591 0
0.037555341 -0.23019977 0.04074695 0
0.037533451 -0.23019975 0.043581601 0
0.037198395 -0.23056069 0.04500097 0
0.040429771 -0.23060212 -0.045097619 0
0.040582199 -0.23020008 -0.043473598 0
0.040260263 -0.23020008 -0.040356319 0
0.040827855 -0.2302001 -0.03735875 0
0.040457942 -0.23052886 -0.035199374 0
0.040808633 -0.23030648 -0.02482455 0
0.040597342 -0.23020001 -0.022441354 0
0.04050887 -0.23019998 -0.019441366 0
0.040383883 -0.23027575 -0.016416667 0
0.040492937 -0.23028319 -0.004438017 0
0.040695347 -0.23019993 -0.0015257971 0
0.040766355 -0.23019995 0.0014931555 0
0.040592663 -0.23033558 0.0042485916 0
0.040474571 -0.23064321 0.015000979 0
0.040423293 -0.23025757 0.016213231 0
0.040495265 -0.23019986 0.019527096 0
0.040450927 -0.23019983 0.022526857 0
0.040167745 -0.23042209 0.024694536 0
0.040475674 -0.23031801 0.035409607 0
0.040543638 -0.2301998 0.037474815 0
0.040449355 -0.2301998 0.04031666 0
0.04039254 -0.23019977 0.043273527 0
0.040614486 -0.2305927 0.045000989 0
0.043512337 -0.23055103 -0.045096871 0
0.04350397 -0.23020008 -0.043664504 0
0.043488067 -0.23020005 -0.040417541 0
0.043159951 -0.23020008 -0.037252799 0
0.043292738 -0.23044555 -0.035270743 0
0.043595541 -0.23034367 -0.024694091 0
0.043394793 -0.23019999 -0.022362936 0
0.043466471 -0.23020002 -0.019469367 0
0.043863762 -0.23026696 -0.016251516 0
0.043919794 -0.23035342 -0.0043647513 0
0.043493766 -0.23019993 -0.001513453 0
0.043504536 -0.23019992 0.0014201774 0
0.043284647 -0.23028286 0.0041580093 0
0.042100787 -0.23095977 0.015000988 0
0.043368354 -0.23026328 0.016467398 0
0.043749437 -0.23019989 0.019562278 0
0.043661308 -0.23019987 0.022437185 0
0.043546222 -0.23039864 0.02482664 0
0.043460969 -0.2304429 0.035328958 0
0.043428738 -0.23019978 0.037228495 0
0.043668993 -0.23019981 0.040402472 0
0.04356489 -0.23019977 0.04369732 0
0.04407968 -0.23061395 0.045000996 0
0.046867222 -0.23049496 -0.045081545 0
0.046380427 -0.2302001 -0.043429788 0
0.046417534 -0.23020008 -0.04022241 0
0.046502613 -0.23020004 -0.037518017 0
0.04604964 -0.23048456 -0.035310283 0
0.046513427 -0.23041315 -0.024895849 0
0.04630423 -0.23020004 -0.022722511 0
0.04626875 -0.23019999 -0.019549528 0
0.046259291 -0.23029424 -0.016170204 0
0.04667877 -0.23037149 -0.004483385 0
0.046560891 -0.2301999 -0.0015694087 0
0.046536833 -0.23019993 0.0014019177 0
0.046107955 -0.23028721 0.0042434498 0
0.045372147 -0.23032674 0.015000996 0
0.046492532 -0.23026721 0.016435891 0
0.046352386 -0.23019984 0.019635461 0
0.04654346 -0.23019984 0.022255376 0
0.046453375 -0.23038736 0.024700476 0
0.04643913 -0.230407 0.035187207 0
0.046470389 -0.23019978 0.037724532 0
0.046453144 -0.23019983 0.040722769 0
0.046475761 -0.23019978 0.043771274 0
0.046939194 -0.23053916 0.045001008 0
0.049311031 -0.23047923 -0.045098986 0
0.04922973 -0.23025049 -0.043392397 0
0.04925191 -0.23032349 -0.040411904 0
0.049330398 -0.23028807 -0.037574265 0
0.049494751 -0.23050968 -0.035393406 0
0.049316488 -0.2303679 -0.024646929 0
0.049070187 -0.2302876 -0.022416418 0
0.049528085 -0.23039907 -0.019314317 0
0.049087677 -0.23029856 -0.016387574 0
0.049100172 -0.23037788 -0.0042600827 0
0.049141876 -0.23029095 -0.0016070619 0
0.04911064 -0.23028623 0.0015798035 0
0.049178347 -0.230354 0.0041960631 0
0.049276665 -0.23094213 0.015001014 0
0.04932199 -0.23042099 0.016386732 0
0.04917369 -0.23029609 0.019729294 0
0.049494516 -0.23034956 0.02276005 0
0.048812583 -0.23057315 0.024890581 0
0.04918636 -0.23041789 0.035319243 0
0.049465943 -0.23032518 0.037448008 0
0.049244866 -0.23033322 0.040559467 0
0.049443588 -0.23032057 0.043719783 0
0.04909727 -0.23061095 0.045001019 0
-0.0045582866 -0.2264165 -0.0045649456 0
-0.0049999938 -0.22684732 -0.0015527054 0
-0.0050000055 -0.22637123 0.001775127 0
-0.0044790525 -0.2265071 0.0044739773 0
-0.0015173901 -0.22631432 -0.0049991868 0
-0.0012519849 -0.22667302 0.0050008153 0
0.0016449312 -0.22656241 -0.0049991719 0
0.0014470734 -0.22641571 0.0050008232 0
0.0044421386 -0.22659616 -0.0049991617 0
0.0045400104 -0.22662282 0.0050008358 0
0.0078515997 -0.22667724 -0.0046811006 0
0.0086809453 -0.22655971 -0.001591447 0
0.0087063517 -0.22667272 0.0014593194 0
0.0080590816 -0.22638518 0.0044707241 0
-0.0046763071 -0.22324602 -0.0044355746 0
-0.0049999943 -0.22334456 -0.0014417779 0
-0.0050000045 -0.22336288 0.0012995712 0
-0.0043668165 -0.22360204 0.0045472262 0
-0.001552125 -0.2233979 -0.0049991971 0
-0.0013257768 -0.2235755 0.0050008032 0
0.0015244081 -0.22350885 -0.0049991845 0
0.0014770895 -0.22336575 0.0050008129 0
0.004448913 -0.22356898 -0.0049991729 0
0.0044632042 -0.22328709 0.0050008227 0
0.0075292983 -0.22373013 -0.0044562374 0
0.0079969978 -0.22351995 -0.0016127087 0
0.0079929279 -0.22350191 0.0015554976 0
0.0075347298 -0.22369488 0.0043762759 0
-0.004672253 -0.22045331 -0.0042726193 0
-0.0049999934 -0.22043136 -0.0014936714 0
-0.0050000069 -0.22051394 0.0018309936 0
-0.0045103501 -0.22053316 0.0046016662 0
-0.0018139193 -0.2204639 -0.0049992078 0
-0.0014078707 -0.22055151 0.0050007938 0
0.0013992649 -0.22035821 -0.0049991952 0
0.0016748634 -0.22050944 0.0050008032 0
0.0045630243 -0.2205527 -0.0049991836 0
0.0046883239 -0.22051093 0.0050008148 0
0.0070953942 -0.22066741 -0.0043436587 0
0.0072561381 -0.22022723 -0.0014091431 0
0.007294429 -0.22039747 0.0016227161 0
0.007068499 -0.22051305 0.004265157 0
-0.0045210887 -0.21752208 -0.0045586885 0
-0.0049999938 -0.21774849 -0.0013906937 0
-0.005000005 -0.21757723 0.0014243134 0
-0.0047712568 -0.21736425 0.0042987256 0
-0.0014108744 -0.21725984 -0.004999218 0
-0.001733001 -0.21738541 0.0050007803 0
0.0011412678 -0.21755745 -0.0049992073 0
0.0016898237 -0.21742798 0.0050007924 0
0.0043421355 -0.21731612 -0.0049991962 0
0.0045443238 -0.21748775 0.0050008027 0
0.0066222292 -0.21766587 -0.0041885749 0
0.006648019 -0.21752445 -0.0016197634 0
0.0066116368 -0.21736285 0.0015124311 0
0.0065208906 -0.21734418 0.0044050887 0
-0.0044682631 -0.21463345 -0.0045165103 0
-0.0049999943 -0.21443789 -0.0017215909 0
-0.0050000064 -0.21457271 0.0016246155 0
-0.0045238114 -0.21455051 0.0045000156 0
-0.0013744636 -0.21447518 -0.0049992292 0
-0.0017443823 -0.21448727 0.0050007687 0
0.0013377044 -0.21461597 -0.004999218 0
0.0014173026 -0.21467701 0.0050007817 0
0.0048938617 -0.21421096 -0.0047179302 0
0.0058433842 -0.21394835 -0.0012196843 0
0.0058317082 -0.21389651 0.0010877693 0
0.0045611439 -0.21444774 0.0046352311 0
0.006148045 -0.21530239 -0.0039571179 0
0.0061666355 -0.21538503 -0.0017934552 0
0.006156682 -0.21534082 0.00159158 0
0.0061745425 -0.21542026 0.0039471136 0
-0.0045162966 -0.21144262 -0.0044155307 0
-0.0049999934 -0.21131639 -0.0016468047 0
-0.0050000045 -0.21172014 0.001247342 0
-0.0047425665 -0.21137425 0.0041738818 0
-0.0011727265 -0.21157825 -0.0049992376 0
-0.0014190428 -0.21143028 0.0050007598 0
0.0012470257 -0.21165545 -0.0049992297 0
0.0013723774 -0.21146488 0.0050007696 0
0.0047756233 -0.21160582 -0.0045408439 0
0.0052232645 -0.21118201 -0.0013282923 0
0.0052889739 -0.21147779 0.0015225934 0
0.0047619198 -0.21174318 0.0043699085 0
-0.0046188948 -0.20842806 -0.004391761 0
-0.0049999934 -0.2086895 -0.0015706819 0
-0.0050000036 -0.20854707 0.0013612537 0
