# .PCD v0.7 - Point Cloud Data file format
VERSION 0.7
FIELDS x y z rgb
SIZE 4 4 4 4
TYPE F F F F
COUNT 1 1 1 1
WIDTH 1240
HEIGHT 1
VIEWPOINT 0 0 0 1 0 0 0
POINTS 1240
DATA ascii
0.010294282 -0.24000001 0.0016265771 0
0.010597217 -0.24000001 0.0045092856 0
0.010460369 -0.23999998 0.0068797804 0
0.010356491 -0.23999998 0.010611279 0
0.010496004 -0.23999995 0.013168699 0
0.010140013 -0.23999995 0.016490951 0
0.010777988 -0.23999994 0.019627368 0
0.010677543 -0.23999994 0.022162493 0
0.01008704 -0.23999992 0.025423409 0
0.010067306 -0.23999991 0.028553652 0
0.010891895 -0.23999989 0.031708714 0
0.010990962 -0.23999989 0.034658801 0
0.010880954 -0.23999988 0.037135791 0
0.010559685 -0.23999986 0.04060198 0
0.010419488 -0.23999988 0.043214995 0
0.010584698 -0.23999985 0.046183586 0
0.01035702 -0.23999983 0.049141675 0
0.010569829 -0.23999982 0.052687317 0
0.010754998 -0.23999982 0.055168245 0
0.010660355 -0.23999982 0.058999281 0
0.010515349 -0.23999979 0.06153376 0
0.011548631 -0.23999979 0.063734286 0
0.013501257 -0.24000025 -0.063723899 0
0.013708882 -0.24000023 -0.061554551 0
0.013493219 -0.24000022 -0.058630977 0
0.013618027 -0.2400002 -0.055357087 0
0.013800135 -0.2400002 -0.052185405 0
0.01304565 -0.24000019 -0.049155183 0
0.013320741 -0.24000017 -0.046419162 0
0.013187819 -0.24000017 -0.043530807 0
0.013036164 -0.24000017 -0.04039558 0
0.013994976 -0.24000014 -0.036805112 0
0.013522713 -0.24000013 -0.034668047 0
0.013372923 -0.24000013 -0.031746268 0
0.013595778 -0.24000011 -0.028364666 0
0.013367526 -0.2400001 -0.025387712 0
0.013097004 -0.2400001 -0.023391115 0
0.013149649 -0.24000008 -0.019845476 0
0.0129915 -0.24000007 -0.016739255 0
0.013687993 -0.24000005 -0.013133219 0
0.013511227 -0.24000007 -0.010641544 0
0.013356085 -0.24000004 -0.0075204042 0
0.013445045 -0.24000002 -0.0046370397 0
0.013308212 -0.24000001 -0.0014517407 0
0.012783471 -0.24000001 0.0012758267 0
0.012945794 -0.23999999 0.0047178031 0
0.013600796 -0.23999998 0.0074351686 0
0.013898013 -0.23999996 0.010456723 0
0.014130084 -0.23999996 0.013695261 0
0.012965755 -0.23999995 0.01687471 0
0.013212625 -0.23999994 0.020075012 0
0.013267381 -0.23999992 0.02302698 0
0.0135633 -0.23999992 0.025796369 0
0.013474812 -0.23999991 0.028411351 0
0.013379795 -0.23999989 0.030979123 0
0.013290738 -0.23999989 0.034393594 0
0.013396469 -0.23999988 0.037707653 0
0.013500256 -0.23999986 0.040324248 0
0.013133056 -0.23999986 0.043803435 0
0.013830378 -0.23999985 0.046554986 0
0.012982214 -0.23999983 0.049888581 0
0.013807224 -0.23999982 0.052439541 0
0.013284802 -0.23999982 0.054864336 0
0.013298186 -0.2399998 0.058404624 0
0.013657575 -0.23999979 0.061634876 0
0.013333854 -0.23999977 0.064281531 0
0.01654513 -0.24000023 -0.06363935 0
0.016714973 -0.24000025 -0.061239887 0
0.016346611 -0.24000022 -0.058455035 0
0.015932592 -0.24000022 -0.05574296 0
0.017281625 -0.2400002 -0.051643301 0
0.016350333 -0.24000019 -0.049405999 0
0.015728911 -0.24000017 -0.046943478 0
0.016935756 -0.24000017 -0.04352792 0
0.016585782 -0.24000017 -0.041401748 0
0.017121883 -0.24000014 -0.038267758 0
0.017900541 -0.24000014 -0.035931908 0
0.016087241 -0.2400001 -0.022921946 0
0.016366735 -0.24000008 -0.019443305 0
0.015625339 -0.24000007 -0.016661476 0
0.017809751 -0.24000002 -0.0043677837 0
0.016590942 -0.24000002 -0.0020185416 0
0.016895445 -0.24000001 0.0012996651 0
0.016900588 -0.23999999 0.0040475796 0
0.016797638 -0.23999995 0.016673515 0
0.016851718 -0.23999994 0.019065924 0
0.016325876 -0.23999995 0.022063514 0
0.017065059 -0.23999988 0.035577208 0
0.016234281 -0.23999988 0.038515199 0
0.016910424 -0.23999986 0.041006889 0
0.016201887 -0.23999985 0.043659311 0
0.016554248 -0.23999986 0.046395626 0
0.016614253 -0.23999985 0.049817283 0
0.016539961 -0.23999982 0.052314013 0
0.017446056 -0.23999982 0.055010196 0
0.016399221 -0.2399998 0.058506243 0
0.016606143 -0.2399998 0.061617844 0
0.017082132 -0.23999979 0.063214563 0
0.018974604 -0.24000025 -0.064379573 0
0.019549288 -0.24000023 -0.061372135 0
0.019629929 -0.24000022 -0.058701191 0
0.019773092 -0.2400002 -0.055525687 0
0.018747294 -0.2400002 -0.052277524 0
0.019050494 -0.24000019 -0.049321983 0
0.019206347 -0.24000017 -0.047004454 0
0.019062193 -0.24000016 -0.042444877 0
0.019951219 -0.24000016 -0.04098485 0
0.019405533 -0.24000014 -0.037358783 0
0.02041503 -0.24000014 -0.035938278 0
0.019402858 -0.2400001 -0.024577752 0
0.019782992 -0.24000008 -0.022437543 0
0.019312739 -0.24000008 -0.019285286 0
0.020338686 -0.24000007 -0.017300017 0
0.019075226 -0.24000002 -0.004023327 0
0.019593049 -0.24000001 -0.0009351148 0
0.018960379 -0.24000001 0.00093000481 0
0.019410059 -0.23999999 0.0039295298 0
0.019724565 -0.23999995 0.016887138 0
0.019176325 -0.23999994 0.01984938 0
0.019888604 -0.23999994 0.02222598 0
0.019521661 -0.23999992 0.024716305 0
0.02017937 -0.23999988 0.0355899 0
0.019878242 -0.23999988 0.03770778 0
0.019353108 -0.23999986 0.040566996 0
0.019046502 -0.23999986 0.043420814 0
0.01913905 -0.23999985 0.046248302 0
0.019298699 -0.23999983 0.05000554 0
0.018850023 -0.23999982 0.053120796 0
0.019807504 -0.23999982 0.056119386 0
0.019438006 -0.2399998 0.058582261 0
0.019541189 -0.2399998 0.061110396 0
0.019045262 -0.23999977 0.064105839 0
0.022505749 -0.24000025 -0.064228669 0
0.022495056 -0.24000023 -0.060905326 0
0.022654774 -0.24000022 -0.058820233 0
0.021513633 -0.24000022 -0.055972748 0
0.021462234 -0.24000017 -0.043708831 0
0.022826102 -0.24000016 -0.040268227 0
0.022666669 -0.24000014 -0.037281521 0
0.023002502 -0.24000014 -0.035785872 0
0.021667017 -0.2400001 -0.024343966 0
0.022973195 -0.24000008 -0.022233937 0
0.022097692 -0.24000008 -0.019641222 0
0.022115285 -0.24000007 -0.016002612 0
0.021933507 -0.24000002 -0.0041766767 0
0.022155153 -0.24000002 -0.0014591789 0
0.022426339 -0.24000001 0.00088555343 0
0.021707546 -0.23999999 0.0043042018 0
0.022601243 -0.23999995 0.016679462 0
0.022677522 -0.23999994 0.019584734 0
0.02258008 -0.23999994 0.021929931 0
0.02216218 -0.23999992 0.024581697 0
0.022069793 -0.23999988 0.035629295 0
0.022591548 -0.23999988 0.037914269 0
0.022236999 -0.23999988 0.040321521 0
0.022261349 -0.23999988 0.043002713 0
0.023270397 -0.2399998 0.0557377 0
0.022959622 -0.2399998 0.057893328 0
0.022472642 -0.23999979 0.061150912 0
0.023284597 -0.23999977 0.064362347 0
0.025399679 -0.24000025 -0.064530559 0
0.025557812 -0.24000023 -0.061380159 0
0.02512685 -0.24000022 -0.059177633 0
0.025810344 -0.24000022 -0.05572015 0
0.025999257 -0.24000019 -0.043352183 0
0.025907325 -0.24000016 -0.040070739 0
0.024759186 -0.24000014 -0.037619021 0
0.026238492 -0.24000014 -0.035420135 0
0.026521295 -0.2400001 -0.024544615 0
0.025886113 -0.24000008 -0.022365028 0
0.02545967 -0.24000008 -0.019353785 0
0.025283806 -0.24000007 -0.017104065 0
0.025826147 -0.24000002 -0.0039601447 0
0.025331704 -0.24000002 -0.0016510277 0
0.024976697 -0.24000001 0.0016150837 0
0.02484674 -0.23999999 0.0041926024 0
0.025857257 -0.23999995 0.016165202 0
0.025533406 -0.23999994 0.018849315 0
0.025466412 -0.23999994 0.022233594 0
0.025436835 -0.23999992 0.024334388 0
0.025352253 -0.23999988 0.035491608 0
0.025110576 -0.23999988 0.03809366 0
0.025304161 -0.23999986 0.040088378 0
0.024990484 -0.23999985 0.043632802 0
0.025824362 -0.2399998 0.056423508 0
0.024896137 -0.2399998 0.058981966 0
0.025360433 -0.2399998 0.06136971 0
0.025305131 -0.23999977 0.0642372 0
0.028833102 -0.24000025 -0.0640174 0
0.028595902 -0.24000023 -0.061586928 0
0.028589478 -0.24000022 -0.058441568 0
0.028739417 -0.24000022 -0.055980008 0
0.028307324 -0.24000017 -0.04364533 0
0.028506555 -0.2400001 -0.040352147 0
0.028743446 -0.24000016 -0.037251629 0
0.028148159 -0.24000014 -0.035477739 0
0.028415468 -0.2400001 -0.024763996 0
0.028543366 -0.24000008 -0.022198709 0
0.028057382 -0.2400001 -0.019371431 0
0.02900281 -0.24000007 -0.016452413 0
0.028809445 -0.24000002 -0.0037409363 0
0.028364539 -0.24000002 -0.001173285 0
0.028504787 -0.24000001 0.00147801 0
0.028536994 -0.24000001 0.0041995528 0
0.028425734 -0.23999995 0.016541881 0
0.028426511 -0.23999994 0.01972588 0
0.028660363 -0.23999994 0.022499908 0
0.028513009 -0.23999992 0.024493081 0
0.028820081 -0.23999988 0.035519704 0
0.029022628 -0.23999988 0.037257347 0
0.028446771 -0.23999986 0.040425166 0
0.028696101 -0.23999985 0.043440636 0
0.028691268 -0.2399998 0.059012603 0
0.028139427 -0.2399998 0.06169036 0
0.028429508 -0.23999977 0.064189203 0
0.031626187 -0.24000025 -0.063884482 0
0.031591482 -0.24000023 -0.060957678 0
0.031276003 -0.24000023 -0.058859624 0
0.03126378 -0.24000022 -0.055856813 0
0.031230642 -0.24000017 -0.045052115 0
0.031632096 -0.24000019 -0.043554522 0
0.030800069 -0.24000016 -0.040526446 0
0.031613145 -0.24000014 -0.037826288 0
0.030732242 -0.24000014 -0.035964489 0
0.031967688 -0.2400001 -0.024377603 0
0.031392943 -0.2400001 -0.022505857 0
0.031480052 -0.24000008 -0.018760333 0
0.031424988 -0.24000007 -0.016832616 0
0.031063227 -0.24000002 -0.0037129279 0
0.03174562 -0.24000002 -0.0017649307 0
0.031576075 -0.24000001 0.0017728314 0
0.031530432 -0.23999999 0.0039515821 0
0.031469319 -0.23999995 0.016430559 0
0.031355985 -0.23999994 0.01926763 0
0.031250738 -0.23999992 0.022699581 0
0.032344133 -0.23999992 0.024534496 0
0.03111374 -0.23999988 0.035848565 0
0.031506602 -0.23999988 0.037415355 0
0.031654917 -0.23999986 0.040325817 0
0.031320568 -0.23999986 0.043134645 0
0.032166969 -0.2399998 0.056233592 0
0.031528957 -0.23999979 0.058685735 0
0.031317391 -0.23999979 0.062203798 0
0.031528354 -0.23999977 0.063935526 0
0.035141155 -0.24000025 -0.064741135 0
0.035046946 -0.24000023 -0.061607912 0
0.034482792 -0.24000022 -0.058401711 0
0.034542851 -0.24000022 -0.056304604 0
0.033778936 -0.24000017 -0.045015372 0
0.034776289 -0.24000016 -0.042864382 0
0.03430286 -0.24000016 -0.040415671 0
0.03427561 -0.24000014 -0.037270077 0
0.035990383 -0.24000014 -0.03537067 0
0.034512095 -0.2400001 -0.024355924 0
0.034320679 -0.24000008 -0.022461442 0
0.034242954 -0.24000008 -0.019739389 0
0.034494214 -0.24000008 -0.016774038 0
0.034043171 -0.24000002 -0.0040449114 0
0.034774732 -0.24000001 -0.0013392118 0
0.034309279 -0.24000001 0.0015324145 0
0.034973755 -0.23999999 0.0040127565 0
0.033705905 -0.23999995 0.016293893 0
0.035011526 -0.23999994 0.019081481 0
0.034984682 -0.23999994 0.022504913 0
0.035993673 -0.23999992 0.024324536 0
0.034942504 -0.23999988 0.035531607 0
0.034771342 -0.23999989 0.038127966 0
0.034805823 -0.23999986 0.041405924 0
0.034271568 -0.23999985 0.043364871 0
0.034660991 -0.23999982 0.056148008 0
0.033141233 -0.2399998 0.057486236 0
0.034426756 -0.23999979 0.062053394 0
0.034212127 -0.23999977 0.064332478 0
0.036751859 -0.24000025 -0.064098872 0
0.037675623 -0.24000023 -0.061181851 0
0.037553951 -0.24000023 -0.058755118 0
0.036782209 -0.2400002 -0.055364829 0
0.037912384 -0.24000017 -0.043797381 0
0.037723213 -0.24000016 -0.040415443 0
0.037354503 -0.24000014 -0.038114715 0
0.037445605 -0.24000014 -0.035226725 0
0.038537994 -0.2400001 -0.024560163 0
0.03761401 -0.2400001 -0.023147909 0
0.037397154 -0.2400001 -0.019588863 0
0.037039831 -0.24000008 -0.016974591 0
0.037753291 -0.24000002 -0.0037363851 0
0.037568875 -0.24000002 -0.0021548476 0
0.038164061 -0.24000002 0.0013413128 0
0.037563134 -0.23999999 0.0040017436 0
0.037035782 -0.23999995 0.016287871 0
0.03704888 -0.23999994 0.019399958 0
0.037499472 -0.23999995 0.022637043 0
0.037392825 -0.23999992 0.024729829 0
0.037269048 -0.23999988 0.0354922 0
0.037831798 -0.23999988 0.038104575 0
0.037738983 -0.23999986 0.040511213 0
0.037627745 -0.23999985 0.043483749 0
0.037121605 -0.2399998 0.056037907 0
0.037599597 -0.2399998 0.05860059 0
0.037921418 -0.23999979 0.061467774 0
0.03997368 -0.24000025 -0.064228967 0
0.040482081 -0.24000025 -0.061398618 0
0.040547509 -0.2400002 -0.058189176 0
0.040513668 -0.24000022 -0.056144923 0
0.03987246 -0.24000017 -0.045021832 0
0.040429 -0.24000017 -0.043869656 0
0.040683765 -0.24000011 -0.040270858 0
0.040379029 -0.24000014 -0.03786663 0
0.039050683 -0.24000014 -0.0358833 0
0.040878728 -0.2400001 -0.02447346 0
0.040177353 -0.2400001 -0.02187738 0
0.040486138 -0.24000008 -0.019490965 0
0.040498693 -0.24000007 -0.016581567 0
0.039320808 -0.24000002 -0.003965158 0
0.040606227 -0.24000001 -0.0014007352 0
0.040249694 -0.24000002 0.0013044019 0
0.041319877 -0.23999999 0.0040891534 0
0.040215317 -0.23999995 0.016976029 0
0.040501028 -0.23999994 0.01951772 0
0.040810138 -0.23999995 0.022589056 0
0.040384553 -0.23999992 0.024547815 0
0.04000156 -0.23999988 0.035605967 0
0.040590454 -0.23999989 0.037850317 0
0.040431097 -0.23999986 0.040689304 0
0.040601235 -0.23999985 0.043593757 0
0.041190013 -0.2399998 0.056163769 0
0.040751003 -0.2399998 0.058377843 0
0.040292975 -0.23999979 0.060976941 0
0.041359346 -0.23999977 0.064286508 0
0.043243393 -0.24000023 -0.061527707 0
0.043543179 -0.24000023 -0.05863544 0
0.043344017 -0.24000022 -0.05626668 0
0.043416839 -0.24000019 -0.04331309 0
0.043604095 -0.24000016 -0.040449455 0
0.043394215 -0.24000016 -0.038074423 0
0.04417913 -0.24000014 -0.035818249 0
0.043491732 -0.2400001 -0.024567863 0
0.043538649 -0.2400001 -0.022233723 0
0.043541819 -0.24000008 -0.01914048 0
0.043497931 -0.24000007 -0.016518077 0
0.043427084 -0.24000002 -0.003477341 0
0.043580838 -0.24000001 -0.0017866159 0
0.043502104 -0.24000001 0.0012356427 0
0.043916069 -0.23999999 0.0044779563 0
0.043874614 -0.23999995 0.016646674 0
0.043290794 -0.23999994 0.019729014 0
0.043838408 -0.23999992 0.022863129 0
0.044037931 -0.23999992 0.02422674 0
0.043024644 -0.23999988 0.03767506 0
0.043830764 -0.23999986 0.040433649 0
0.043024868 -0.23999986 0.043092873 0
0.042864267 -0.2399998 0.056447841 0
0.043177526 -0.2399998 0.05843978 0
0.043330185 -0.23999979 0.061339878 0
0.043653551 -0.23999977 0.06442827 0
0.046066292 -0.24000025 -0.064148664 0
0.046663366 -0.24000023 -0.06111661 0
0.046960745 -0.24000022 -0.058309678 0
0.046592079 -0.24000022 -0.056699343 0
0.046189543 -0.24000017 -0.04328876 0
0.046110749 -0.24000016 -0.039691422 0
0.046259433 -0.24000014 -0.037913635 0
0.04627597 -0.2400001 -0.024131112 0
0.046643123 -0.2400001 -0.022676539 0
0.046729539 -0.2400001 -0.019847397 0
0.047050484 -0.24000007 -0.016978508 0
0.046776731 -0.24000002 -0.0034099901 0
0.04636889 -0.24000001 -0.00088634045 0
0.046613775 -0.24000001 0.00091796031 0
0.046465881 -0.23999999 0.0036514967 0
0.045531504 -0.23999995 0.016536497 0
0.046349645 -0.23999994 0.019267578 0
0.04639262 -0.23999995 0.022423105 0
0.047765516 -0.23999992 0.024066338 0
0.045998026 -0.23999989 0.036910716 0
0.046678364 -0.23999986 0.040835008 0
0.046331827 -0.23999988 0.042900812 0
0.047899965 -0.2399998 0.056506455 0
0.046017554 -0.2399998 0.058972809 0
0.046335913 -0.23999979 0.061674628 0
0.045922309 -0.23999979 0.063584477 0
0.049490362 -0.24000025 -0.064074747 0
0.048874017 -0.24000023 -0.060676735 0
0.048527807 -0.24000022 -0.057879977 0
0.049214598 -0.24000022 -0.05669402 0
0.049734473 -0.24000016 -0.042542774 0
0.049217593 -0.24000016 -0.040675607 0
0.048916627 -0.24000014 -0.038881745 0
0.048627347 -0.24000008 -0.021681651 0
0.048830647 -0.24000008 -0.019902697 0
0.048690841 -0.24000007 -0.017416039 0
0.048928857 -0.24000002 -0.0041353568 0
0.048992798 -0.24000001 -0.0011770404 0
0.048342928 -0.24000001 5.9127062e-05 0
0.048658121 -0.23999999 0.0035990614 0
0.049529828 -0.23999995 0.016553978 0
0.049246307 -0.23999995 0.019228801 0
0.049804777 -0.23999994 0.022633491 0
0.049119785 -0.23999988 0.035647471 0
0.048615985 -0.23999988 0.037785251 0
0.049238488 -0.23999986 0.040441334 0
0.049053244 -0.23999986 0.042436685 0
0.049877305 -0.2399998 0.05687575 0
0.049038555 -0.2399998 0.058356639 0
0.049084529 -0.23999979 0.061592948 0
0.049365118 -0.23999977 0.064160205 0
-0.0035233931 -0.23833227 -0.027966931 0
-0.0044241771 -0.23890926 -0.025542129 0
-0.0045773345 -0.23907374 -0.022646219 0
-0.0045737629 -0.2389946 -0.019539734 0
-0.0046031293 -0.23883305 -0.016598936 0
-0.0046865591 -0.23889312 -0.013739158 0
-0.0046967771 -0.23914257 -0.010288014 0
-0.0046547889 -0.23894782 -0.0074171848 0
-0.004590299 -0.23905961 -0.0044178222 0
-0.0048159566 -0.23888905 -0.0016959797 0
-0.0047748173 -0.23879021 0.0016095679 0
-0.0047596912 -0.23909888 0.0045594168 0
-0.0046361615 -0.23889376 0.0075106197 0
-0.0048744762 -0.23878661 0.010350577 0
-0.0047140829 -0.23881777 0.013645973 0
-0.0045229648 -0.23901956 0.016411098 0
-0.00471417 -0.23914558 0.019590586 0
-0.0043315599 -0.23942329 0.022381408 0
-0.0043222709 -0.23910436 0.025442019 0
-0.0034941218 -0.23906215 0.027771557 0
-0.00043196461 -0.2383078 -0.03414451 0
-0.0016007415 -0.23885013 -0.031496383 0
-0.0020094202 -0.23942611 -0.028983807 0
-0.0017702145 -0.24000008 -0.025669415 0
-0.0015854251 -0.24000008 -0.022538558 0
-0.0017863042 -0.23999999 -0.019357137 0
-0.0014718951 -0.23999998 -0.016676202 0
-0.0013741018 -0.24000001 -0.013251672 0
-0.0014108631 -0.24000001 -0.010320561 0
-0.0016966984 -0.24000004 -0.007436859 0
-0.0014897555 -0.23999999 -0.0043919287 0
-0.001291731 -0.23999994 -0.0017623841 0
-0.0015009618 -0.23999994 0.0014136278 0
-0.001654038 -0.23999995 0.0044199945 0
-0.001388655 -0.23999991 0.0074863066 0
-0.0014019093 -0.23999995 0.010209688 0
-0.0017823487 -0.23999994 0.013768783 0
-0.0019194445 -0.23999994 0.01660965 0
-0.0014270715 -0.23999994 0.019665582 0
-0.0015822881 -0.23999988 0.022377713 0
-0.0017107831 -0.23999991 0.025352955 0
-0.0020888762 -0.23957039 0.029001871 0
-0.0014653301 -0.23879473 0.031459209 0
-0.0004825879 -0.23886079 0.03400458 0
0.0024523509 -0.23866944 -0.039928608 0
0.0015708611 -0.23898965 -0.037484668 0
0.00090631051 -0.23967904 -0.034563821 0
0.0012914997 -0.24000013 -0.031558886 0
0.0016698326 -0.24000005 -0.028824646 0
0.0017230633 -0.24000007 -0.025412936 0
0.0014226702 -0.24000004 -0.02267538 0
0.0016800843 -0.24000001 -0.019224651 0
0.0013410291 -0.24000001 -0.016119421 0
0.0014877553 -0.24000002 -0.013423158 0
0.001644769 -0.24000002 -0.01058948 0
0.0013258621 -0.24000004 -0.0073010549 0
0.0013860756 -0.23999995 -0.0041744285 0
0.0013696644 -0.23999998 -0.0016546861 0
0.0013358318 -0.23999994 0.0015047261 0
0.0016983575 -0.23999998 0.0046609011 0
0.001257413 -0.23999996 0.0073517044 0
0.0017023321 -0.23999996 0.011019861 0
0.0011041907 -0.23999991 0.013745378 0
0.0017612141 -0.23999995 0.016147634 0
0.0015572211 -0.23999983 0.019362692 0
0.0012280734 -0.23999992 0.022175036 0
0.0017077423 -0.23999986 0.025110841 0
0.0017588111 -0.23999982 0.028663833 0
0.0016093986 -0.23999983 0.031616293 0
0.0011734903 -0.23961814 0.0345571 0
0.0015951047 -0.2390925 0.03748922 0
0.0025042607 -0.23855372 0.039978292 0
0.0051690727 -0.23908146 -0.064317189 0
0.0050659222 -0.23868789 -0.061555859 0
0.0050597144 -0.23877285 -0.05829234 0
0.0050580683 -0.23853888 -0.055723358 0
0.0051026242 -0.23868133 -0.052558385 0
0.0050987462 -0.23858343 -0.049626093 0
0.0051155714 -0.23878331 -0.046237521 0
0.0044478746 -0.23922589 -0.043445706 0
0.0040838635 -0.2396207 -0.040625643 0
0.0044701695 -0.24000002 -0.037454259 0
0.004569164 -0.24000011 -0.034684245 0
0.0042843511 -0.24000005 -0.03145016 0
0.004648848 -0.23999999 -0.028347811 0
0.0044285236 -0.23999999 -0.025225807 0
0.0047391779 -0.24000002 -0.022346977 0
0.0045082034 -0.24000002 -0.019497026 0
0.0046336167 -0.24000004 -0.016621027 0
0.0042773816 -0.23999998 -0.013325823 0
0.0044813347 -0.23999996 -0.010626161 0
0.0045262664 -0.23999999 -0.0076975198 0
0.0042200899 -0.24000001 -0.0040688748 0
0.0043577375 -0.23999999 -0.0018841232 0
0.004547813 -0.23999999 0.0017202768 0
0.0046019703 -0.23999999 0.0042344336 0
0.0045958282 -0.23999995 0.0076659261 0
0.0046048132 -0.23999988 0.010599791 0
0.004597079 -0.23999986 0.01372599 0
0.0046205125 -0.23999992 0.016869124 0
0.0044568991 -0.23999989 0.019156564 0
0.0044651073 -0.23999986 0.022774752 0
0.0044447896 -0.23999983 0.025618682 0
0.004444926 -0.23999983 0.028458651 0
0.0043650572 -0.2399998 0.031534746 0
0.0044191168 -0.2399998 0.03474988 0
0.0046601053 -0.23999979 0.037668023 0
0.0041201785 -0.23959193 0.040627562 0
0.0045370916 -0.23908663 0.043465406 0
0.0050499756 -0.23860019 0.046543255 0
0.0050677015 -0.23868389 0.049326073 0
0.005106573 -0.23861565 0.052352738 0
0.0050817677 -0.23866221 0.055282369 0
0.0050812894 -0.23901053 0.05844146 0
0.0051416326 -0.23883624 0.061564028 0
0.005122039 -0.2387573 0.064163096 0
0.0075168894 -0.23915969 -0.064604953 0
0.0073303683 -0.24000014 -0.061852954 0
0.0076213544 -0.24000017 -0.058562722 0
0.007364979 -0.24000011 -0.055381898 0
0.0075807036 -0.2400001 -0.052618887 0
0.0073098894 -0.24000013 -0.049128212 0
0.0073215798 -0.2400001 -0.046332639 0
0.0074778334 -0.24000004 -0.043497689 0
0.0073585664 -0.24000013 -0.040593214 0
0.0076062772 -0.2400001 -0.037505765 0
0.0075330026 -0.24000004 -0.034491286 0
0.007314512 -0.24000008 -0.031327676 0
0.007598144 -0.24000008 -0.028490581 0
0.0075057107 -0.24000002 -0.025346728 0
0.0073853019 -0.24000008 -0.022432456 0
0.007581451 -0.24000008 -0.019301105 0
0.0076214769 -0.24000005 -0.016423203 0
0.0072872797 -0.24000004 -0.013212293 0
0.007189 -0.23999998 -0.010802316 0
0.0074354536 -0.23999994 -0.0075274687 0
0.0073539312 -0.23999998 -0.0046536587 0
0.0079313917 -0.23999998 -0.0014357798 0
0.0074909558 -0.23999995 0.0013449567 0
0.0078696935 -0.23999999 0.0044777477 0
0.0072792168 -0.23999989 0.0076323221 0
0.0076173469 -0.23999991 0.010687907 0
0.0071479394 -0.23999994 0.013452067 0
0.0073741749 -0.23999988 0.016703932 0
0.0078009577 -0.23999985 0.019761875 0
0.0073297769 -0.23999988 0.022397481 0
0.0074852412 -0.23999982 0.025324484 0
0.0069911485 -0.23999989 0.028460614 0
0.0077477796 -0.23999985 0.031571172 0
0.0073976107 -0.23999983 0.034617521 0
0.0076390589 -0.23999979 0.037150919 0
0.0073850807 -0.23999983 0.040234379 0
0.0073315869 -0.23999977 0.043274324 0
0.0072765448 -0.23999983 0.046288509 0
0.0077040163 -0.23999983 0.049428802 0
0.0079483083 -0.23999974 0.052659344 0
0.0073331017 -0.23999971 0.055771761 0
0.0076764715 -0.23999974 0.058762334 0
0.0073101544 -0.23999973 0.061848674 0
0.0072481995 -0.23911476 0.064690761 0
0.010388625 -0.23918605 -0.064603738 0
0.010368694 -0.24000016 -0.061676405 0
0.01038195 -0.24000016 -0.058695689 0
0.010643906 -0.24000019 -0.05533278 0
0.010518131 -0.24000017 -0.052692018 0
0.010756343 -0.24000013 -0.049770024 0
0.010814801 -0.2400001 -0.046560925 0
0.010487863 -0.2400001 -0.043180317 0
0.010198476 -0.24000013 -0.040491611 0
0.010517466 -0.24000008 -0.037183233 0
0.01054845 -0.24000004 -0.034588266 0
0.010435115 -0.24000005 -0.031531569 0
0.010490114 -0.24000011 -0.028760249 0
0.010735532 -0.2400001 -0.025691386 0
0.010866171 -0.24000007 -0.022608776 0
0.010560622 -0.23999999 -0.019458955 0
0.010610877 -0.23999999 -0.016538104 0
0.010231324 -0.23999999 -0.013587436 0
0.0099330004 -0.24000004 -0.010666712 0
0.010074906 -0.24000002 -0.0077236113 0
0.01056078 -0.23999995 -0.0046318513 0
0.010521682 -0.23999992 -0.0016847698 0
0.010413432 -0.23999998 0.00193232 0
0.010579718 -0.23999994 0.0044877105 0
0.010954636 -0.23999998 0.0075487159 0
0.010364087 -0.23999992 0.010328602 0
0.010401837 -0.23999994 0.012982896 0
0.010736314 -0.23999995 0.01677365 0
0.010580736 -0.23999986 0.019677375 0
0.010464376 -0.23999992 0.022280555 0
0.01058302 -0.23999988 0.025421266 0
0.010628778 -0.23999989 0.028306626 0
0.010402058 -0.23999977 0.031347904 0
0.01044162 -0.23999989 0.034485672 0
0.010239662 -0.23999986 0.037914798 0
0.01010946 -0.23999982 0.040512033 0
0.010643428 -0.23999983 0.043453895 0
0.010267921 -0.23999977 0.046523955 0
0.010522935 -0.23999974 0.049471024 0
0.010106831 -0.23999982 0.052120976 0
0.010550119 -0.2399998 0.05539421 0
0.010564589 -0.23999971 0.058649559 0
0.010609631 -0.23999976 0.061519641 0
0.010604561 -0.23910999 0.06462422 0
0.013700685 -0.23899493 -0.064797916 0
0.013304746 -0.2400002 -0.061676759 0
0.013575465 -0.24000016 -0.058554098 0
0.01340376 -0.24000016 -0.055510744 0
0.013240252 -0.24000011 -0.052604932 0
0.01339875 -0.24000013 -0.049418617 0
0.013347834 -0.24000016 -0.046762228 0
0.013825953 -0.24000013 -0.043153971 0
0.013652754 -0.24000011 -0.040560048 0
0.013309071 -0.24000011 -0.037256446 0
0.01355459 -0.23963113 -0.034696486 0
0.013902931 -0.23965354 -0.03159342 0
0.013886984 -0.23968442 -0.028603856 0
0.014140182 -0.23972771 -0.025163844 0
0.013522824 -0.24000001 -0.022253059 0
0.013297174 -0.23999998 -0.019498741 0
0.01343838 -0.23998562 -0.016701041 0
0.014016196 -0.23970546 -0.013692745 0
0.014098703 -0.23946697 -0.010312336 0
0.013817532 -0.23962273 -0.00768115 0
0.013549443 -0.23988941 -0.0045015649 0
0.013615123 -0.23999996 -0.0013826445 0
0.013346748 -0.23999994 0.0013309673 0
0.013453371 -0.23992684 0.0047210995 0
0.013800978 -0.23964015 0.0075056236 0
0.013745694 -0.23985186 0.010339994 0
0.013877456 -0.2395912 0.013737206 0
0.013713162 -0.23999989 0.01697549 0
0.013414099 -0.23999991 0.019282736 0
0.013374039 -0.23999992 0.022005688 0
0.013598911 -0.23960494 0.025809046 0
0.014402547 -0.2392607 0.028760973 0
0.013634122 -0.2395796 0.031249532 0
0.013940942 -0.23970044 0.034498461 0
0.013440747 -0.2399998 0.037490122 0
0.013516114 -0.23999974 0.040618546 0
0.013407785 -0.2399998 0.043355178 0
0.013742593 -0.23999985 0.046275247 0
0.013281533 -0.23999974 0.049610801 0
0.013629947 -0.23999971 0.052271079 0
0.013251277 -0.23999977 0.055736117 0
0.01374316 -0.23999976 0.058548443 0
0.013352484 -0.23999973 0.061613727 0
0.013748824 -0.23894696 0.064684331 0
0.01619155 -0.23903705 -0.064697959 0
0.016600678 -0.24000017 -0.061446689 0
0.016234498 -0.24000013 -0.05851347 0
0.016607368 -0.24000013 -0.055481918 0
0.016457004 -0.24000014 -0.052513648 0
0.016438186 -0.24000017 -0.04955383 0
0.016520638 -0.24000016 -0.046437107 0
0.016544273 -0.24000013 -0.043218002 0
0.016928097 -0.24000014 -0.040370505 0
0.016671559 -0.24000007 -0.037641216 0
0.015891509 -0.23893493 -0.034862839 0
0.015000115 -0.23843434 -0.031840216 0
0.015000102 -0.23825729 -0.02843027 0
0.016244713 -0.23880614 -0.025249427 0
0.01639265 -0.24000004 -0.022692423 0
0.016189471 -0.24000007 -0.018924974 0
0.016699934 -0.23909687 -0.015569367 0
0.015000045 -0.23869665 -0.013567667 0
0.015000036 -0.23849635 -0.010448088 0
0.015000023 -0.23838267 -0.007257401 0
0.01625208 -0.23898777 -0.0047877217 0
0.01628967 -0.23999992 -0.0015544631 0
0.016604792 -0.23999996 0.0016495151 0
0.016440006 -0.23900539 0.0046151732 0
0.014999971 -0.23860693 0.0073365313 0
0.014999959 -0.23879166 0.01068961 0
0.015601536 -0.23818634 0.013941233 0
0.016266443 -0.23928253 0.01569365 0
0.016382638 -0.23999982 0.0198332 0
0.016244126 -0.23999983 0.022804761 0
0.01608924 -0.23882969 0.025065534 0
0.014999893 -0.23879865 0.028616695 0
0.014999887 -0.23807169 0.031187609 0
0.015986295 -0.23853569 0.034926582 0
0.016730784 -0.23999986 0.037077099 0
0.016370306 -0.23999979 0.040534947 0
0.01657608 -0.23999977 0.043829348 0
0.016387705 -0.23999974 0.046684664 0
0.01627004 -0.23999979 0.049681257 0
0.016770544 -0.23999979 0.052835055 0
0.016517214 -0.2399998 0.05554666 0
0.016240215 -0.23999973 0.058457714 0
0.016448651 -0.23999974 0.06158343 0
0.016269874 -0.23887824 0.064700499 0
0.019708335 -0.23887663 -0.064734444 0
0.019281246 -0.24000022 -0.062146258 0
0.019505449 -0.24000013 -0.058183093 0
0.019641127 -0.23938739 -0.055141281 0
0.019588931 -0.23890807 -0.052384317 0
0.01965314 -0.23939651 -0.049652413 0
0.019812386 -0.23899448 -0.046232499 0
0.019777086 -0.24000016 -0.043259628 0
0.019787703 -0.24000014 -0.040559962 0
0.019509833 -0.24000013 -0.037586588 0
0.019875783 -0.23862036 -0.035202537 0
0.019533737 -0.23903307 -0.024896443 0
0.019383905 -0.24000001 -0.022763304 0
0.020040639 -0.24000005 -0.019374354 0
0.019431988 -0.23929413 -0.015583206 0
0.019550815 -0.23908737 -0.0046827826 0
0.019451397 -0.23999995 -0.0013455903 0
0.019534489 -0.23999992 0.0016129061 0
0.019451801 -0.23916361 0.0046178466 0
0.019715661 -0.23870414 0.015000935 0
0.019591438 -0.23910801 0.015758721 0
0.019595033 -0.23999988 0.019477893 0
0.019553414 -0.23999992 0.022239236 0
0.019702852 -0.23881352 0.024928937 0
0.019718684 -0.23856984 0.035046205 0
0.019596962 -0.23999986 0.03761518 0
0.019744078 -0.23999985 0.04053871 0
0.019861609 -0.23999982 0.043325573 0
0.019816492 -0.23882596 0.046328098 0
0.019655263 -0.23900238 0.049730048 0
0.019602489 -0.23905936 0.052507453 0
0.019813124 -0.23920716 0.054937612 0
0.01956702 -0.23999979 0.058783159 0
0.019583477 -0.23999971 0.061282646 0
0.019420058 -0.23893693 0.064781018 0
0.022635767 -0.2390392 -0.06472069 0
0.022408046 -0.24000019 -0.061346564 0
0.022658424 -0.24000019 -0.058335323 0
0.022528173 -0.23902215 -0.055510927 0
0.022486538 -0.23861571 -0.045098096 0
0.022463342 -0.24000011 -0.043487445 0
0.022531437 -0.24000007 -0.040624052 0
0.022393726 -0.24000008 -0.037313174 0
0.022584705 -0.23886538 -0.035186317 0
0.022529136 -0.23868242 -0.025018405 0
0.022508239 -0.24000001 -0.022483423 0
0.022812678 -0.24000005 -0.019581579 0
0.022426505 -0.23922864 -0.015805442 0
0.02233004 -0.23897675 -0.0046681068 0
0.022163216 -0.23999999 -0.0016303429 0
0.022331687 -0.23999992 0.001756162 0
0.022386452 -0.23904413 0.004599575 0
0.023136718 -0.23895498 0.015000948 0
0.022517454 -0.23936915 0.015710983 0
0.022590602 -0.23999983 0.019715147 0
0.022711672 -0.23999986 0.022529129 0
0.022324033 -0.23892985 0.024856836 0
0.022580294 -0.23885381 0.035167783 0
0.022585671 -0.23999986 0.03748123 0
0.022583475 -0.2399998 0.040533587 0
0.022529483 -0.23999976 0.043593012 0
0.022301247 -0.23867878 0.045000941 0
0.022624515 -0.23916224 0.05533237 0
0.022545228 -0.23999979 0.058391619 0
0.022902681 -0.23999977 0.062063958 0
0.022641817 -0.2390205 0.064790629 0
0.025726736 -0.23912182 -0.064810164 0
0.025478378 -0.24000011 -0.061439767 0
0.025280116 -0.24000019 -0.058571085 0
0.02559814 -0.23875685 -0.055277526 0
0.025484331 -0.23842624 -0.045096025 0
0.025591498 -0.24000014 -0.043702602 0
0.025218794 -0.24000004 -0.04061434 0
0.025232149 -0.24000011 -0.037674055 0
0.025343034 -0.23870184 -0.03515942 0
0.025393728 -0.2389321 -0.024931831 0
0.025038902 -0.24000008 -0.022484381 0
0.025425507 -0.24000008 -0.019552963 0
0.025572306 -0.23904295 -0.015856761 0
0.025532631 -0.2392769 -0.0046295975 0
0.025567956 -0.23999998 -0.0016355839 0
0.025469419 -0.24000001 0.0015988814 0
0.025503568 -0.23911458 0.0046584462 0
0.025628785 -0.23834898 0.015000955 0
0.025614697 -0.23931313 0.015487056 0
0.025250448 -0.23999992 0.019162303 0
0.025652571 -0.23999991 0.022246795 0
0.025461504 -0.23851874 0.024940465 0
0.025742956 -0.23885736 0.035147183 0
0.02537176 -0.23999982 0.037753098 0
0.025570754 -0.23999985 0.040796559 0
0.025925728 -0.23999985 0.043090638 0
0.025611537 -0.23873515 0.04500097 0
0.025667863 -0.2385111 0.055147655 0
0.025777983 -0.2399997 0.058633938 0
0.025537105 -0.23999977 0.061567027 0
0.025222007 -0.23894244 0.064544171 0
0.028567223 -0.2389915 -0.064741105 0
0.028386239 -0.24000014 -0.061556552 0
0.02855139 -0.24000013 -0.058632903 0
0.028681692 -0.23921144 -0.055421259 0
0.028760586 -0.23847267 -0.045096498 0
0.02864874 -0.24000007 -0.043140788 0
0.028583046 -0.24000013 -0.040301386 0
0.028398287 -0.24000011 -0.037312541 0
0.028223872 -0.23887664 -0.035167962 0
0.028611701 -0.23851812 -0.025052663 0
0.028012471 -0.24000007 -0.022299476 0
0.02845278 -0.24000008 -0.019393662 0
0.028450862 -0.23874883 -0.015668424 0
0.028348053 -0.23936276 -0.0046141795 0
0.028490169 -0.23999992 -0.0013609697 0
0.028417422 -0.23999998 0.0011163383 0
0.028418953 -0.23917398 0.0046077971 0
0.028515404 -0.23848997 0.015000965 0
0.028438119 -0.23940472 0.015583164 0
0.028582476 -0.23999989 0.019452024 0
0.028223727 -0.23999992 0.022178749 0
0.028623939 -0.2388649 0.024886942 0
0.028375477 -0.23904322 0.035136245 0
0.028871009 -0.23999985 0.037698336 0
0.028591253 -0.23999985 0.040591553 0
0.028249998 -0.23999983 0.04378625 0
0.028455485 -0.23824759 0.045000963 0
0.028410643 -0.23899652 0.055379774 0
0.028594349 -0.23999973 0.058443129 0
0.028394716 -0.23999974 0.061430573 0
0.02856477 -0.23902701 0.064623334 0
0.031748794 -0.23880993 -0.064813182 0
0.031513318 -0.24000014 -0.061363623 0
0.031445161 -0.24000017 -0.058428492 0
0.031581331 -0.23922606 -0.05536475 0
0.031657714 -0.23829539 -0.045095906 0
0.031334564 -0.24000014 -0.043524578 0
0.031827088 -0.24000007 -0.040496413 0
0.031340122 -0.24000007 -0.037589051 0
0.03143964 -0.2386684 -0.035216905 0
0.031420805 -0.23908214 -0.024982145 0
0.031177076 -0.24000005 -0.022636544 0
0.031525671 -0.24000001 -0.019365059 0
0.031288702 -0.23928474 -0.015866484 0
0.031422943 -0.23901808 -0.0046946001 0
0.031473272 -0.23999996 -0.0015764401 0
0.031350829 -0.23999995 0.0015119355 0
0.031522989 -0.23902866 0.0047234427 0
0.031254977 -0.23872852 0.015000977 0
0.031573549 -0.23941471 0.015819376 0
0.031613413 -0.23999983 0.019539194 0
0.031251092 -0.23999992 0.022516396 0
0.031395536 -0.23843606 0.024962675 0
0.031489674 -0.23878445 0.035108149 0
0.031473085 -0.23999976 0.037333842 0
0.031449895 -0.2399998 0.040463019 0
0.031440198 -0.23999976 0.043250002 0
0.031388905 -0.23868297 0.045000989 0
0.031446178 -0.23887865 0.055361506 0
0.031652234 -0.23999971 0.058224078 0
0.031476568 -0.23999976 0.061637413 0
0.03148739 -0.2389856 0.064724326 0
0.034361087 -0.23905197 -0.064732581 0
0.034519199 -0.24000016 -0.061289176 0
0.034610238 -0.2400002 -0.058232013 0
0.034526907 -0.23890704 -0.055263516 0
0.034604713 -0.23808499 -0.045099001 0
0.034216978 -0.24000013 -0.04352675 0
0.034376092 -0.24000008 -0.040500227 0
0.034777787 -0.24000008 -0.037561718 0
0.034549486 -0.23870465 -0.035122089 0
0.034727942 -0.23880081 -0.025052693 0
0.034373477 -0.24000007 -0.022375723 0
0.034494452 -0.24000008 -0.019608114 0
0.034746353 -0.23898381 -0.015418234 0
0.034547448 -0.23926356 -0.0046083834 0
0.034449965 -0.23999996 -0.0012992799 0
0.034259528 -0.23999994 0.0014420827 0
0.034633376 -0.23912534 0.0046772617 0
0.03388574 -0.23851259 0.015000986 0
0.034491852 -0.23929594 0.015962554 0
0.034420371 -0.23999986 0.019750156 0
0.034598682 -0.23999994 0.022613883 0
0.034425713 -0.238887 0.024911642 0
0.03432611 -0.23882733 0.035067569 0
0.034566998 -0.23999976 0.037580248 0
0.034460712 -0.23999986 0.040307913 0
0.034393929 -0.23999983 0.043623552 0
0.034609351 -0.23837394 0.045000982 0
0.034558285 -0.23876679 0.055257358 0
0.034417681 -0.23999979 0.058482636 0
0.034354392 -0.2399997 0.061746575 0
0.034332599 -0.23893896 0.064751409 0
0.037416723 -0.23919889 -0.064692944 0
0.037347324 -0.24000019 -0.061618883 0
0.037492797 -0.24000017 -0.059097968 0
0.037466016 -0.23907322 -0.055481434 0
0.037414026 -0.23845869 -0.045098986 0
0.037354216 -0.24000016 -0.043805838 0
0.037434053 -0.24000014 -0.040280469 0
0.037341326 -0.24000008 -0.037201207 0
0.037590384 -0.2387768 -0.035184152 0
0.037536986 -0.23884858 -0.024993788 0
0.037422966 -0.24000007 -0.022715107 0
0.037700288 -0.24000008 -0.019608133 0
0.037435737 -0.23919225 -0.015637841 0
0.037395291 -0.23906325 -0.0046541374 0
0.037649732 -0.23999998 -0.0013214644 0
0.037580084 -0.24000001 0.0015436317 0
0.037499506 -0.23904005 0.0046294983 0
0.037713334 -0.23860636 0.015001 0
0.03724442 -0.23916812 0.015851572 0
0.03746666 -0.23999985 0.019347334 0
0.037329305 -0.23999985 0.022497371 0
0.037563093 -0.23867586 0.024898363 0
0.037422117 -0.23863201 0.03509048 0
0.037458241 -0.23999982 0.037568923 0
0.037487231 -0.2399998 0.040486868 0
0.037381232 -0.23999976 0.043537159 0
0.037241608 -0.23854662 0.045001008 0
0.037616104 -0.2389925 0.055393565 0
0.037132446 -0.23999979 0.05898362 0
0.037461706 -0.23999976 0.06160726 0
0.037573069 -0.23926495 0.064656101 0
0.040429313 -0.23898557 -0.06472566 0
0.040318135 -0.24000013 -0.061433226 0
0.040709663 -0.24000014 -0.05852497 0
0.040423576 -0.23871295 -0.055420868 0
0.040263448 -0.238631 -0.045098979 0
0.040317565 -0.24000016 -0.043616589 0
0.040478628 -0.24000008 -0.040702425 0
0.040658396 -0.24000004 -0.037307486 0
0.040459719 -0.23883875 -0.035185795 0
0.04026784 -0.23872548 -0.025039708 0
0.040644407 -0.23999999 -0.022254584 0
0.040574167 -0.24000007 -0.019863484 0
0.040661305 -0.23897861 -0.015565335 0
0.040484518 -0.23903929 -0.004639172 0
0.040301204 -0.23999999 -0.001784081 0
0.040252537 -0.23999998 0.0014949065 0
0.04058202 -0.23890932 0.0046266578 0
0.040768426 -0.23813586 0.015001009 0
0.040208057 -0.23926973 0.015650634 0
0.040967621 -0.23999985 0.01935442 0
0.040711991 -0.23999992 0.02241273 0
0.040599853 -0.23895879 0.024916027 0
0.040547218 -0.23882709 0.035095487 0
0.040121384 -0.23999986 0.037215225 0
0.040371697 -0.2399998 0.040722236 0
0.04086788 -0.23999977 0.043484017 0
0.040622752 -0.23813483 0.045001004 0
0.040465113 -0.23896424 0.055264324 0
0.040541969 -0.23999977 0.058561265 0
0.040622167 -0.2399997 0.061397921 0
0.040673997 -0.23913932 0.0644757 0
0.043594807 -0.23920093 -0.064393796 0
0.043871786 -0.24000023 -0.061363883 0
0.043542616 -0.24000022 -0.058632277 0
0.043649081 -0.23908794 -0.055368416 0
0.043244962 -0.23873875 -0.045096453 0
0.043299496 -0.24000014 -0.043461774 0
0.043755829 -0.24000007 -0.040566277 0
0.043697782 -0.24000005 -0.037387952 0
0.043233972 -0.23875806 -0.035172857 0
0.043258715 -0.23887512 -0.025003823 0
0.043577801 -0.24000004 -0.022675287 0
0.043269332 -0.24000007 -0.019531447 0
0.043401491 -0.23931289 -0.015783908 0
0.043363381 -0.23902462 -0.0046121827 0
0.043344356 -0.23999999 -0.0014340788 0
0.043656062 -0.23999998 0.0015542505 0
0.043582577 -0.23871274 0.0048593418 0
0.043584689 -0.23862389 0.015001021 0
0.043461826 -0.23924692 0.015923157 0
0.043405 -0.23999985 0.019386461 0
0.043643892 -0.23999992 0.022531452 0
0.043601185 -0.23873746 0.024896119 0
0.043422975 -0.23870611 0.035119064 0
0.04385541 -0.23999983 0.037464686 0
0.043599725 -0.2399998 0.040211868 0
0.04370828 -0.23999977 0.043566994 0
0.043616429 -0.23881379 0.045001011 0
0.043547139 -0.23935048 0.055495791 0
0.043586262 -0.23999977 0.058467183 0
0.043450005 -0.2399997 0.061851069 0
0.043415036 -0.23899652 0.064713106 0
0.046224929 -0.23928194 -0.0647083 0
0.046662446 -0.24000022 -0.061381463 0
0.046206538 -0.24000022 -0.058561243 0
0.046638303 -0.23926707 -0.05549163 0
0.046626046 -0.23863845 -0.045098957 0
0.046574213 -0.24000016 -0.043475792 0
0.046262026 -0.2400001 -0.040347401 0
0.046460461 -0.24000008 -0.037434977 0
0.046475541 -0.23883334 -0.035233051 0
0.046634831 -0.23883677 -0.024983939 0
0.046658225 -0.24000005 -0.022256497 0
0.04656712 -0.24000008 -0.019420238 0
0.046380453 -0.2392302 -0.015829399 0
0.046556856 -0.23907541 -0.004598964 0
0.046964053 -0.23999995 -0.0013914144 0
0.046654563 -0.23999992 0.0010914818 0
0.046679478 -0.23927701 0.0046558077 0
0.045617472 -0.2381296 0.015001026 0
0.04638724 -0.23934494 0.015625264 0
0.046426468 -0.23999992 0.019346632 0
0.046586271 -0.23999985 0.022325287 0
0.046471212 -0.23888627 0.024913426 0
0.046382815 -0.23879796 0.035108414 0
0.04627347 -0.23999985 0.037477728 0
0.046439011 -0.23999986 0.040539071 0
0.046610944 -0.23999982 0.043617018 0
0.046624549 -0.23849423 0.045001034 0
0.046360582 -0.23887883 0.055267133 0
0.046089064 -0.23999971 0.058646854 0
0.046988245 -0.23999979 0.061417874 0
0.046555057 -0.23913962 0.064561568 0
0.049258981 -0.23892039 -0.064544186 0
0.049629737 -0.23901136 -0.06156211 0
0.049630214 -0.23886281 -0.05853555 0
0.049441699 -0.23900397 -0.05570545 0
0.048990916 -0.23867033 -0.045091111 0
0.049684968 -0.2389258 -0.04327856 0
0.049722027 -0.23919797 -0.040692337 0
0.049798261 -0.23892678 -0.03730892 0
0.049491543 -0.23884457 -0.035334975 0
0.049236689 -0.23851842 -0.024799302 0
0.049666107 -0.23907468 -0.022375334 0
0.04943445 -0.23929746 -0.019495396 0
0.04949598 -0.23881967 -0.016102163 0
0.049258184 -0.23891966 -0.0045598336 0
0.049727783 -0.23886287 -0.0016192101 0
0.049711317 -0.23897643 0.0015139147 0
0.049456961 -0.23890652 0.0042739911 0
0.048995916 -0.23864275 0.01500104 0
0.049556792 -0.2389041 0.016204225 0
0.049715377 -0.23893288 0.019485857 0
0.049669828 -0.23886476 0.022687856 0
0.049366303 -0.23841798 0.024849568 0
0.049178973 -0.23870613 0.035109706 0
0.049689982 -0.23908564 0.037423376 0
0.049574308 -0.23885103 0.040591076 0
0.049732942 -0.23909591 0.043607157 0
0.048892844 -0.2384889 0.045001052 0
0.049349226 -0.23874943 0.055424631 0
0.049633734 -0.23924218 0.058530658 0
0.049657218 -0.23910494 0.061615605 0
0.04940486 -0.23882996 0.064444073 0
-0.0034519797 -0.23549531 -0.02811048 0
-0.0045707393 -0.23541088 -0.025697658 0
-0.0049999189 -0.23524004 -0.02234396 0
-0.0049999291 -0.23548856 -0.019380493 0
-0.0049999403 -0.23543695 -0.01663843 0
-0.0049999519 -0.23549354 -0.013329356 0
-0.0049999636 -0.23542656 -0.010235761 0
-0.0049999733 -0.23565328 -0.0073248367 0
-0.0049999845 -0.23561606 -0.0045398022 0
-0.0049999962 -0.23566504 -0.0013456453 0
-0.0050000045 -0.23533203 0.0012199094 0
-0.0050000171 -0.23567049 0.0046401406 0
-0.0050000264 -0.23562348 0.0075057526 0
-0.0050000371 -0.23559241 0.010218011 0
-0.0050000479 -0.23536551 0.013678043 0
-0.00500006 -0.23551369 0.016362008 0
-0.0050000716 -0.23536716 0.019523552 0
-0.0050000809 -0.23579809 0.02223316 0
-0.0046322104 -0.23579395 0.025520759 0
-0.0036526874 -0.23565227 0.027695671 0
-0.00049438491 -0.23569244 -0.034055185 0
-0.0018181037 -0.23533306 -0.031394538 0
-0.0028155954 -0.23548765 -0.029389597 0
-0.0027166924 -0.23532993 0.029567674 0
-0.0018067046 -0.23569128 0.031387668 0
-0.00047604935 -0.23534501 0.034049001 0
0.0023730274 -0.23509952 -0.039818641 0
0.0011483287 -0.235688 -0.037357017 0
0.0002793131 -0.23535128 -0.035610307 0
0.00029154029 -0.23571707 0.035584193 0
0.0013870142 -0.23565102 0.037775155 0
0.002558582 -0.23542702 0.040118318 0
0.005212314 -0.23565371 -0.064470232 0
0.0050002225 -0.23539947 -0.061362252 0
0.0050002108 -0.23521625 -0.058459826 0
0.0050002001 -0.23557507 -0.055491157 0
0.0050001899 -0.23542115 -0.052374639 0
0.0050001792 -0.23516381 -0.049306754 0
0.0049980562 -0.23534028 -0.046244103 0
0.0042124349 -0.23545453 -0.043515805 0
0.0033128392 -0.23629716 -0.041707639 0
0.0032053404 -0.23564543 0.041411847 0
0.0041668587 -0.23538844 0.043334898 0
0.0049998304 -0.23554407 0.046635512 0
0.0049998206 -0.23562968 0.049643453 0
0.004999809 -0.23534404 0.052548416 0
0.0049997997 -0.23553647 0.055578031 0
0.0049997875 -0.23558442 0.05840937 0
0.0049997764 -0.23539753 0.061569728 0
0.0051682135 -0.23566326 0.06428957 0
0.0075102528 -0.23531431 -0.065099105 0
0.0072965827 -0.23534892 0.065000899 0
0.010414641 -0.23575814 -0.06509909 0
0.010548209 -0.23566426 0.065000921 0
0.013645044 -0.23560278 -0.065099083 0
0.015000124 -0.23492113 -0.034089692 0
0.015000117 -0.23497018 -0.032656942 0
0.015000103 -0.23586267 -0.028452983 0
0.015000092 -0.23474006 -0.025637867 0
0.015000048 -0.23587194 -0.013421375 0
0.015000037 -0.23531331 -0.010285052 0
0.015000029 -0.23558053 -0.0080669411 0
0.015000019 -0.23577701 -0.0055922442 0
0.014999979 -0.23531511 0.0054592923 0
0.014999974 -0.23585077 0.0072071161 0
0.01499996 -0.23519234 0.011072155 0
0.014999949 -0.2357429 0.013681413 0
0.014999904 -0.23594709 0.026311396 0
0.014999896 -0.23503505 0.028596032 0
0.014999886 -0.23611422 0.031606629 0
0.01499988 -0.23565133 0.033502247 0
0.013599651 -0.23558173 0.065000914 0
0.016354406 -0.23537825 -0.065099068 0
0.016099982 -0.23558688 -0.034838915 0
0.015000112 -0.23528332 -0.031260233 0
0.015000103 -0.23565488 -0.028473247 0
0.016123084 -0.23550272 -0.025389675 0
0.016531086 -0.23571506 -0.01509909 0
0.015000048 -0.23540089 -0.01356688 0
0.015000034 -0.23522209 -0.010411679 0
0.015000026 -0.23552351 -0.0074390606 0
0.016124012 -0.23541741 -0.0050878022 0
0.016588368 -0.23551516 0.0050450047 0
0.014999974 -0.23514721 0.0075253141 0
0.014999963 -0.23549934 0.010331125 0
0.015214249 -0.23553264 0.013617226 0
0.016526312 -0.23527138 0.015000908 0
0.016047809 -0.23524681 0.025464151 0
0.014999896 -0.23558937 0.028376987 0
0.014999882 -0.23529693 0.031621903 0
0.01594246 -0.23527774 0.034599308 0
0.016743263 -0.23545824 0.065000929 0
0.01932035 -0.23532309 -0.065099075 0
0.020172557 -0.23554495 -0.054784343 0
0.020000191 -0.23559208 -0.052632906 0
0.020000178 -0.23540173 -0.049530763 0
0.020140925 -0.23568653 -0.046104886 0
0.019269271 -0.23548011 -0.035099071 0
0.019517392 -0.23537357 -0.025099073 0
0.019282036 -0.23563391 -0.015099078 0
0.019530278 -0.23567002 -0.004999076 0
0.019784814 -0.2356976 0.0050009242 0
0.019168975 -0.23526432 0.015000921 0
0.019484123 -0.23558888 0.015000926 0
0.019498024 -0.23567596 0.025000921 0
0.019090364 -0.2347987 0.035000928 0
0.02012364 -0.23575193 0.046294406 0
0.019999815 -0.23560761 0.049604934 0
0.019999806 -0.23544371 0.052394763 0
0.02026109 -0.23513898 0.054689806 0
0.019674208 -0.23573665 0.065000959 0
0.022476263 -0.23543167 -0.065099053 0
0.022333553 -0.23533958 -0.055099063 0
0.022462782 -0.23537111 -0.045099057 0
0.022198485 -0.23571223 -0.035099056 0
0.022488162 -0.23570327 -0.02509906 0
0.022392839 -0.23552215 -0.015099069 0
0.022497701 -0.23530102 -0.0049990662 0
0.022568515 -0.23552392 0.005000934 0
0.02285517 -0.23564608 0.015000936 0
0.022487534 -0.23549375 0.015000934 0
0.022701118 -0.235479 0.02500093 0
0.022432184 -0.23550947 0.035000943 0
0.022255583 -0.23517954 0.045000941 0
0.022635572 -0.23540457 0.055000931 0
0.022694547 -0.23543499 0.065000959 0
0.025587652 -0.23554924 -0.065099046 0
0.025167707 -0.23551895 -0.055099051 0
0.025317069 -0.2353733 -0.045099042 0
0.025676448 -0.23518766 -0.035099052 0
0.025576103 -0.23580563 -0.025099048 0
0.025680453 -0.23547669 -0.015099055 0
0.025449492 -0.23557717 -0.004999056 0
0.025429659 -0.23530985 0.0050009438 0
0.0256295 -0.23517515 0.015000945 0
0.025594039 -0.23519118 0.015000946 0
0.025518039 -0.23552878 0.025000943 0
0.025333097 -0.23541039 0.035000958 0
0.025367536 -0.23555164 0.045000941 0
0.025614405 -0.23560753 0.055000938 0
0.0252847 -0.23526688 0.065000966 0
0.028492007 -0.23534875 -0.065099038 0
0.028402356 -0.23534888 -0.055099037 0
0.028614407 -0.23564737 -0.045099031 0
0.028263371 -0.23556173 -0.035099044 0
0.028357629 -0.23588163 -0.025099041 0
0.028052881 -0.23538215 -0.015099047 0
0.028332263 -0.23561363 -0.0049990448 0
0.028504863 -0.23557605 0.0050009559 0
0.028442537 -0.23577124 0.015000956 0
0.028564446 -0.23544627 0.015000954 0
0.028571529 -0.23547076 0.025000952 0
0.028174795 -0.23546068 0.035000961 0
0.02869189 -0.23592198 0.045000952 0
0.028391616 -0.23548184 0.055000946 0
0.028796237 -0.23528071 0.065000974 0
0.031668559 -0.23537634 -0.065099031 0
0.031382348 -0.23555014 -0.055099033 0
0.031494483 -0.23527625 -0.045099016 0
0.031421177 -0.23526073 -0.035099026 0
0.031448063 -0.23538238 -0.025099032 0
0.031694654 -0.23551473 -0.015099035 0
0.031552952 -0.23578706 -0.0049990332 0
0.031580854 -0.23533966 0.0050009657 0
0.031142842 -0.2359983 0.015000967 0
0.031369463 -0.23533258 0.015000965 0
0.031474564 -0.23533888 0.02500096 0
0.031508852 -0.23539047 0.035000961 0
0.031749722 -0.23546246 0.045000974 0
0.031532664 -0.23571846 0.055000957 0
0.031523421 -0.23549829 0.065000981 0
0.034428775 -0.23585534 -0.065099008 0
0.034602128 -0.23522098 -0.055099018 0
0.034650259 -0.23559897 -0.045099009 0
0.034438532 -0.23542444 -0.035099022 0
0.034427293 -0.23547129 -0.025099017 0
0.034486782 -0.23552522 -0.015099023 0
0.034549762 -0.2353657 -0.0049990215 0
0.034551334 -0.23549804 0.0050009787 0
0.034639388 -0.23512153 0.015000977 0
0.034624826 -0.23551798 0.015000978 0
0.034579016 -0.23536688 0.025000973 0
0.034547579 -0.23553565 0.035000987 0
0.033974472 -0.23584534 0.045000985 0
0.034604963 -0.23572563 0.055000961 0
0.034764167 -0.23553108 0.065000989 0
0.037429504 -0.23554577 -0.065099008 0
0.037351202 -0.23550321 -0.055099018 0
0.03748085 -0.235423 -0.045098998 0
0.037516143 -0.23564163 -0.035099007 0
0.037216831 -0.23558165 -0.025099007 0
0.037509464 -0.23552342 -0.015099013 0
0.037411623 -0.23527518 -0.0049990132 0
0.037343629 -0.23531483 0.0050009876 0
0.037740149 -0.23592915 0.015000991 0
0.037113059 -0.23584622 0.015000986 0
0.037711561 -0.23579946 0.025000982 0
