# .PCD v0.7 - Point Cloud Data file format
VERSION 0.7
FIELDS x y z rgb
SIZE 4 4 4 4
TYPE F F F F
COUNT 1 1 1 1
WIDTH 1203
HEIGHT 1
VIEWPOINT 0 0 0 1 0 0 0
POINTS 1203
DATA ascii
0.00065718818 -0.26954052 0.022122992 0
0.0013563241 -0.2684229 0.024958028 0
0.0014982654 -0.26850677 0.035040468 0
0.00062594033 -0.26951656 0.037561934 0
0.00049555895 -0.26941648 0.040545624 0
0.00039851654 -0.26934204 0.043723248 0
0.0013668524 -0.26862818 0.045000985 0
0.0013322663 -0.26884288 0.055375166 0
0.00050779444 -0.2694259 0.058500543 0
0.0004386667 -0.26937288 0.0613987 0
0.0014046354 -0.26866078 0.064773388 0
0.0044783372 -0.26879933 -0.065099001 0
0.0047309245 -0.26880509 -0.05509901 0
0.0047191521 -0.26888531 -0.045098998 0
0.0048155049 -0.2682094 -0.035099011 0
0.0047176341 -0.26844177 -0.025099009 0
0.0044823005 -0.26847151 -0.015099014 0
0.0043821195 -0.26860324 -0.0049990127 0
0.0046610027 -0.26864395 0.005000989 0
0.0052129175 -0.26820365 0.015000989 0
0.0041962275 -0.26823831 0.015000987 0
0.0046521164 -0.26860419 0.025000986 0
0.0041058594 -0.26835918 0.035000987 0
0.0044733435 -0.26788118 0.045000993 0
0.0043644095 -0.26835856 0.055000972 0
0.0046193688 -0.26848751 0.065001011 0
0.0076389294 -0.26828718 -0.064676262 0
0.0081089055 -0.2675854 -0.061502047 0
0.0082030492 -0.26765761 -0.058298927 0
0.0078450991 -0.26820332 -0.055536982 0
0.0073966789 -0.26895484 -0.045095455 0
0.0080368174 -0.26753008 -0.043259326 0
0.0082490081 -0.26769289 -0.040680509 0
0.0083261719 -0.26775208 -0.037725363 0
0.0073237009 -0.26838288 -0.035175391 0
0.0074096071 -0.26825935 -0.025056493 0
0.008206185 -0.26765999 -0.022806752 0
0.0082081938 -0.26766151 -0.019247852 0
0.0076856147 -0.26813999 -0.015843669 0
0.0076775611 -0.26823261 -0.0046333517 0
0.008126189 -0.2675986 -0.0016468908 0
0.0081217475 -0.26759517 0.0015904356 0
0.007756087 -0.26833594 0.0047097667 0
0.0075166202 -0.26816168 0.01590638 0
0.0081226006 -0.26759586 0.018979661 0
0.0079442142 -0.26745901 0.022761565 0
0.0074496404 -0.26834336 0.024933117 0
0.0078042955 -0.26830611 0.035178687 0
0.0082150847 -0.26766676 0.037276432 0
0.0082856053 -0.26772088 0.040307794 0
0.0082277758 -0.26767653 0.043089107 0
0.0072204103 -0.26845109 0.045001008 0
0.0074687549 -0.26864132 0.05523587 0
0.0083725741 -0.26778761 0.058935113 0
0.0080592046 -0.26754716 0.061197601 0
0.0079435231 -0.26843077 0.064692982 0
0.01045489 -0.2693854 -0.063638166 0
0.01020267 -0.26919186 -0.061179347 0
0.01030451 -0.26927 -0.058389753 0
0.010080487 -0.26924539 -0.055984911 0
0.009746206 -0.26929119 -0.04509899 0
0.0099118045 -0.26896867 -0.043632381 0
0.0098797102 -0.26894403 -0.040771253 0
0.010080668 -0.26909822 -0.037634626 0
0.0099506918 -0.26910269 -0.035392042 0
0.0099423658 -0.26913324 -0.024768438 0
0.010299393 -0.26926607 -0.02225142 0
0.010188508 -0.26918095 -0.019244153 0
0.0097904326 -0.26914704 -0.016357804 0
0.010085771 -0.26930991 -0.0041586128 0
0.010267272 -0.26924136 -0.001722475 0
0.0099956859 -0.26903304 0.0015867248 0
0.009936084 -0.26920658 0.0043733893 0
0.0096100634 -0.26952538 0.015001009 0
0.0099594304 -0.26911435 0.016577996 0
0.010154282 -0.2691547 0.019125642 0
0.010320398 -0.2692821 0.022999585 0
0.010198293 -0.26929605 0.024742955 0
0.0097844759 -0.26909733 0.035229813 0
0.0099981427 -0.26903483 0.037463013 0
0.0098416768 -0.26891479 0.040423177 0
0.010307254 -0.26927203 0.043771416 0
0.0097677913 -0.26958823 0.045001008 0
0.010094868 -0.26912501 0.055814821 0
0.010125658 -0.26913267 0.058370348 0
0.010322979 -0.26928404 0.061661854 0
0.0099775046 -0.26923317 0.064316519 0
-0.0042654281 -0.26521239 -0.064453274 0
-0.0045454991 -0.26521641 -0.061521776 0
-0.0041758772 -0.26572156 -0.058477879 0
-0.0041466616 -0.26537451 -0.055670798 0
-0.0037023537 -0.26555875 -0.045093454 0
-0.0043007853 -0.26548523 -0.043547384 0
-0.0043015648 -0.265506 -0.0404629 0
-0.004186261 -0.26568431 -0.037552658 0
-0.0044727493 -0.26506856 -0.035500549 0
-0.0041283662 -0.26494494 -0.024931736 0
-0.0043411795 -0.26546744 -0.022584883 0
-0.0043934761 -0.26539609 -0.019585337 0
-0.004406387 -0.26516315 -0.016258165 0
-0.0043327012 -0.26523516 -0.0042350395 0
-0.0043730154 -0.26540181 -0.0015306184 0
-0.0041040261 -0.26577628 0.0015224868 0
-0.0040937723 -0.26556566 0.0041640531 0
-0.0039010781 -0.26497376 0.015000944 0
-0.0041174712 -0.2654812 0.016410781 0
-0.0040884032 -0.26571679 0.019140363 0
-0.0042716968 -0.26556098 0.022607507 0
-0.0040799044 -0.26516652 0.024837233 0
-0.0041177445 -0.26534638 0.03528136 0
-0.0044395295 -0.26536161 0.037704684 0
-0.0041940128 -0.26565915 0.04043109 0
-0.0043601096 -0.26544979 0.043583591 0
-0.0036782075 -0.26481771 0.045000944 0
-0.004088969 -0.26543179 0.055618573 0
-0.0043122265 -0.26553538 0.058037274 0
-0.0041275159 -0.26569602 0.061227486 0
-0.0041992618 -0.26531473 0.064292334 0
-0.0016019255 -0.26589271 -0.065062217 0
-0.0029191347 -0.26679662 -0.062851056 0
-0.0027240794 -0.26694629 -0.058096152 0
-0.0017906291 -0.26575664 -0.055331733 0
-0.0015069303 -0.26540217 -0.045099031 0
-0.0029055581 -0.26680702 -0.043384157 0
-0.0028049399 -0.26688421 -0.040250391 0
-0.002710141 -0.26695696 -0.037126668 0
-0.0015131743 -0.26546782 -0.035099041 0
-0.0015199196 -0.26565316 -0.025060445 0
-0.0028770268 -0.26682889 -0.022287944 0
-0.0027195432 -0.26694971 -0.019724017 0
-0.0017142931 -0.26599863 -0.015544861 0
-0.0016557667 -0.26533571 -0.0049675801 0
-0.0028891186 -0.2668196 -0.0017988569 0
-0.0017120951 -0.26573396 0.0049358145 0
-0.0012907175 -0.2655924 0.015000956 0
-0.0018774279 -0.26596648 0.015402218 0
-0.0028013783 -0.26688692 0.019366961 0
-0.0029722587 -0.26675579 0.023162331 0
-0.0016705788 -0.26544362 0.025000952 0
-0.0016982245 -0.26548031 0.035040122 0
-0.002764499 -0.26691517 0.037508629 0
-0.0029634519 -0.26676252 0.040823951 0
-0.0028671829 -0.2668364 0.043690044 0
-0.0013951276 -0.26562956 0.045000967 0
-0.0020490242 -0.26532063 0.055076722 0
-0.0028361932 -0.26686016 0.058236875 0
-0.0028900444 -0.26681888 0.061657228 0
-0.0017828053 -0.26550233 0.064846195 0
0.0017699829 -0.26560327 -0.065099023 0
0.0014956678 -0.26602522 -0.05509904 0
0.0016402209 -0.26552713 -0.04509902 0
0.0012824963 -0.26545024 -0.035099033 0
0.0013809394 -0.2654472 -0.02509903 0
0.0012179347 -0.26546207 -0.015099036 0
0.0013583512 -0.26557907 -0.0049990332 0
0.0015702896 -0.26558441 0.005000968 0
0.0012406701 -0.26531836 0.015000965 0
0.0011318059 -0.2656551 0.015000965 0
0.0014567433 -0.26532316 0.025000965 0
0.0015499913 -0.26552215 0.035000972 0
0.0015245524 -0.26579803 0.045000959 0
0.0015953265 -0.26521972 0.055000968 0
0.0014910745 -0.26572305 0.065000981 0
0.0048323958 -0.26560861 -0.064644165 0
0.0052276892 -0.26500478 -0.061805572 0
0.0052116429 -0.26511371 -0.058824912 0
0.0046870275 -0.26555753 -0.05541838 0
0.0041712965 -0.26516092 -0.045093182 0
0.0052717663 -0.26516247 -0.043842185 0
0.0051529999 -0.26502749 -0.040120386 0
0.0053052572 -0.26525545 -0.037483137 0
0.0043467851 -0.26550448 -0.03532416 0
0.0043347422 -0.26540247 -0.024990011 0
0.0052163363 -0.2651158 -0.02228505 0
0.0052238749 -0.26518524 -0.0195523 0
0.0046727783 -0.2653937 -0.015739279 0
0.0048124776 -0.26543382 -0.004566852 0
0.005259397 -0.2651405 -0.0017454213 0
0.0052852673 -0.26524767 0.0016850266 0
0.0046478529 -0.2652531 0.0044503529 0
0.0036793137 -0.26584491 0.015000974 0
0.0048030298 -0.26548919 0.015779272 0
0.0053603724 -0.26514491 0.019324342 0
0.0052888975 -0.26519811 0.022860548 0
0.0046662055 -0.26549035 0.024821483 0
0.0045193806 -0.26515034 0.035219606 0
0.005153894 -0.26489124 0.037713803 0
0.0051936246 -0.26502028 0.040725727 0
0.0052742707 -0.26507854 0.043400988 0
0.0044146874 -0.26573691 0.045000989 0
0.004361066 -0.26538223 0.055267364 0
0.0052270838 -0.26500112 0.058470115 0
0.0052734707 -0.2651659 0.061376765 0
0.0043948973 -0.26548314 0.064831592 0
0.0067844088 -0.26663855 -0.064172864 0
0.0065362542 -0.26637876 -0.061254989 0
0.006699142 -0.26650372 -0.058266889 0
0.0068113166 -0.26661462 -0.055859081 0
0.0063940673 -0.26654029 -0.045092937 0
0.0068226168 -0.26659843 -0.043648429 0
0.0066473819 -0.26646402 -0.040425438 0
0.0064794435 -0.26633516 -0.037993077 0
0.006465307 -0.26647431 -0.035342671 0
0.006637922 -0.26651505 -0.024722816 0
0.0065825102 -0.2664142 -0.022622785 0
0.0067496039 -0.2665424 -0.019562673 0
0.0067300932 -0.26652744 -0.016468283 0
0.0064104269 -0.26635224 -0.00444536 0
0.0066928212 -0.26649886 -0.0015146864 0
0.0066330861 -0.26645303 0.0016719622 0
0.0065924609 -0.26654169 0.0042590695 0
0.0070475638 -0.26690114 0.01500099 0
0.0067033763 -0.26651481 0.016501518 0
0.0067663146 -0.26655522 0.019493481 0
0.0065653739 -0.26640099 0.022587769 0
0.006712696 -0.26658729 0.024676396 0
0.0060418425 -0.26599932 0.035441875 0
0.006426909 -0.26629478 0.037492476 0
0.0064700483 -0.26632789 0.040057369 0
0.006691087 -0.26649746 0.043713115 0
0.006201027 -0.26677775 0.045000989 0
0.0066069844 -0.2664876 0.055585951 0
0.0066239447 -0.26644593 0.058083158 0
0.0066151791 -0.26643923 0.061298847 0
0.0066062761 -0.26649615 0.064229555 0
-0.0045402688 -0.26286402 -0.064540267 0
-0.0049997778 -0.26229122 -0.061523881 0
-0.004999788 -0.26240042 -0.058713038 0
-0.0046081757 -0.2623989 -0.055608161 0
-0.0040069483 -0.26247889 -0.045096762 0
-0.0049998439 -0.26242408 -0.043148324 0
-0.0049998537 -0.26244456 -0.040408153 0
-0.0049998639 -0.26241374 -0.03775765 0
-0.0043010535 -0.26254904 -0.035225343 0
-0.0043556597 -0.26230338 -0.02488704 0
-0.0049999175 -0.26234478 -0.02261458 0
-0.0049999291 -0.26264378 -0.019545164 0
-0.0045621344 -0.26248458 -0.016121978 0
-0.0047368626 -0.26235294 -0.0041948473 0
-0.0049999966 -0.26245788 -0.0011979621 0
-0.0050000059 -0.262629 0.0015825192 0
-0.0046647978 -0.26240927 0.0042853742 0
-0.0039747511 -0.26199925 0.015000933 0
-0.0045623961 -0.26210362 0.016034244 0
-0.0050000716 -0.26283121 0.019732956 0
-0.0050000818 -0.26259464 0.022436548 0
-0.0040689632 -0.26218936 0.024839463 0
-0.0041442206 -0.2623052 0.035233989 0
-0.0050001377 -0.26223159 0.037768763 0
-0.0050001461 -0.26237932 0.040290065 0
-0.0050001577 -0.26237592 0.043318678 0
-0.0040233703 -0.26236734 0.045000944 0
-0.0044714818 -0.26262257 0.055486992 0
-0.0050002118 -0.26227051 0.05846468 0
-0.0050002206 -0.26237819 0.061010361 0
-0.0045859385 -0.26253167 0.06440872 0
-0.0013961188 -0.26286238 -0.065099053 0
-0.0016248028 -0.26235583 -0.055099055 0
-0.0013184734 -0.26269957 -0.045099042 0
-0.0014470494 -0.26245511 -0.035099059 0
-0.0012163048 -0.2626797 -0.025099048 0
-0.0017952585 -0.26237518 -0.015099057 0
-0.0013866181 -0.2623536 -0.0049990541 0
-0.0015597879 -0.26242539 0.0050009452 0
-0.0015730021 -0.26241207 0.015000943 0
-0.0011109663 -0.2627787 0.015000944 0
-0.0012342106 -0.26257065 0.02500095 0
-0.0015125632 -0.26232925 0.03500095 0
-0.0019209833 -0.26262769 0.045000952 0
-0.0016916753 -0.26249713 0.055000924 0
-0.0015185178 -0.26271254 0.065000944 0
0.0013408 -0.26222435 -0.065099061 0
0.0018601224 -0.26237938 -0.055099055 0
0.0013737177 -0.26245901 -0.045099035 0
0.001320958 -0.2625117 -0.035099048 0
0.0016798618 -0.26224342 -0.025099039 0
0.0014614023 -0.262438 -0.015099045 0
0.0011959717 -0.26231274 -0.0049990467 0
0.0014899566 -0.26236111 0.0050009554 0
0.00080460496 -0.2625722 0.015000954 0
0.0012713375 -0.26285768 0.015000957 0
0.0014221445 -0.26268026 0.02500096 0
0.0012084051 -0.26245543 0.035000958 0
0.0013416981 -0.26256919 0.045000963 0
0.0014009012 -0.26318809 0.055000965 0
0.0013235753 -0.2624346 0.065000974 0
0.0045916489 -0.26270846 -0.064440139 0
0.005000222 -0.26283967 -0.061283872 0
0.0050002122 -0.26249307 -0.058395173 0
0.0044897688 -0.26266906 -0.055533152 0
0.003973715 -0.26223788 -0.045099039 0
0.0050001582 -0.26214355 -0.043598805 0
0.005000147 -0.2627064 -0.040469717 0
0.0050001377 -0.2622174 -0.037797377 0
0.0040280167 -0.26246601 -0.035206143 0
0.0043188105 -0.26217759 -0.024805659 0
0.0050000814 -0.26258075 -0.022364346 0
0.0050000711 -0.26259196 -0.019693242 0
0.0044814246 -0.26241976 -0.015709538 0
0.0043913531 -0.26252368 -0.004576358 0
0.0050000059 -0.26228228 -0.0015795184 0
0.0049999943 -0.26288047 0.0017343502 0
0.0045774849 -0.26251337 0.0043903361 0
0.0042269328 -0.26234126 0.015000964 0
0.0047847321 -0.26232514 0.015929695 0
0.0049999291 -0.26255283 0.019586228 0
0.0049999193 -0.2624568 0.022416733 0
0.0042079887 -0.26252437 0.024897797 0
0.0045460947 -0.26251218 0.035207935 0
0.0049998644 -0.26223963 0.037516337 0
0.0049998527 -0.2625055 0.040557329 0
0.0049998425 -0.26260504 0.043246862 0
0.0039823912 -0.26226142 0.045000974 0
0.0043952903 -0.26260966 0.055495143 0
0.0049997889 -0.2623795 0.058317665 0
0.0049997787 -0.26247197 0.061389193 0
0.0046128253 -0.26262721 0.064413421 0
-0.0045732334 -0.25961217 -0.064408205 0
-0.0049997778 -0.25973502 -0.061518542 0
-0.0049997885 -0.26007119 -0.058625527 0
-0.0044760983 -0.26004884 -0.055613186 0
-0.0039855191 -0.25969142 -0.045099072 0
-0.0049998416 -0.25923476 -0.043824624 0
-0.0049998555 -0.25933123 -0.040185038 0
-0.0049998648 -0.25973743 -0.037478019 0
-0.0041501187 -0.2592541 -0.035255622 0
-0.0045856638 -0.25989652 -0.024748947 0
-0.0049999189 -0.25947919 -0.022463698 0
-0.004999931 -0.25928959 -0.019251268 0
-0.0046692453 -0.25922656 -0.016054785 0
-0.0045508263 -0.25976393 -0.0045105196 0
-0.0049999948 -0.25967968 -0.0016505769 0
-0.0050000055 -0.25951064 0.0012727766 0
-0.004542226 -0.25977167 0.0046711056 0
-0.00469962 -0.25908756 0.01500092 0
-0.0045842896 -0.25938356 0.015827868 0
-0.0050000711 -0.25978959 0.01965782 0
-0.0050000828 -0.25953218 0.022628568 0
-0.0045961235 -0.25941652 0.024752453 0
-0.0041969083 -0.25968844 0.03515771 0
-0.0050001373 -0.25936627 0.037885942 0
-0.005000148 -0.25898346 0.040855385 0
-0.0050001577 -0.25965968 0.04328794 0
-0.0042903475 -0.25939894 0.045000933 0
-0.0045589777 -0.25939894 0.055453174 0
-0.0050002127 -0.25954339 0.058496118 0
-0.005000222 -0.2598255 0.061417777 0
-0.0047073662 -0.25957769 0.064241253 0
-0.0015873018 -0.25952569 -0.065099053 0
-0.0016780064 -0.25963148 -0.055099063 0
-0.0010676445 -0.25932419 -0.045099065 0
-0.0015337962 -0.25945717 -0.035099063 0
-0.0014151121 -0.25938895 -0.025099063 0
-0.0017557791 -0.25950605 -0.015099068 0
-0.0014379753 -0.25933579 -0.0049990662 0
-0.0014743907 -0.2595976 0.0050009345 0
-0.00084619544 -0.25832283 0.015000931 0
-0.0019385488 -0.25937843 0.015000932 0
-0.0014077069 -0.25928277 0.025000935 0
-0.0013945716 -0.25948086 0.035000943 0
-0.0013567376 -0.25963694 0.045000937 0
-0.0012185599 -0.25930673 0.055000938 0
-0.001404949 -0.25921699 0.065000944 0
0.0014409225 -0.25955096 -0.065099053 0
0.0014852504 -0.25931787 -0.055099059 0
0.0013600609 -0.25953856 -0.045099057 0
0.0015004943 -0.25954643 -0.035099059 0
0.0016016035 -0.25934315 -0.025099052 0
0.0017519431 -0.25963786 -0.015099055 0
0.0016009634 -0.25948048 -0.0049990551 0
0.0016145292 -0.25948542 0.0050009461 0
0.0013954636 -0.25975001 0.015000944 0
0.0011148998 -0.25941092 0.015000939 0
0.0016469822 -0.2595461 0.025000945 0
0.0015685889 -0.25924104 0.035000958 0
0.0019823695 -0.259451 0.045000959 0
0.0015140744 -0.25984603 0.05500095 0
0.0015706797 -0.25946289 0.065000959 0
0.0044468795 -0.25940612 -0.064559199 0
0.0050002239 -0.259489 -0.061568934 0
0.0050002113 -0.25957862 -0.05832896 0
0.0046384488 -0.25929645 -0.055453215 0
0.0042631258 -0.25943437 -0.045099046 0
0.0050001568 -0.25962928 -0.043172546 0
0.0050001452 -0.25975236 -0.040111661 0
0.0050001359 -0.25962073 -0.037470397 0
0.0042876843 -0.25952223 -0.035263825 0
0.0043951576 -0.25978652 -0.024827871 0
0.0050000814 -0.25971943 -0.022428511 0
0.0050000716 -0.25964367 -0.019663086 0
0.0045407983 -0.25983679 -0.015842022 0
0.0045626257 -0.25951049 -0.0044626519 0
0.0050000069 -0.25964519 -0.0018036097 0
0.0049999948 -0.25976539 0.0014505824 0
0.0046445662 -0.25928026 0.00432389 0
0.0044540963 -0.25926214 0.015000953 0
0.0047436696 -0.25918078 0.016182639 0
0.0049999305 -0.25936678 0.019442974 0
0.0049999175 -0.25957274 0.022923322 0
0.0041340827 -0.25992772 0.024903249 0
0.0041114362 -0.2596744 0.035146363 0
0.0049998639 -0.2591722 0.037722103 0
0.0049998537 -0.25941792 0.040647451 0
0.0049998439 -0.25938687 0.043350559 0
0.0040294081 -0.25943431 0.045000963 0
0.0043515661 -0.25948256 0.055434979 0
0.0049997861 -0.25942895 0.058930136 0
0.0049997778 -0.25950715 0.061485693 0
0.0043361597 -0.25918037 0.064586483 0
-0.0045447298 -0.25609124 -0.064567134 0
-0.0049997787 -0.25654152 -0.061230894 0
-0.0049997894 -0.25662857 -0.058438942 0
-0.0043043271 -0.2563172 -0.055458184 0
-0.0040329695 -0.256749 -0.045099087 0
-0.004999843 -0.25628442 -0.04357129 0
-0.0049998527 -0.25663131 -0.040868543 0
-0.0049998648 -0.25643915 -0.037502047 0
-0.0042588515 -0.25665066 -0.035205841 0
-0.0043854807 -0.25661466 -0.024831936 0
-0.0049999179 -0.25633094 -0.022835523 0
-0.0049999296 -0.25643268 -0.019396566 0
-0.0046184096 -0.25632197 -0.016050322 0
-0.0045288205 -0.25677842 -0.0043806811 0
-0.0049999952 -0.25642025 -0.0014503523 0
-0.0050000059 -0.25621229 0.0013751028 0
-0.0046311314 -0.25661495 0.0045027165 0
-0.0037548863 -0.25656366 0.015000913 0
-0.0047643962 -0.2563237 0.016060894 0
-0.0050000688 -0.25657588 0.019185089 0
-0.0050000818 -0.25673532 0.022403993 0
-0.0042683822 -0.25678882 0.024841186 0
-0.0042909207 -0.25663778 0.035147991 0
-0.0050001373 -0.25631261 0.037848108 0
-0.005000147 -0.25647897 0.040691242 0
-0.0050001573 -0.25656283 0.043291096 0
-0.0039593531 -0.25626022 0.045000914 0
-0.0042999364 -0.25654525 0.05543324 0
-0.0050002132 -0.25658369 0.058765065 0
-0.0050002229 -0.25668216 0.061307784 0
-0.0044912286 -0.25656039 0.064437985 0
-0.0014733108 -0.25651518 -0.065099068 0
-0.0013285981 -0.25676289 -0.05509907 0
-0.0017866229 -0.25649086 -0.045099068 0
-0.0015261724 -0.25651139 -0.035099074 0
-0.0017179031 -0.25651813 -0.025099071 0
-0.001904393 -0.25661772 -0.015099078 0
-0.0013635007 -0.2565313 -0.0049990774 0
-0.0014221555 -0.25630689 0.0050009224 0
-0.0014069758 -0.25664368 0.015000925 0
-0.0018476684 -0.25630972 0.015000924 0
-0.0011607078 -0.256495 0.025000928 0
-0.0015075356 -0.25621367 0.035000924 0
-0.0013179788 -0.25647891 0.045000922 0
-0.0014474593 -0.25629321 0.055000912 0
-0.0011919531 -0.25649616 0.065000944 0
0.0019593791 -0.25619894 -0.065099061 0
0.0014088376 -0.25651497 -0.055099074 0
0.0017045529 -0.25623888 -0.045099054 0
0.0017319291 -0.25685015 -0.035099067 0
0.0015960721 -0.25636503 -0.025099061 0
0.0015866252 -0.2565181 -0.015099066 0
0.0014734147 -0.25630096 -0.0049990676 0
0.001495852 -0.25627491 0.0050009335 0
0.0010069708 -0.25637168 0.015000931 0
0.0013779879 -0.25640088 0.015000934 0
0.0016530403 -0.25661376 0.025000935 0
0.0013934274 -0.25674659 0.035000931 0
0.0010617484 -0.25648838 0.045000944 0
0.0016416254 -0.25679901 0.055000946 0
0.0016633202 -0.25626302 0.065000936 0
0.0044312039 -0.25639281 -0.064497896 0
0.0050002234 -0.25634152 -0.061441295 0
0.0050002127 -0.25662896 -0.058552172 0
0.0043013939 -0.25636199 -0.055382095 0
0.003938823 -0.25673214 -0.045099057 0
0.0050001568 -0.25644073 -0.043219492 0
0.0050001484 -0.25647196 -0.040741842 0
0.0050001354 -0.25667334 -0.037244119 0
0.0045001041 -0.25667429 -0.035270777 0
0.0041334224 -0.25611281 -0.024978219 0
0.0050000818 -0.25641981 -0.022513894 0
0.0050000693 -0.25632107 -0.01931686 0
0.0047367392 -0.25634688 -0.016161783 0
0.0043750443 -0.25642624 -0.0045178947 0
0.0050000073 -0.25644246 -0.0017454447 0
0.0049999948 -0.25646877 0.0014093526 0
0.004703539 -0.25636229 0.0042078481 0
0.0037223359 -0.25637662 0.01500094 0
0.0046402453 -0.25637639 0.016147273 0
0.0049999314 -0.25646019 0.019052839 0
0.0049999193 -0.25661814 0.022321513 0
0.0041005635 -0.25654623 0.024884624 0
0.004352021 -0.25641066 0.03512099 0
0.0049998644 -0.25702205 0.037624221 0
0.0049998537 -0.2565515 0.040532202 0
0.0049998444 -0.25625864 0.043189727 0
0.0040803589 -0.25674105 0.045000955 0
0.0046799378 -0.25632241 0.055504013 0
0.0049997885 -0.25656265 0.058522921 0
0.0049997787 -0.25676894 0.061393894 0
0.0044914293 -0.25643238 0.064519778 0
-0.0045362404 -0.25371358 -0.064473405 0
-0.0049997764 -0.25382537 -0.061708402 0
-0.004999788 -0.25326565 -0.05864723 0
-0.0042944527 -0.25351259 -0.055549845 0
-0.0038882694 -0.25332728 -0.045094527 0
-0.0049998411 -0.25355801 -0.043832887 0
-0.0049998532 -0.25332162 -0.040420417 0
-0.0049998644 -0.25312683 -0.037671529 0
-0.0042753839 -0.25346833 -0.035224661 0
-0.0044495417 -0.25335726 -0.02487709 0
-0.0049999184 -0.25359845 -0.022525547 0
-0.004999931 -0.25355256 -0.019277532 0
-0.0046200282 -0.25365731 -0.016054228 0
-0.0046149697 -0.25323793 -0.0043558879 0
-0.0049999948 -0.25342423 -0.0015560073 0
-0.0050000069 -0.25375709 0.0016521263 0
-0.0043953462 -0.25328559 0.0044690594 0
-0.0040487801 -0.25314954 0.0150009 0
-0.0046277819 -0.25350994 0.01592149 0
-0.0050000711 -0.2534816 0.019522106 0
-0.0050000809 -0.25353038 0.022316437 0
-0.0040857522 -0.2533724 0.024905652 0
-0.0041123871 -0.25337529 0.035133801 0
-0.0050001368 -0.25331602 0.037653916 0
-0.005000147 -0.25360364 0.040499117 0
-0.0050001582 -0.25348082 0.043547817 0
-0.003944668 -0.25321022 0.045000911 0
-0.0045736255 -0.2534509 0.055686183 0
-0.0050002132 -0.25357601 0.058602743 0
-0.0050002239 -0.2536802 0.061654832 0
-0.0045325076 -0.253631 0.064522639 0
-0.0013321637 -0.25345734 -0.065099105 0
-0.0016635034 -0.25358135 -0.055099096 0
-0.0014283907 -0.25337818 -0.04509908 0
-0.0015235676 -0.2534 -0.035099085 0
-0.0016867247 -0.25400361 -0.025099082 0
-0.0010921109 -0.25364992 -0.015099086 0
-0.0018595266 -0.25347668 -0.0049990895 0
-0.0015012276 -0.25344718 0.0050009126 0
-0.0013450523 -0.25347042 0.015000911 0
-0.0014896489 -0.25359222 0.015000911 0
-0.0013111871 -0.25365603 0.025000917 0
-0.0014495589 -0.25375861 0.035000928 0
-0.0015118953 -0.25329167 0.045000922 0
-0.0015162034 -0.25368237 0.055000905 0
-0.0014658708 -0.25369388 0.065000936 0
0.0014442586 -0.25346094 -0.065099075 0
0.0015754243 -0.25331864 -0.05509907 0
0.0015812905 -0.25337443 -0.045099065 0
0.0016074288 -0.2536101 -0.035099085 0
0.001508713 -0.25345191 -0.025099073 0
0.0015150597 -0.25350255 -0.015099078 0
0.0014869147 -0.25382072 -0.004999076 0
0.0017415576 -0.25321767 0.0050009233 0
0.0014132478 -0.25301674 0.01500092 0
0.0014196669 -0.25372723 0.015000921 0
0.0017487074 -0.25346771 0.025000921 0
0.0015993646 -0.25335085 0.035000928 0
0.0017771046 -0.25345293 0.045000937 0
0.001195776 -0.2534726 0.055000916 0
0.0019498899 -0.25356895 0.065000936 0
0.0043538301 -0.25354105 -0.064540811 0
0.0050002225 -0.25384825 -0.061372008 0
0.0050002108 -0.25331002 -0.058284014 0
0.0044348394 -0.25380501 -0.055633172 0
0.004045357 -0.25336042 -0.045099057 0
0.0050001568 -0.25336808 -0.043465082 0
0.0050001466 -0.2534503 -0.040372476 0
0.0050001363 -0.25308084 -0.037519474 0
0.0041914955 -0.25338441 -0.035194326 0
0.0042255339 -0.25347888 -0.024944911 0
0.0050000818 -0.25347975 -0.022533033 0
0.0050000711 -0.25328889 -0.01960291 0
0.0043996451 -0.25358567 -0.015855832 0
0.0044805296 -0.25326386 -0.0045220093 0
0.0050000064 -0.25334093 -0.0016212205 0
0.0049999948 -0.2532987 0.0016360971 0
0.0044507831 -0.25344777 0.0046213507 0
0.0036410079 -0.25378108 0.015000931 0
0.0046829288 -0.25343904 0.015833169 0
0.0049999305 -0.25370428 0.019215465 0
0.0049999189 -0.25320277 0.02261794 0
0.0041104965 -0.25343758 0.024882313 0
0.0042992015 -0.25346941 0.035105426 0
0.0049998639 -0.25314835 0.037744425 0
0.0049998537 -0.25351822 0.040655293 0
0.0049998434 -0.25355661 0.043499555 0
0.0039136391 -0.25362471 0.045000941 0
0.0043954784 -0.25336152 0.055596497 0
0.004999788 -0.25374082 0.058501001 0
0.0049997782 -0.25348684 0.061338644 0
0.0045059412 -0.25372282 0.064599052 0
-0.0045453645 -0.25050059 -0.064498693 0
-0.0049997782 -0.25046545 -0.061315961 0
-0.0049997899 -0.25059086 -0.058174416 0
-0.0046909992 -0.25018886 -0.05576995 0
-0.0039627105 -0.25038439 -0.045095701 0
-0.0049998434 -0.250292 -0.043404751 0
-0.0049998541 -0.25093377 -0.040335525 0
-0.0049998648 -0.25075927 -0.037599694 0
-0.0042534615 -0.25057 -0.035272878 0
-0.0043871664 -0.25024545 -0.024898319 0
-0.0049999189 -0.25036678 -0.022675678 0
-0.0049999296 -0.25032666 -0.0195207 0
-0.0044522486 -0.25042915 -0.015625777 0
-0.0045479955 -0.25049433 -0.0046651592 0
-0.0049999948 -0.25053945 -0.001402206 0
-0.0050000059 -0.25039184 0.0013617153 0
-0.0044597397 -0.25057209 0.004562878 0
-0.0043411795 -0.25004274 0.015000888 0
-0.0046719741 -0.2507903 0.016112592 0
-0.0050000707 -0.25084263 0.019442331 0
-0.0050000809 -0.25020203 0.02233956 0
-0.0042306185 -0.25041571 0.024855644 0
-0.0043212064 -0.25049731 0.035119828 0
-0.0050001363 -0.25047359 0.037584126 0
-0.0050001466 -0.25073585 0.040468566 0
-0.0050001568 -0.25053516 0.043186948 0
-0.003912156 -0.25025505 0.045000896 0
-0.0043751099 -0.25078109 0.055381276 0
-0.0050002122 -0.25071165 0.058504764 0
-0.0050002215 -0.25062934 0.061473735 0
-0.0045051035 -0.25047463 0.064558223 0
-0.0010587083 -0.25098032 -0.065099113 0
-0.0012541155 -0.25051463 -0.055099111 0
-0.0016931746 -0.2504425 -0.045099095 0
-0.0017886901 -0.25027245 -0.035099104 0
-0.0012692276 -0.25061482 -0.025099093 0
-0.0013800499 -0.24993247 -0.015099102 0
-0.0014294093 -0.25040427 -0.0049990993 0
-0.0015297465 -0.25036436 0.0050009009 0
-0.0012532827 -0.25088358 0.015000904 0
-0.0010027026 -0.25077164 0.015000904 0
-0.0016597065 -0.25060487 0.025000906 0
-0.0016292917 -0.25030154 0.035000905 0
-0.0016037396 -0.25009838 0.045000907 0
-0.0015240749 -0.25072604 0.055000897 0
-0.0013503949 -0.25058436 0.065000907 0
0.0016773023 -0.25097647 -0.065099083 0
0.0016597813 -0.25023007 -0.055099081 0
0.0012178214 -0.2504828 -0.045099083 0
0.0012495981 -0.25050676 -0.0350991 0
0.0016034943 -0.25032237 -0.025099084 0
0.0016532423 -0.25054106 -0.015099089 0
0.0015772472 -0.25096437 -0.0049990858 0
0.0013413016 -0.25087374 0.0050009131 0
0.0015124795 -0.25051585 0.015000912 0
0.0015229442 -0.25026199 0.015000914 0
0.0017446862 -0.25065839 0.025000917 0
0.0014336637 -0.25073123 0.03500092 0
0.0012921493 -0.25028375 0.045000907 0
0.001491345 -0.25087422 0.055000916 0
0.001266367 -0.25007704 0.065000914 0
0.0041728881 -0.2502135 -0.064691231 0
0.005000222 -0.25077251 -0.061220665 0
0.0050002113 -0.25039899 -0.058443427 0
0.004620593 -0.25064406 -0.055707272 0
0.0044780299 -0.25053096 -0.045091014 0
0.0050001591 -0.25056356 -0.043926086 0
0.0050001475 -0.25069571 -0.040615521 0
0.0050001345 -0.25056604 -0.037123777 0
0.0044891844 -0.25042856 -0.035250049 0
0.0042827534 -0.25023866 -0.025019841 0
0.0050000828 -0.25052625 -0.02263505 0
0.0050000707 -0.2505109 -0.019287204 0
0.0045398613 -0.2504423 -0.016052721 0
0.0046895784 -0.25074068 -0.0045115091 0
0.0050000045 -0.25055933 -0.0012167486 0
0.0049999948 -0.25038096 0.0014866163 0
0.004606395 -0.25029519 0.0044865757 0
0.0044049812 -0.2499578 0.01500092 0
0.0047727637 -0.2504032 0.016314194 0
0.0049999305 -0.25024828 0.01940454 0
0.0049999184 -0.25071004 0.022716163 0
0.0043771658 -0.25040892 0.024882697 0
0.0042174673 -0.25075793 0.035077635 0
0.0049998662 -0.25050518 0.037232388 0
0.0049998532 -0.25041109 0.040457744 0
0.004999842 -0.25032151 0.043658283 0
0.0041216067 -0.25079185 0.045000933 0
0.0045900769 -0.25038326 0.055525079 0
0.0049997889 -0.2505092 0.058440484 0
0.0049997778 -0.25069726 0.061486293 0
0.0045754183 -0.25074935 0.064464092 0
-0.0044786679 -0.24732484 -0.064429522 0
-0.0049997778 -0.2477504 -0.061445598 0
-0.0049997885 -0.24740547 -0.058527641 0
-0.004553556 -0.24760801 -0.055623453 0
-0.0041971761 -0.24740256 -0.045091264 0
-0.0049998434 -0.24740244 -0.043377172 0
-0.0049998541 -0.24733897 -0.040397074 0
-0.0049998639 -0.2475678 -0.037609823 0
-0.0043666367 -0.24748695 -0.035190608 0
-0.004594936 -0.24744667 -0.024744781 0
-0.0049999189 -0.247563 -0.022213323 0
-0.0049999296 -0.24763697 -0.019541355 0
-0.004573598 -0.24757406 -0.01609697 0
-0.0044507487 -0.24762677 -0.0044374899 0
-0.0049999943 -0.24757572 -0.001463078 0
-0.0050000064 -0.24764617 0.0016379429 0
-0.0045299423 -0.24725768 0.0044079646 0
-0.0033225995 -0.2481391 0.015000885 0
-0.0047161644 -0.24770036 0.016036153 0
-0.0050000707 -0.24760506 0.019733246 0
-0.0050000804 -0.24714775 0.022273023 0
-0.0043515991 -0.24712496 0.024766747 0
-0.0041979784 -0.24794888 0.035095658 0
-0.0050001359 -0.24758315 0.03740672 0
-0.0050001489 -0.24741794 0.040910207 0
-0.0050001577 -0.24751574 0.043539833 0
-0.0040375465 -0.24768285 0.045000892 0
-0.0044897147 -0.24758188 0.055583972 0
-0.0050002122 -0.24784435 0.058350954 0
-0.0050002225 -0.24722052 0.061346218 0
-0.0043834471 -0.24770041 0.064414203 0
-0.0012889076 -0.24758989 -0.065099098 0
-0.0013730651 -0.24748197 -0.055099122 0
-0.0016208339 -0.24741377 -0.045099102 0
-0.0012724813 -0.24724495 -0.035099111 0
-0.0012152919 -0.24756703 -0.025099104 0
-0.0015749967 -0.24696662 -0.015099113 0
-0.0017395578 -0.24732439 -0.0049991114 0
-0.0013869641 -0.24746731 0.0050008902 0
-0.0015840807 -0.24723783 0.015000889 0
-0.0017388792 -0.24756905 0.015000888 0
-0.0017475367 -0.24763528 0.025000887 0
-0.0016561095 -0.2473989 0.03500089 0
-0.0014181698 -0.24744271 0.045000892 0
-0.001485724 -0.24776843 0.055000886 0
-0.0010981407 -0.24724033 0.065000907 0
0.0014051854 -0.2475877 -0.065099113 0
0.0014404152 -0.24728182 -0.055099107 0
0.0013952758 -0.24772538 -0.045099091 0
0.0015577867 -0.24764609 -0.035099093 0
0.0013412469 -0.24761224 -0.025099095 0
0.0015444661 -0.24759457 -0.015099099 0
0.0011961067 -0.24736218 -0.0049991007 0
0.001666968 -0.24722002 0.0050009009 0
0.0014593065 -0.2473675 0.0150009 0
0.0015180056 -0.24749017 0.015000897 0
0.0015502552 -0.24740374 0.025000894 0
0.0012404628 -0.24748519 0.035000902 0
0.0011821944 -0.24767947 0.045000911 0
0.0016574721 -0.24716406 0.055000901 0
0.0017070019 -0.24757634 0.065000914 0
0.0045930538 -0.24736065 -0.064469896 0
0.0050002248 -0.24769634 -0.061811645 0
0.0050002113 -0.24706589 -0.058405604 0
0.0043004546 -0.24751875 -0.055407435 0
0.0039520408 -0.24747302 -0.045092318 0
0.0050001587 -0.2475419 -0.04365943 0
0.0050001466 -0.24763919 -0.04032601 0
0.0050001368 -0.24727747 -0.037654318 0
0.004449599 -0.247649 -0.035198938 0
0.0042787734 -0.24737754 -0.024865204 0
0.0050000814 -0.2475989 -0.022402 0
0.0050000707 -0.2480043 -0.019573178 0
0.0045610964 -0.24762163 -0.016060581 0
0.0046301605 -0.24742268 -0.0044198893 0
0.005000005 -0.24759801 -0.0013958304 0
0.0049999957 -0.24770129 0.0014176836 0
0.0047212914 -0.24746543 0.0042720051 0
0.003655025 -0.24782316 0.015000909 0
0.0045813904 -0.24779779 0.015869075 0
0.0049999282 -0.24726562 0.019921456 0
0.0049999184 -0.24726704 0.022664286 0
0.0041093579 -0.24729702 0.024883322 0
0.0044390825 -0.24760659 0.035193432 0
0.0049998648 -0.24752897 0.037444696 0
0.0049998523 -0.24736777 0.0407423 0
0.004999843 -0.24741828 0.043607406 0
0.0040002009 -0.24727897 0.045000918 0
0.0045601679 -0.24747355 0.055572063 0
0.0049997894 -0.24740805 0.058286812 0
0.0049997782 -0.24733527 0.061373301 0
0.0045686779 -0.2473335 0.064600714 0
-0.0046286108 -0.24455342 -0.064569578 0
-0.0049997792 -0.24458268 -0.06117063 0
-0.0049997889 -0.24507038 -0.058244281 0
-0.0043766596 -0.24456701 -0.055423696 0
-0.0042517972 -0.24402697 -0.045092132 0
-0.004999843 -0.24433352 -0.043596093 0
-0.0049998527 -0.2446304 -0.040561359 0
-0.0049998644 -0.2444436 -0.037627447 0
-0.0043091536 -0.24432659 -0.035211913 0
-0.0043481737 -0.24426258 -0.024799416 0
-0.0049999179 -0.24467632 -0.022692341 0
-0.00499993 -0.24484536 -0.01949005 0
-0.0046898271 -0.24429499 -0.015975611 0
-0.0044254707 -0.24449787 -0.0045219059 0
-0.0049999957 -0.24427007 -0.0014530689 0
-0.0050000055 -0.24428025 0.0016124996 0
-0.0043223356 -0.24476109 0.0046474156 0
-0.003708452 -0.24466857 0.015000872 0
-0.004680722 -0.24456225 0.015891228 0
-0.0050000721 -0.24482094 0.01997971 0
-0.0050000804 -0.24429062 0.022379871 0
-0.0043224469 -0.24441691 0.024784066 0
-0.0041940063 -0.24460286 0.035130646 0
-0.0050001368 -0.24444781 0.037793506 0
-0.0050001461 -0.24438009 0.040353622 0
-0.0050001582 -0.2444565 0.04375995 0
-0.0042217486 -0.24464336 0.045000881 0
-0.0046065212 -0.24462312 0.05551279 0
-0.0050002136 -0.24464972 0.058841936 0
-0.0050002225 -0.24465166 0.06120785 0
-0.0046018325 -0.24447696 0.064431548 0
-0.0015208586 -0.24405983 -0.065099113 0
-0.0016537026 -0.24443993 -0.05509913 0
-0.0011631049 -0.24487838 -0.045099109 0
-0.001272496 -0.24454024 -0.035099115 0
-0.0011541585 -0.24436234 -0.025099115 0
-0.0012470661 -0.24467294 -0.01509912 0
-0.0017712764 -0.2444611 -0.0049991221 0
-0.0012074243 -0.24433185 0.00500088 0
-0.0017869642 -0.24516585 0.015000882 0
-0.0019901998 -0.24463548 0.015000879 0
-0.0016795307 -0.24454445 0.025000878 0
-0.0011252419 -0.24428883 0.035000887 0
-0.00076000195 -0.2445586 0.045000888 0
-0.0012562755 -0.24456055 0.055000886 0
-0.0014319294 -0.24417612 0.065000899 0
0.0013870299 -0.24452221 -0.065099098 0
0.0014804942 -0.24493973 -0.055099115 0
0.001417869 -0.24469779 -0.045099098 0
0.0015046393 -0.24461225 -0.035099111 0
0.0017383025 -0.24419639 -0.025099104 0
0.0016176532 -0.24464263 -0.01509911 0
0.0016291419 -0.24443227 -0.0049991095 0
0.0013940032 -0.24456602 0.0050008907 0
0.0014103923 -0.24478044 0.01500089 0
0.0019876498 -0.24436177 0.015000893 0
0.0014800421 -0.24416396 0.025000894 0
0.0017511373 -0.24438576 0.035000898 0
0.0017332317 -0.24447158 0.045000885 0
0.0015200579 -0.24440409 0.055000886 0
0.0015475062 -0.24418196 0.065000899 0
0.0044376487 -0.24449992 -0.064682864 0
0.0050002229 -0.24426484 -0.061621062 0
0.0050002132 -0.24462301 -0.058726408 0
0.0044806129 -0.24458939 -0.055597831 0
0.0039858045 -0.24437626 -0.045099102 0
0.0050001587 -0.24476749 -0.043575056 0
0.005000148 -0.24408327 -0.040848967 0
0.0050001345 -0.24490365 -0.037236158 0
0.0045360792 -0.24471039 -0.035213646 0
0.0043089609 -0.2445493 -0.024903029 0
0.0050000823 -0.24467595 -0.02248814 0
0.0050000707 -0.24461959 -0.01949645 0
0.0047028465 -0.2445478 -0.016008532 0
0.0045103459 -0.2444739 -0.0043835077 0
0.0050000069 -0.24449858 -0.001851375 0
0.0049999938 -0.24446829 0.0017655306 0
0.0043449826 -0.24445699 0.0045586824 0
0.0042554052 -0.24566279 0.015000904 0
0.0047687194 -0.24450301 0.016039453 0
0.00499993 -0.24469255 0.019456279 0
0.0049999184 -0.24470495 0.022693213 0
0.0042609493 -0.2444984 0.024964154 0
0.0044209138 -0.24448149 0.035087548 0
0.0049998634 -0.24457273 0.0378596 0
0.0049998555 -0.24412848 0.040058721 0
0.0049998439 -0.24449022 0.043333232 0
0.003807205 -0.24429336 0.045000907 0
0.0044819713 -0.24448742 0.055440623 0
0.0049997899 -0.24457772 0.058192857 0
0.0049997764 -0.24469925 0.061693043 0
0.0041082273 -0.24455491 0.06475918 0
-0.0046645035 -0.24155562 -0.064569525 0
-0.0049997778 -0.24123523 -0.061523117 0
-0.0049997894 -0.24143416 -0.058307819 0
-0.0044773063 -0.24141619 -0.055765111 0
-0.0042725112 -0.24155019 -0.045091659 0
-0.0049998439 -0.24161121 -0.043334275 0
-0.0049998537 -0.24134824 -0.040585384 0
-0.0049998644 -0.24117672 -0.037330925 0
-0.0040377388 -0.24166961 -0.035142295 0
-0.0045606261 -0.24154019 -0.024930051 0
-0.0049999189 -0.24161087 -0.022595804 0
-0.0049999305 -0.24163812 -0.019287249 0
-0.0046970462 -0.24138245 -0.015982909 0
-0.0044699665 -0.24159448 -0.0046117813 0
-0.0049999952 -0.24137527 -0.0013681373 0
-0.0050000055 -0.24145491 0.0014896689 0
-0.0045520663 -0.24166942 0.0046226564 0
-0.0046839174 -0.24137384 0.016202103 0
-0.0050000711 -0.24127533 0.019577038 0
-0.0050000809 -0.24146692 0.022506131 0
-0.00438117 -0.24137357 0.02476763 0
-0.0041118399 -0.24184862 0.035246585 0
-0.0050001368 -0.24157207 0.037532087 0
-0.0050001461 -0.24118975 0.040379971 0
-0.0050001587 -0.24124683 0.043744739 0
-0.0041814647 -0.24132735 0.045000866 0
-0.004411601 -0.24153914 0.05555794 0
-0.0050002132 -0.24153279 0.058749218 0
-0.0050002229 -0.24184488 0.06139303 0
-0.004479575 -0.24175219 0.064423099 0
-0.0015652803 -0.24139264 -0.065099128 0
-0.0014147204 -0.24161471 -0.055099126 0
-0.0014214965 -0.24163446 -0.045099121 0
-0.001492271 -0.24140154 -0.03509913 0
-0.0014908059 -0.24134587 -0.025099128 0
-0.0012625169 -0.24127066 -0.015099132 0
-0.0013026888 -0.24162112 -0.00499913 0
-0.0014252957 -0.24178253 0.0050008711 0
-0.0012875483 -0.24181597 0.01500087 0
-0.0009646028 -0.24154411 0.015000871 0
-0.0012778174 -0.2412935 0.025000874 0
-0.0014475703 -0.2416323 0.035000883 0
-0.0011951687 -0.24158327 0.045000881 0
-0.001762037 -0.24156559 0.055000868 0
-0.0011060735 -0.24192093 0.065000884 0
0.0013481958 -0.24156569 -0.065099105 0
0.0013050836 -0.24153507 -0.055099115 0
0.0014346399 -0.24157436 -0.045099109 0
0.0013785938 -0.24171144 -0.035099119 0
0.0017739472 -0.24150801 -0.025099117 0
0.0014895998 -0.24178596 -0.015099119 0
0.0015317951 -0.24131347 -0.0049991212 0
0.0015449814 -0.2416375 0.00500088 0
0.0015038527 -0.24150422 0.01500088 0
0.0011076063 -0.24154598 0.015000879 0
0.001365695 -0.24122937 0.025000883 0
0.001481468 -0.24148445 0.035000887 0
0.0017116636 -0.24161096 0.045000896 0
0.0014642094 -0.24128565 0.055000883 0
0.0012930915 -0.24177402 0.065000907 0
0.0043974887 -0.241547 -0.064555682 0
0.0050002225 -0.24146219 -0.061486669 0
0.0050002127 -0.24169031 -0.058552347 0
0.0045424383 -0.24138063 -0.055569131 0
0.0038726439 -0.24136037 -0.045099109 0
0.0050001577 -0.24158128 -0.043293789 0
0.0050001456 -0.24139354 -0.040421188 0
0.0050001382 -0.24187583 -0.037765801 0
0.0041390243 -0.24149191 -0.035269059 0
0.0044529443 -0.24176447 -0.024892803 0
0.0050000823 -0.24176866 -0.022740385 0
0.0050000721 -0.24138676 -0.019684378 0
0.004681238 -0.24140368 -0.01593053 0
0.0042377193 -0.24142207 -0.0045612482 0
0.0050000059 -0.24152295 -0.0015804727 0
0.0049999938 -0.24171436 0.0015188523 0
0.0042527933 -0.24148108 0.0047204611 0
0.0042953184 -0.24077874 0.015000886 0
0.0046503646 -0.24165095 0.01581011 0
0.0049999291 -0.24134673 0.019677056 0
0.0049999189 -0.24143797 0.022632642 0
0.0043198718 -0.2413746 0.024823025 0
0.0042644138 -0.24168411 0.035258569 0
0.0049998658 -0.24164374 0.037307594 0
0.0049998527 -0.24137174 0.040787131 0
0.0049998444 -0.2415861 0.043151934 0
0.0040711653 -0.24138305 0.0450009 0
0.0044927699 -0.24167697 0.055537697 0
0.0049997889 -0.24142899 0.058505658 0
0.0049997768 -0.24147072 0.061656788 0
0.0044065639 -0.24171694 0.064541265 0
-0.0044299457 -0.23867127 -0.064712405 0
-0.0049997768 -0.23830126 -0.06179345 0
-0.0049997899 -0.2387469 -0.058181174 0
-0.004425514 -0.23844194 -0.055421397 0
-0.0040214173 -0.23832637 -0.045099154 0
-0.004999843 -0.23824237 -0.04353961 0
-0.0049998537 -0.23835602 -0.040424034 0
-0.0049998639 -0.23848282 -0.037769578 0
-0.0041750721 -0.23836942 -0.03518825 0
-0.0043353708 -0.23865728 -0.024960328 0
-0.0049999189 -0.23820968 -0.022565816 0
-0.00499993 -0.23824103 -0.019569207 0
-0.0044772974 -0.23840694 -0.015923144 0
-0.0044707749 -0.23856488 -0.0045282147 0
-0.0049999957 -0.23835883 -0.0013511165 0
-0.0050000041 -0.23824069 0.0011821182 0
-0.0043496257 -0.23859869 0.0045431093 0
-0.0038667098 -0.23719756 0.015000843 0
-0.0045954771 -0.23856711 0.015832985 0
-0.0050000702 -0.23850904 0.019333076 0
-0.0050000814 -0.23840407 0.022547424 0
-0.0045003649 -0.23832187 0.024829809 0
-0.0041572368 -0.23832464 0.035053629 0
-0.0050001354 -0.23858465 0.037423689 0
-0.0050001456 -0.23845924 0.040278628 0
-0.0050001587 -0.2386222 0.043750115 0
-0.0038773438 -0.2383142 0.045000859 0
-0.0046579172 -0.2385381 0.0556821 0
-0.0050002113 -0.23861454 0.058539994 0
-0.0050002234 -0.23830797 0.061441086 0
-0.0046360907 -0.23871019 0.064630404 0
-0.0015468412 -0.2382046 -0.065099135 0
-0.001802541 -0.23843139 -0.055099152 0
-0.0016693448 -0.23833917 -0.045099139 0
-0.0014283831 -0.23875698 -0.035099138 0
-0.0016396304 -0.23863731 -0.025099138 0
-0.0017832472 -0.23886693 -0.015099145 0
-0.0015182786 -0.2380617 -0.0049991435 0
-0.0014664293 -0.23871081 0.005000859 0
-0.0018799745 -0.23862411 0.015000856 0
-0.0019833366 -0.2383641 0.015000856 0
-0.0015822196 -0.23819301 0.025000855 0
-0.0018125427 -0.23841904 0.035000864 0
-0.0011285068 -0.23857196 0.04500087 0
-0.0015659542 -0.2385999 0.055000857 0
-0.001598187 -0.23868509 0.065000869 0
0.0014128891 -0.23810433 -0.065099135 0
0.0015134168 -0.23851225 -0.055099126 0
0.0013699222 -0.23842782 -0.045099121 0
0.0017487906 -0.23845513 -0.035099123 0
0.0013605795 -0.23851007 -0.025099125 0
0.0013789516 -0.2382834 -0.015099135 0
0.0013364771 -0.23830765 -0.0049991324 0
0.0016717677 -0.23839609 0.0050008688 0
0.0019540088 -0.23841581 0.01500087 0
0.001434055 -0.23867874 0.015000869 0
0.0015519757 -0.23845935 0.025000867 0
0.0014530282 -0.23842533 0.035000868 0
0.0018514958 -0.2383517 0.045000885 0
0.0014085758 -0.23840566 0.055000857 0
0.0014114595 -0.23874758 0.065000892 0
0.0044627129 -0.23875786 -0.064760312 0
0.0050002229 -0.23864438 -0.061493188 0
0.0050002127 -0.23872975 -0.058592878 0
0.0045973514 -0.23874287 -0.055687886 0
0.0039911019 -0.23866323 -0.045091972 0
0.0050001591 -0.23825072 -0.04416528 0
0.005000147 -0.23848015 -0.040757589 0
0.0050001363 -0.23840412 -0.037593011 0
0.0042821309 -0.23874587 -0.035188973 0
0.004209619 -0.23819073 -0.024996679 0
0.0050000818 -0.23835994 -0.02252776 0
0.0050000707 -0.23838817 -0.019436296 0
0.0045548719 -0.23849292 -0.015992656 0
0.0045489054 -0.2385096 -0.0044814325 0
0.005000005 -0.23832607 -0.0014464749 0
0.0049999934 -0.23908187 0.001789454 0
0.00437898 -0.23829827 0.0044684988 0
0.0045010233 -0.23907779 0.015000881 0
0.0046059997 -0.23840839 0.016107153 0
0.0049999291 -0.23858154 0.019668683 0
0.0049999179 -0.23822357 0.022508876 0
0.0045724255 -0.23876126 0.024823962 0
0.0045491331 -0.23871104 0.035281472 0
0.0049998639 -0.23866686 0.037393451 0
0.0049998546 -0.23848188 0.040348288 0
0.0049998434 -0.23857047 0.043422069 0
0.0038194936 -0.23851028 0.045000888 0
0.0043709353 -0.23844625 0.05536655 0
0.0049997894 -0.23832233 0.058446709 0
0.0049997764 -0.23891725 0.062053215 0
0.0046148356 -0.23863946 0.064240143 0
-0.0045190696 -0.23550947 -0.064530946 0
-0.0049997773 -0.23575547 -0.061558317 0
-0.0049997889 -0.23527315 -0.058530238 0
-0.0045796307 -0.23558012 -0.055732731 0
-0.0045253187 -0.2348676 -0.052515507 0
-0.0044541499 -0.2349132 -0.0495243 0
-0.0040854099 -0.23530345 -0.045989268 0
-0.0049998416 -0.23561971 -0.043632358 0
-0.0049998527 -0.23552719 -0.040908936 0
-0.0049998644 -0.23556918 -0.037556443 0
-0.0044864221 -0.23542769 -0.034672834 0
-0.0044850865 -0.23495342 -0.031477235 0
-0.0046663806 -0.23486446 -0.028508073 0
-0.0045566601 -0.23530591 -0.025255641 0
-0.0049999193 -0.23534842 -0.02225125 0
-0.0049999277 -0.23554784 -0.019759431 0
-0.004868621 -0.23550116 -0.015922831 0
-0.004198913 -0.23508477 -0.01350576 0
-0.0044541499 -0.23487367 -0.010957325 0
-0.0044332668 -0.23505291 -0.0074982122 0
-0.0046029072 -0.23566853 -0.0047156215 0
-0.0049999948 -0.23566236 -0.0015931183 0
-0.0050000073 -0.23539834 0.0017512655 0
-0.0045698136 -0.23550402 0.0048073358 0
-0.0042720279 -0.23499864 0.0077499948 0
-0.0042286189 -0.23512898 0.010498285 0
-0.0043286975 -0.23488693 0.013515959 0
-0.0048578186 -0.23556206 0.01614923 0
-0.0050000707 -0.23544711 0.019483469 0
-0.0050000832 -0.23529108 0.022830654 0
-0.004281566 -0.23542425 0.025232617 0
-0.0046198871 -0.23483963 0.028469538 0
-0.0042085559 -0.23509361 0.031299084 0
-0.0043803062 -0.23537652 0.034812599 0
-0.0050001363 -0.23552676 0.037552383 0
-0.0050001475 -0.23552777 0.040459562 0
-0.0050001573 -0.23551665 0.043565121 0
-0.0044457372 -0.23524463 0.045992762 0
-0.0040918924 -0.23501566 0.049522653 0
-0.0043821041 -0.23490462 0.052605204 0
-0.0045448886 -0.23558351 0.055341311 0
-0.0050002141 -0.23567858 0.058907494 0
-0.005000222 -0.2356295 0.061192479 0
-0.0042931908 -0.23524246 0.064476609 0
-0.0016015783 -0.23583032 -0.06509915 0
-0.0016328921 -0.23586516 -0.054955758 0
-0.001651652 -0.23520015 -0.052126981 0
-0.0017023596 -0.23520015 -0.049186833 0
-0.0016704515 -0.23555309 -0.046086863 0
-0.0016910211 -0.23560792 -0.034575835 0
-0.0016212822 -0.23520009 -0.031658448 0
-0.0015149942 -0.23520008 -0.02861964 0
-0.0014914741 -0.23570743 -0.025606554 0
-0.0017273483 -0.23599863 -0.0150941 0
-0.0019736267 -0.23520002 -0.013375511 0
-0.0016175596 -0.23520003 -0.010382641 0
-0.00098849717 -0.23520002 -0.0073963674 0
-0.0014491011 -0.23586519 -0.0051404773 0
-0.0016725647 -0.23592533 0.0051485915 0
-0.001424027 -0.23519994 0.0073407246 0
-0.001680946 -0.23519993 0.010729386 0
-0.0015305982 -0.23546498 0.013757371 0
-0.0015805038 -0.23622912 0.01500085 0
-0.001597343 -0.2356084 0.025344685 0
-0.0017407201 -0.23519987 0.028416136 0
-0.0017355219 -0.23519984 0.031302791 0
-0.0013865528 -0.23560767 0.034460049 0
-0.0016732556 -0.23556179 0.045782391 0
-0.001419017 -0.23519979 0.049695224 0
-0.0015549385 -0.23519978 0.052449275 0
-0.001624099 -0.23573369 0.054755971 0
-0.0012692824 -0.23558991 0.065000862 0
0.0012782536 -0.23538236 -0.065099135 0
0.0015694681 -0.23592971 -0.054875869 0
0.001229304 -0.23520017 -0.052115604 0
0.001354826 -0.23520015 -0.049381297 0
0.0014464932 -0.23553944 -0.046176299 0
0.0014665762 -0.23551254 -0.0342566 0
0.0016724155 -0.23520009 -0.031618934 0
0.0019103024 -0.23520011 -0.028472943 0
0.0016938159 -0.23554526 -0.025634047 0
0.0014969197 -0.23607542 -0.015099141 0
0.0012036229 -0.23520002 -0.013531039 0
0.0013038411 -0.23520002 -0.01054832 0
0.001472428 -0.2352 -0.0071048662 0
0.0013963929 -0.23572436 -0.0051811528 0
0.0016267691 -0.23549075 0.0052770115 0
0.0015673789 -0.23519997 0.0075075291 0
0.0014135613 -0.23519993 0.010384854 0
0.0015642189 -0.23523383 0.013664381 0
0.0015960195 -0.2362518 0.015000861 0
0.0018134871 -0.23552868 0.025258195 0
0.0013764676 -0.23519985 0.028400837 0
0.0016023691 -0.23519985 0.031348076 0
0.0015814702 -0.23563203 0.034475606 0
0.001560139 -0.23548566 0.046304256 0
0.0017243014 -0.23519981 0.049624633 0
0.0017698235 -0.23519979 0.052643664 0
0.0012103544 -0.23571263 0.054867744 0
0.0014351842 -0.23544016 0.065000869 0
0.0043404098 -0.23569332 -0.064740546 0
0.0050002225 -0.23536861 -0.061396316 0
0.0050002108 -0.235429 -0.058235716 0
0.0045888564 -0.23549376 -0.05517922 0
0.0044209538 -0.23503457 -0.052423086 0
0.0046025794 -0.23481187 -0.049611114 0
0.0042438698 -0.23531038 -0.046154175 0
0.0050001587 -0.2355358 -0.043777715 0
0.005000147 -0.23574561 -0.040412746 0
0.0050001363 -0.235513 -0.037690334 0
0.0044104955 -0.23533241 -0.034747064 0
0.0045013097 -0.23490158 -0.031246496 0
0.004461457 -0.23488687 -0.028502578 0
0.0043554418 -0.23547369 -0.025484813 0
0.0050000809 -0.23554237 -0.022155937 0
0.0050000707 -0.23565307 -0.019377155 0
0.0048575741 -0.23570265 -0.016100852 0
0.0043841782 -0.23500936 -0.013539779 0
0.0043814797 -0.23494613 -0.010562818 0
0.0043287738 -0.23503718 -0.0073222928 0
0.0046937284 -0.23568143 -0.0046612835 0
0.0050000055 -0.23571798 -0.001488107 0
0.0049999966 -0.2353007 0.0011684286 0
0.0044112084 -0.23567402 0.0048476113 0
0.0044555501 -0.23495775 0.0076257298 0
0.004500716 -0.23496847 0.010350381 0
0.0042144735 -0.23505157 0.01338327 0
0.0047199968 -0.23570369 0.016129714 0
0.0049999305 -0.23549131 0.019339802 0
0.0049999184 -0.23537666 0.02271769 0
0.0043153442 -0.23549689 0.025396075 0
0.0043120277 -0.2347845 0.028656591 0
0.0043168408 -0.23490407 0.031554922 0
0.0042409608 -0.23541425 0.034651831 0
0.0049998658 -0.23556061 0.036978059 0
0.0049998541 -0.23533857 0.040541898 0
0.0049998416 -0.23543847 0.043707982 0
0.004201374 -0.23551294 0.045789339 0
0.0043699532 -0.23497696 0.049340919 0
0.0042482777 -0.23506877 0.052106094 0
0.0045075924 -0.23562984 0.055258725 0
0.0049997894 -0.23549306 0.058286317 0
0.0049997782 -0.23531285 0.061524484 0
0.0045429762 -0.23537312 0.064492546 0
-0.0045700776 -0.23251359 -0.064396985 0
-0.0049997778 -0.23256367 -0.061591517 0
-0.0049997894 -0.23222451 -0.058212735 0
-0.0049997997 -0.23223849 -0.055402517 0
-0.0049998118 -0.23242243 -0.0521942 0
-0.0049998201 -0.23263057 -0.049639642 0
-0.0049998323 -0.23211083 -0.046432976 0
