# .PCD v0.7 - Point Cloud Data file format
VERSION 0.7
FIELDS x y z rgb
SIZE 4 4 4 4
TYPE F F F F
COUNT 1 1 1 1
WIDTH 1194
HEIGHT 1
VIEWPOINT 0 0 0 1 0 0 0
POINTS 1194
DATA ascii
0.0050000059 -0.24766617 -0.0015890995 0
0.0049999962 -0.24751315 0.0012879488 0
0.0044854893 -0.24756242 0.0045014005 0
0.0038490344 -0.24736945 0.015000909 0
0.0045608995 -0.24769688 0.015912782 0
0.0049999305 -0.24729657 0.019486902 0
0.0049999184 -0.24729715 0.022581754 0
0.0043820296 -0.24772422 0.02486725 0
0.0041692578 -0.24732476 0.035162795 0
0.0049998653 -0.24753588 0.037393432 0
0.0049998537 -0.24740052 0.040482461 0
0.0049998434 -0.24723542 0.043501399 0
0.0041127815 -0.24743475 0.045000918 0
-0.0040962761 -0.24461691 -0.045098707 0
-0.0049998425 -0.24443978 -0.043312892 0
-0.0049998546 -0.24479862 -0.040325109 0
-0.0049998648 -0.2446015 -0.037601534 0
-0.0044876533 -0.24456933 -0.035272893 0
-0.0044899643 -0.24467333 -0.024898404 0
-0.0049999184 -0.24458101 -0.022702169 0
-0.004999931 -0.24477103 -0.019280389 0
-0.0045495313 -0.2443943 -0.016031377 0
-0.0045225187 -0.24463785 -0.0045323689 0
-0.0049999952 -0.24437132 -0.001536986 0
-0.0050000045 -0.24461618 0.0014006236 0
-0.0045025474 -0.2445356 0.0045447606 0
-0.0039500627 -0.24469221 0.015000872 0
-0.0046942928 -0.24448864 0.015947649 0
-0.0050000697 -0.24459565 0.019674219 0
-0.0050000818 -0.24482383 0.022675481 0
-0.0042902525 -0.24445985 0.024868844 0
-0.0043919617 -0.24436072 0.035216842 0
-0.0050001363 -0.24438107 0.037555169 0
-0.0050001461 -0.24434203 0.040544905 0
-0.0050001587 -0.24485062 0.043792631 0
-0.0040960293 -0.2443012 0.045000877 0
-0.0015048448 -0.24453571 -0.045099102 0
-0.0015070626 -0.24449365 -0.035099115 0
-0.0014959914 -0.24453188 -0.025099117 0
-0.001637939 -0.24455817 -0.015099121 0
-0.0016424534 -0.24472085 -0.0049991212 0
-0.0015599929 -0.2450023 0.0050008823 0
-0.0013110646 -0.24423715 0.01500088 0
-0.0017457249 -0.24449454 0.015000874 0
-0.0015603219 -0.24431749 0.025000868 0
-0.0013111585 -0.24434169 0.03500089 0
-0.0015891313 -0.24449144 0.045000874 0
0.0016646679 -0.24442035 -0.045099098 0
0.0013368581 -0.24456339 -0.035099108 0
0.0014328669 -0.24505763 -0.025099104 0
0.0013709553 -0.24456221 -0.015099111 0
0.0016252835 -0.24456282 -0.0049991086 0
0.0016344545 -0.24442846 0.0050008898 0
0.00134559 -0.24507156 0.015000891 0
0.0015943649 -0.24443749 0.015000893 0
0.0014588307 -0.24440481 0.025000881 0
0.0017619452 -0.2441574 0.035000902 0
0.0014318472 -0.24447604 0.0450009 0
0.0039407923 -0.24460497 -0.045099091 0
0.0050001568 -0.24467261 -0.043403935 0
0.0050001466 -0.24468599 -0.040502496 0
0.0050001359 -0.24440145 -0.037512209 0
0.0042560003 -0.24417625 -0.035301354 0
0.0043243524 -0.24441896 -0.024947917 0
0.0050000809 -0.24441825 -0.022511749 0
0.0050000711 -0.24439292 -0.01949227 0
0.0044362559 -0.24433416 -0.015694851 0
0.0044205859 -0.24482596 -0.0045880042 0
0.005000005 -0.24467993 -0.0015660467 0
0.0049999929 -0.24445201 0.0016254194 0
0.0044151517 -0.24442224 0.0045589707 0
0.0038562424 -0.24466248 0.0150009 0
0.0046370653 -0.2445281 0.016071333 0
0.0049999291 -0.24435434 0.019369565 0
0.0049999165 -0.24473007 0.022932602 0
0.0046917433 -0.2445614 0.024743315 0
0.0043489351 -0.24432966 0.035178732 0
0.0049998644 -0.24448286 0.037538122 0
0.0049998527 -0.24441753 0.040524777 0
0.004999843 -0.244707 0.043514844 0
0.0040412517 -0.24443366 0.045000914 0
-0.0039423564 -0.24155056 -0.045099143 0
-0.0049998434 -0.24150001 -0.043401562 0
-0.0049998537 -0.2413743 -0.040419038 0
-0.0049998634 -0.24172188 -0.03758331 0
-0.0043223612 -0.24129547 -0.035203006 0
-0.0043032286 -0.24134196 -0.024921807 0
-0.0049999198 -0.24150024 -0.022283901 0
-0.0049999282 -0.24125308 -0.019548036 0
-0.0044932403 -0.24150938 -0.015807491 0
-0.0044608968 -0.24160151 -0.0046830704 0
-0.0049999952 -0.24180453 -0.001436475 0
-0.0050000059 -0.24154316 0.0013965184 0
-0.0043297242 -0.24130996 0.0045769471 0
-0.0043527875 -0.24131452 0.015000857 0
-0.0046694307 -0.24139445 0.016091831 0
-0.0050000707 -0.24131879 0.019429322 0
-0.0050000809 -0.24143645 0.022466954 0
-0.0040722732 -0.24182849 0.024828296 0
-0.0043677841 -0.24151404 0.035169531 0
-0.0050001354 -0.24172716 0.037525803 0
-0.0050001466 -0.24156785 0.040473111 0
-0.0050001587 -0.24150603 0.043740395 0
-0.0039800848 -0.24174584 0.04500087 0
-0.0013261187 -0.24138051 -0.045099113 0
-0.0014687863 -0.24169287 -0.035099126 0
-0.0018696375 -0.24153921 -0.025099128 0
-0.0014466 -0.24160801 -0.015099132 0
-0.00097948301 -0.24148771 -0.0049991296 0
-0.0012496673 -0.24150923 0.0050008697 0
-0.0014877147 -0.24118155 0.015000866 0
-0.0015802077 -0.24155162 0.015000864 0
-0.0016193154 -0.24151173 0.025000865 0
-0.0014982575 -0.24133983 0.035000879 0
-0.0013444847 -0.24116524 0.045000881 0
0.0015690016 -0.24166974 -0.045099106 0
0.0012880863 -0.24135222 -0.035099123 0
0.0016036802 -0.24168889 -0.025099114 0
0.0014787674 -0.24123785 -0.015099122 0
0.0014770644 -0.2416078 -0.0049991203 0
0.0015036716 -0.24143639 0.00500088 0
0.00098077708 -0.24076536 0.015000874 0
0.0015455508 -0.2413387 0.015000878 0
0.0014668406 -0.24127218 0.025000876 0
0.001625578 -0.24142453 0.03500089 0
0.0014783175 -0.24137013 0.04500087 0
0.0041524051 -0.24153644 -0.045096658 0
0.0050001559 -0.24156108 -0.043442588 0
0.0050001484 -0.24165453 -0.040734746 0
0.0050001368 -0.24174978 -0.037679479 0
0.004117744 -0.24166425 -0.035242055 0
0.0043932213 -0.24158354 -0.024840666 0
0.0050000814 -0.24142903 -0.02259649 0
0.0050000693 -0.24128635 -0.019441634 0
0.0045269271 -0.24140607 -0.015893288 0
0.0045800908 -0.24157183 -0.0045253923 0
0.0050000064 -0.24178442 -0.0015265701 0
0.0049999943 -0.24161176 0.0017484998 0
0.0046327193 -0.24148434 0.004333653 0
0.0038449026 -0.24162513 0.015000887 0
0.0046998719 -0.24166602 0.016220754 0
0.00499993 -0.24145275 0.019342721 0
0.0049999193 -0.24126028 0.022439178 0
0.0046010483 -0.24133 0.024766693 0
0.0043172864 -0.24140412 0.035145093 0
0.0049998648 -0.24150372 0.037582517 0
0.0049998527 -0.24142081 0.040808201 0
0.0049998425 -0.2413605 0.04364704 0
0.0040936451 -0.24160585 0.0450009 0
-0.0038998537 -0.23866263 -0.045099147 0
-0.0049998434 -0.23845525 -0.04352846 0
-0.0049998532 -0.23876399 -0.040418014 0
-0.0049998644 -0.23861334 -0.037574328 0
-0.0043526324 -0.23844647 -0.035246953 0
-0.004354219 -0.23850839 -0.024882087 0
-0.0049999179 -0.2386419 -0.02276806 0
-0.0049999291 -0.23834214 -0.019483594 0
-0.0046421154 -0.23861247 -0.016044611 0
-0.0045607565 -0.23856342 -0.0045298501 0
-0.0049999934 -0.23864321 -0.0014922473 0
-0.0050000059 -0.23896182 0.0015832725 0
-0.0044987579 -0.23838781 0.0045878147 0
-0.0038624376 -0.23838001 0.015000848 0
-0.0046985778 -0.23866698 0.016040338 0
-0.0050000711 -0.23861684 0.019572923 0
-0.0050000818 -0.2385896 0.022512376 0
-0.0043178913 -0.23861302 0.02489109 0
-0.0043332963 -0.23866363 0.035182364 0
-0.0050001368 -0.23846665 0.037623372 0
-0.0050001475 -0.23870164 0.040691167 0
-0.0050001577 -0.23831297 0.043469857 0
-0.0040956959 -0.2382762 0.045000859 0
-0.0016955719 -0.23869301 -0.045099135 0
-0.0013444498 -0.23853736 -0.035099138 0
-0.0016022262 -0.2383718 -0.02509914 0
-0.0016772216 -0.23847985 -0.015099145 0
-0.0019568517 -0.23834367 -0.0049991449 0
-0.0015233954 -0.23843688 0.0050008572 0
-0.00093451806 -0.23846981 0.015000859 0
-0.0015630517 -0.23840295 0.015000857 0
-0.0014537745 -0.23840065 0.02500085 0
-0.0014893672 -0.23859215 0.035000864 0
-0.0014971263 -0.23856667 0.045000851 0
0.001358994 -0.23851132 -0.045099117 0
0.0015946717 -0.23842444 -0.03509913 0
0.0014124092 -0.23847643 -0.025099127 0
0.0017541788 -0.23867095 -0.015099131 0
0.0015425243 -0.23849176 -0.0049991314 0
0.0015642578 -0.23841593 0.0050008688 0
0.0012486491 -0.23792833 0.015000866 0
0.0015974847 -0.23855481 0.015000866 0
0.0017059246 -0.23843648 0.025000859 0
0.0014305286 -0.23858763 0.035000868 0
0.0016484729 -0.2383645 0.045000881 0
0.0037910042 -0.23845999 -0.045099109 0
0.0050001564 -0.23825811 -0.043442287 0
0.005000147 -0.23831512 -0.040450461 0
0.0050001354 -0.23881991 -0.037371956 0
0.0043770797 -0.23897411 -0.035322152 0
0.004389008 -0.23821269 -0.02488615 0
0.0050000832 -0.23871633 -0.022757975 0
0.0050000702 -0.23843643 -0.019430006 0
0.0045801057 -0.2385325 -0.016013242 0
0.0045635612 -0.2384817 -0.0044833673 0
0.0050000064 -0.23833421 -0.0017892192 0
0.0049999948 -0.23868863 0.0013799313 0
0.0045484263 -0.23857558 0.0045579285 0
0.0034454304 -0.23887618 0.015000875 0
0.0044297674 -0.23864526 0.015608635 0
0.0049999305 -0.23856081 0.01939388 0
0.0049999184 -0.23817597 0.022361355 0
0.004104957 -0.23828529 0.024811024 0
0.004437637 -0.23836391 0.035308458 0
0.0049998644 -0.23830821 0.037126657 0
0.0049998523 -0.23861444 0.040652301 0
0.0049998416 -0.23870504 0.043738041 0
0.0040523345 -0.23805852 0.045000885 0
-0.0041512717 -0.2353934 -0.045099154 0
-0.0049998434 -0.23521845 -0.043451045 0
-0.0049998532 -0.2353394 -0.040318105 0
-0.0049998653 -0.2354748 -0.037293747 0
-0.0045301272 -0.2352981 -0.034532797 0
-0.0044088168 -0.23503669 -0.031818982 0
-0.0041565127 -0.23505019 -0.028251659 0
-0.0043188017 -0.23558067 -0.025452835 0
-0.0049999193 -0.235213 -0.022431355 0
-0.004999931 -0.23579159 -0.019319877 0
-0.004604572 -0.23568997 -0.016054546 0
-0.004316004 -0.23500782 -0.013336505 0
-0.0041935598 -0.23499288 -0.010452418 0
-0.0043392391 -0.23505762 -0.0074930117 0
-0.0045769433 -0.23549068 -0.0044852113 0
-0.0049999938 -0.23540859 -0.0018385515 0
-0.0050000055 -0.23572053 0.0013833167 0
-0.0044688252 -0.23547757 0.0047252178 0
-0.0044194604 -0.23492792 0.0075453855 0
-0.0044283816 -0.23493047 0.0104174 0
-0.004153118 -0.23513418 0.013589641 0
-0.0047571585 -0.23548822 0.015952025 0
-0.0050000707 -0.23572481 0.019259617 0
-0.0050000814 -0.23552459 0.022383044 0
-0.0044715991 -0.23551081 0.025451252 0
-0.0047049588 -0.23483546 0.028684724 0
-0.0042201397 -0.23495753 0.031522729 0
-0.0044561056 -0.23528346 0.034630705 0
-0.0050001359 -0.23564075 0.037494492 0
-0.0050001466 -0.23525326 0.040385913 0
-0.0050001568 -0.23547632 0.043119039 0
-0.0037746257 -0.2358171 0.045000847 0
-0.0012554699 -0.23540933 -0.045099135 0
-0.0014752081 -0.2356901 -0.03448027 0
-0.001719092 -0.23520009 -0.031289782 0
-0.0013775812 -0.23520006 -0.02843496 0
-0.0014898526 -0.23576494 -0.025414502 0
-0.0011540541 -0.23608935 -0.015092873 0
-0.00094540283 -0.23520002 -0.013452494 0
-0.001577062 -0.23519999 -0.01031625 0
-0.0012388621 -0.23519999 -0.0072768051 0
-0.0013749748 -0.23586087 -0.0051955972 0
-0.0016971569 -0.23596135 0.0051105302 0
-0.0012371688 -0.23519993 0.0075653 0
-0.0014712227 -0.23519991 0.010301 0
-0.0014924817 -0.23532571 0.01370302 0
-0.0012012291 -0.23608463 0.015000851 0
-0.001668025 -0.23553844 0.025537826 0
-0.0014737921 -0.23519985 0.028664583 0
-0.0019012211 -0.23519985 0.031518381 0
-0.0015220467 -0.2357697 0.034579221 0
-0.0015751651 -0.23550661 0.045000859 0
0.0012665859 -0.23530176 -0.045099132 0
0.001414945 -0.23540306 -0.034211531 0
0.0013920777 -0.23520009 -0.031085171 0
0.0012615981 -0.23520008 -0.028510567 0
0.0015025146 -0.23562971 -0.02563028 0
0.0019215497 -0.2361422 -0.015096389 0
0.001395979 -0.2352 -0.013569454 0
0.001749968 -0.23520002 -0.010489548 0
0.0014579272 -0.23519999 -0.0074511184 0
0.0013303939 -0.2358613 -0.0052205604 0
0.0012503914 -0.23580177 0.0051602256 0
0.00097663258 -0.23519993 0.0073796776 0
0.0014429399 -0.23519991 0.010383225 0
0.0013636634 -0.23527257 0.013573382 0
0.0015902885 -0.23586532 0.01500086 0
0.0013969856 -0.23563471 0.02552082 0
0.0013555976 -0.23519985 0.028504876 0
0.0014879497 -0.23519985 0.031301711 0
0.0014460721 -0.23550448 0.034465656 0
0.0018688228 -0.23537596 0.04500087 0
0.0038949063 -0.23575044 -0.045099132 0
0.0050001577 -0.2349394 -0.043442264 0
0.005000148 -0.23534018 -0.040477626 0
0.0050001354 -0.23556511 -0.037049197 0
0.0041925763 -0.23537792 -0.034644801 0
0.0043864623 -0.23498833 -0.03160505 0
0.0044460054 -0.23492183 -0.028352112 0
0.0044812812 -0.23551245 -0.02542966 0
0.0050000823 -0.23517375 -0.022593956 0
0.0050000688 -0.23521605 -0.019216472 0
0.0046650623 -0.235972 -0.016203208 0
0.0043515442 -0.23490593 -0.013534949 0
0.0042434707 -0.23509927 -0.010360175 0
0.0044074631 -0.23492046 -0.0073639862 0
0.004530468 -0.23563948 -0.0047049234 0
0.0050000059 -0.23573436 -0.0014195003 0
0.0049999952 -0.23574665 0.0013626397 0
0.0045042825 -0.23558563 0.0046152053 0
0.0046758 -0.23491222 0.0072483798 0
0.0043131015 -0.23496033 0.010523695 0
0.0044924403 -0.23499179 0.013567374 0
0.0047677611 -0.23576567 0.016023867 0
0.0049999291 -0.23541649 0.019687673 0
0.0049999198 -0.23546335 0.022187946 0
0.0045002429 -0.23540585 0.025351793 0
0.0045735165 -0.23481607 0.028740522 0
0.0043998077 -0.23504105 0.031628404 0
0.0042739571 -0.23524335 0.034584187 0
0.004999863 -0.2354455 0.038002986 0
0.0049998537 -0.23535202 0.040401634 0
0.0049998416 -0.23570171 0.043915741 0
0.0039435583 -0.23537384 0.045000877 0
-0.0041297134 -0.23235995 -0.045090873 0
-0.0049998444 -0.23209737 -0.043310501 0
-0.0049998527 -0.23253919 -0.040550034 0
-0.0049998644 -0.23245434 -0.037288595 0
-0.0049998737 -0.2324169 -0.034492936 0
-0.0049998853 -0.23235236 -0.031414639 0
-0.0049998979 -0.23283307 -0.028114324 0
-0.0049999072 -0.23246896 -0.025414173 0
-0.0049999198 -0.23226988 -0.022271883 0
-0.0049999296 -0.23254772 -0.019552916 0
-0.0049999394 -0.23257427 -0.016564684 0
-0.0049999501 -0.23271035 -0.013861858 0
-0.0049999612 -0.23260486 -0.010422674 0
-0.0049999729 -0.23282143 -0.0074248877 0
-0.0049999845 -0.2324525 -0.0043928842 0
-0.0049999957 -0.23232608 -0.0014526491 0
-0.0050000041 -0.23245332 0.0014253152 0
-0.0050000171 -0.23256828 0.0045819962 0
-0.0050000283 -0.23245309 0.0075396285 0
-0.0050000381 -0.23235698 0.010516052 0
-0.0050000492 -0.23226412 0.013497753 0
-0.0050000604 -0.23246232 0.016642636 0
-0.0050000697 -0.2326107 0.019470464 0
-0.0050000823 -0.23236777 0.022688715 0
-0.0050000926 -0.2321443 0.02557891 0
-0.0050001028 -0.23249628 0.028583556 0
-0.0050001144 -0.23256658 0.031431459 0
-0.0050001265 -0.23251876 0.034758307 0
-0.0050001359 -0.23248219 0.03760739 0
-0.0050001466 -0.23231451 0.040384967 0
-0.0050001568 -0.23232 0.043604739 0
-0.0041108811 -0.23258738 0.045000836 0
-0.0015395466 -0.23236032 -0.04509915 0
-0.0014914958 -0.23246117 0.045000847 0
0.0018511432 -0.23250489 -0.045099139 0
0.0016602533 -0.23255385 0.045000859 0
0.0040107057 -0.23232789 -0.045099139 0
0.0050001582 -0.23268731 -0.04350242 0
0.0050001452 -0.23268567 -0.040453333 0
0.0050001354 -0.23255789 -0.037142448 0
0.0050001252 -0.23248027 -0.034622222 0
0.0050001154 -0.23268841 -0.031684991 0
0.0050001023 -0.23263513 -0.028373281 0
0.005000094 -0.23241293 -0.02586999 0
0.0050000814 -0.23250346 -0.022329789 0
0.0050000702 -0.23265818 -0.019499648 0
0.0050000604 -0.23265985 -0.016585682 0
0.0050000492 -0.23248081 -0.013502462 0
0.0050000381 -0.23242822 -0.010655221 0
0.005000026 -0.23254034 -0.0073857862 0
0.0050000167 -0.23213263 -0.0044247084 0
0.0050000059 -0.23243509 -0.0015537987 0
0.0049999952 -0.23225841 0.0014939778 0
0.0049999836 -0.23273991 0.0045998152 0
0.0049999729 -0.23255479 0.0074138246 0
0.0049999622 -0.23254192 0.01034671 0
0.0049999515 -0.2325871 0.013466954 0
0.0049999394 -0.2323066 0.016344218 0
0.00499993 -0.23227306 0.019239835 0
0.0049999198 -0.23233831 0.022269731 0
0.0049999082 -0.23240605 0.025480365 0
0.0049998965 -0.23253594 0.02851416 0
0.0049998877 -0.23233545 0.031212268 0
0.0049998737 -0.23240867 0.034555845 0
0.0049998644 -0.23263456 0.037619386 0
0.0049998532 -0.23254862 0.040634606 0
0.0049998439 -0.23260424 0.043400243 0
0.0036925881 -0.23253179 0.04500087 0
-0.0040410487 -0.22962782 -0.04509785 0
-0.0049998444 -0.22967237 -0.04313438 0
-0.0049998546 -0.22979316 -0.040331043 0
-0.0049998648 -0.22987932 -0.037497729 0
-0.004999877 -0.22935085 -0.034235939 0
-0.0049998863 -0.22969989 -0.031619903 0
-0.0049998974 -0.22953057 -0.028384447 0
-0.0049999082 -0.22934517 -0.025348105 0
-0.0049999184 -0.22941197 -0.022500187 0
-0.00499993 -0.22964107 -0.019580368 0
-0.0049999407 -0.2296419 -0.016538857 0
-0.0049999515 -0.22944175 -0.013336198 0
-0.0049999622 -0.22967128 -0.010619329 0
-0.0049999738 -0.22985785 -0.0074870121 0
-0.0049999845 -0.22966647 -0.0044920794 0
-0.0049999934 -0.22937897 -0.0015113271 0
-0.0050000041 -0.22933577 0.0013083314 0
-0.0050000167 -0.22943634 0.0046986132 0
-0.0050000278 -0.22959471 0.0075581986 0
-0.0050000395 -0.22928129 0.010627449 0
-0.0050000525 -0.22949395 0.014262461 0
-0.0050000595 -0.22948882 0.016268345 0
-0.0050000697 -0.2293821 0.019359255 0
-0.0050000809 -0.22971106 0.022440713 0
-0.005000093 -0.22916782 0.025475258 0
-0.0050001042 -0.22945429 0.028680747 0
-0.0050001144 -0.22962263 0.03173257 0
-0.0050001265 -0.2294945 0.034829222 0
-0.0050001349 -0.22951196 0.037310198 0
-0.005000147 -0.22947361 0.040368415 0
-0.0050001596 -0.22946477 0.043869555 0
-0.0039353133 -0.22952686 0.045000829 0
-0.0012763405 -0.22943501 -0.045099162 0
-0.0015770841 -0.22981396 0.045000836 0
0.0012749297 -0.22968741 -0.04509915 0
0.0015886186 -0.22927219 0.045000836 0
0.0040621934 -0.22947675 -0.045095991 0
0.0050001564 -0.22925955 -0.043247558 0
0.0050001461 -0.22943792 -0.040309574 0
0.0050001349 -0.22946076 -0.037550036 0
0.0050001238 -0.22930597 -0.034455672 0
0.005000113 -0.22943804 -0.031414706 0
0.0050001042 -0.22955194 -0.02859533 0
0.0050000926 -0.22947244 -0.025452996 0
0.0050000823 -0.22965963 -0.022458261 0
0.0050000707 -0.22933242 -0.019290738 0
0.00500006 -0.22927116 -0.016423391 0
0.0050000497 -0.22972496 -0.013619281 0
0.005000039 -0.22960272 -0.010500482 0
0.005000026 -0.22943737 -0.0073900255 0
0.0050000153 -0.22935341 -0.0044870866 0
0.0050000069 -0.22950701 -0.0017440571 0
0.0049999934 -0.2294009 0.0014868927 0
0.0049999831 -0.22949988 0.00452021 0
0.0049999733 -0.22934256 0.0072594909 0
0.0049999608 -0.22962038 0.010735271 0
0.0049999515 -0.22948909 0.013277411 0
0.0049999403 -0.22938138 0.016345171 0
0.00499993 -0.22958627 0.019392254 0
0.004999917 -0.22921032 0.022448745 0
0.0049999091 -0.22918583 0.025393115 0
0.0049998984 -0.22927089 0.028281163 0
0.0049998863 -0.2295979 0.031497136 0
0.0049998751 -0.22887349 0.034768276 0
0.004999863 -0.22943801 0.03768428 0
0.0049998527 -0.22944324 0.040594522 0
0.0049998425 -0.22958787 0.043390591 0
0.0039234892 -0.22920181 0.045000859 0
-0.0039156736 -0.22619002 -0.045097824 0
-0.0049998434 -0.22662275 -0.043523956 0
-0.0049998537 -0.22649835 -0.04065695 0
-0.0049998634 -0.22641937 -0.03748057 0
-0.0049998746 -0.22633374 -0.034512967 0
-0.0049998858 -0.22695571 -0.031662796 0
-0.0049998984 -0.22658888 -0.028179638 0
-0.0049999082 -0.22651069 -0.025230883 0
-0.0049999179 -0.22671011 -0.0226121 0
-0.0049999291 -0.22638753 -0.019619791 0
-0.0049999407 -0.22661375 -0.016403997 0
-0.0049999524 -0.22647776 -0.013338651 0
-0.0049999612 -0.22633894 -0.010496913 0
-0.004999971 -0.22632669 -0.0078246687 0
-0.0049999845 -0.22671202 -0.0043887808 0
-0.0049999957 -0.22655696 -0.0013401682 0
-0.0050000064 -0.22642931 0.0015346347 0
-0.0050000167 -0.22639517 0.0045722565 0
-0.0050000264 -0.22646081 0.0075923465 0
-0.0050000395 -0.22645438 0.010837867 0
-0.0050000497 -0.22640376 0.013475874 0
-0.0050000595 -0.2265282 0.016534131 0
-0.0050000697 -0.2263294 0.019133313 0
-0.0050000818 -0.22634912 0.022409517 0
-0.0050000907 -0.22645238 0.025007572 0
-0.0050001037 -0.22651459 0.028454661 0
-0.005000114 -0.22642213 0.031374309 0
-0.0050001247 -0.22668242 0.034564339 0
-0.0050001368 -0.22636721 0.037656963 0
-0.0050001456 -0.22674681 0.040329732 0
-0.0050001573 -0.22632656 0.043556541 0
-0.0038913072 -0.22622536 0.045000814 0
-0.0015666627 -0.22622693 -0.04509918 0
-0.0013715868 -0.22660452 0.04500081 0
0.001195068 -0.22627573 -0.045099165 0
0.0014497857 -0.22662449 0.045000821 0
0.0037876507 -0.22625639 -0.045099158 0
0.0050001582 -0.22654326 -0.04360937 0
0.0050001461 -0.22638589 -0.040513817 0
0.0050001363 -0.22622459 -0.037645105 0
0.0050001256 -0.22646594 -0.034803662 0
0.0050001149 -0.22688551 -0.031642552 0
0.0050001042 -0.22653177 -0.028649366 0
0.0050000926 -0.22641112 -0.025487274 0
0.0050000809 -0.22659007 -0.022363866 0
0.0050000711 -0.2264933 -0.019440489 0
0.0050000614 -0.22644347 -0.016722137 0
0.0050000488 -0.22632065 -0.013385613 0
0.0050000381 -0.22643995 -0.010387544 0
0.0050000269 -0.22648308 -0.0076154075 0
0.0050000171 -0.22654882 -0.004589533 0
0.005000005 -0.22640681 -0.0013474987 0
0.0049999938 -0.22670105 0.0014474973 0
0.0049999836 -0.22637323 0.0046984539 0
0.0049999738 -0.22637229 0.0073770611 0
0.004999964 -0.22649767 0.010158407 0
0.0049999519 -0.22622441 0.013336384 0
0.0049999398 -0.22685994 0.016691985 0
0.0049999296 -0.22631285 0.019459333 0
0.0049999193 -0.22648595 0.022362007 0
0.0049999082 -0.2262565 0.025479095 0
0.0049998965 -0.22661245 0.028618041 0
0.0049998858 -0.22634803 0.031712361 0
0.0049998746 -0.22638552 0.034593809 0
0.0049998625 -0.2263727 0.037860498 0
0.0049998541 -0.22650608 0.040460121 0
0.0049998411 -0.22661042 0.043722667 0
0.0038580347 -0.22660264 0.045000847 0
-0.0042504892 -0.22352183 -0.045095667 0
-0.0049998416 -0.22352082 -0.043476634 0
-0.0049998541 -0.22357312 -0.040490121 0
-0.0049998644 -0.22346696 -0.037565552 0
-0.0049998746 -0.2235426 -0.034663212 0
-0.0049998863 -0.22356564 -0.031636968 0
-0.0049998965 -0.22369681 -0.028672807 0
-0.0049999091 -0.22367626 -0.025322083 0
-0.0049999189 -0.22315304 -0.022461034 0
-0.0049999286 -0.22369444 -0.019528382 0
-0.0049999403 -0.22363155 -0.016622748 0
-0.0049999519 -0.22331123 -0.013499846 0
-0.0049999617 -0.22350933 -0.010550311 0
-0.0049999729 -0.22366269 -0.0075734467 0
-0.0049999822 -0.2233589 -0.0046057831 0
-0.0049999943 -0.22361952 -0.0015997752 0
-0.0050000045 -0.22348139 0.001137607 0
-0.0050000153 -0.22342128 0.0043011224 0
-0.0050000278 -0.22367379 0.0075159194 0
-0.0050000376 -0.22372384 0.010282014 0
-0.0050000492 -0.2237684 0.013745869 0
-0.005000059 -0.22375038 0.016436188 0
-0.0050000716 -0.22362125 0.019690931 0
-0.0050000818 -0.22329657 0.022453625 0
-0.0050000926 -0.22384451 0.025417065 0
-0.0050001037 -0.22323291 0.028514521 0
-0.005000114 -0.22351049 0.03139285 0
-0.0050001247 -0.22344077 0.034317106 0
-0.0050001359 -0.22325213 0.037442811 0
-0.0050001456 -0.22336875 0.040411435 0
-0.0050001582 -0.22355105 0.043508638 0
-0.0038725352 -0.22369739 0.045000799 0
-0.0012563089 -0.2235917 -0.045099184 0
-0.0015175769 -0.22352536 0.045000814 0
0.0014899448 -0.22358875 -0.045099173 0
0.0018325775 -0.22341588 0.045000814 0
0.0039935778 -0.22319509 -0.045096107 0
0.0050001573 -0.22367561 -0.043438088 0
0.005000147 -0.22340651 -0.040639363 0
0.0050001359 -0.22336537 -0.037698716 0
0.0050001256 -0.22328913 -0.034580868 0
0.0050001144 -0.2236456 -0.031519484 0
0.0050001023 -0.22328772 -0.028371112 0
0.0050000916 -0.22365551 -0.025214881 0
0.0050000832 -0.22328012 -0.022847826 0
0.0050000702 -0.22348058 -0.019374637 0
0.0050000595 -0.22359231 -0.01654811 0
0.0050000488 -0.22340114 -0.013201119 0
0.0050000371 -0.22333643 -0.010423227 0
0.0050000274 -0.22328326 -0.0076607037 0
0.0050000162 -0.22372851 -0.0044775913 0
0.0050000073 -0.22360596 -0.0017344853 0
0.0049999943 -0.22351797 0.0015388881 0
0.0049999831 -0.22349232 0.0047989297 0
0.0049999719 -0.22338235 0.0075831665 0
0.0049999636 -0.22344714 0.010337308 0
0.0049999496 -0.22358964 0.01363489 0
0.0049999403 -0.22329171 0.016528448 0
0.0049999296 -0.22345842 0.019268902 0
0.0049999184 -0.2238307 0.022641961 0
0.0049999086 -0.22362641 0.025357347 0
0.0049998979 -0.22351347 0.028454915 0
0.0049998877 -0.2236186 0.031289555 0
0.0049998751 -0.22351398 0.034631059 0
0.0049998634 -0.22364752 0.037695438 0
0.0049998527 -0.2235155 0.040515527 0
0.0049998425 -0.22350469 0.043351334 0
0.0042018783 -0.22350727 0.045000825 0
-0.0038351163 -0.22104059 -0.045099203 0
-0.0047706561 -0.22030297 -0.04335067 0
-0.0049998523 -0.22064993 -0.040610895 0
-0.0049998634 -0.22062808 -0.037441567 0
-0.0049998751 -0.22042674 -0.034554895 0
-0.0049998872 -0.22041892 -0.031416818 0
-0.0049998974 -0.22025783 -0.028483674 0
-0.0049999063 -0.22029409 -0.025763206 0
-0.0049999175 -0.22047339 -0.022469614 0
-0.0049999272 -0.22052951 -0.019917307 0
-0.0049999398 -0.22066809 -0.016453218 0
-0.0049999505 -0.2204655 -0.01355152 0
-0.0049999645 -0.22064498 -0.0098826587 0
-0.0049999743 -0.22065319 -0.0073375953 0
-0.0049999841 -0.22044308 -0.0045946208 0
-0.0049999943 -0.22036938 -0.0016827496 0
-0.0050000055 -0.22056434 0.0016156589 0
-0.0050000171 -0.22033276 0.0046336791 0
-0.005000025 -0.22092547 0.007087253 0
-0.0050000385 -0.22053826 0.010362292 0
-0.0050000497 -0.22057192 0.013609578 0
-0.00500006 -0.22038256 0.016258433 0
-0.0050000711 -0.22053881 0.019549588 0
-0.0050000818 -0.22023959 0.022347888 0
-0.0050000921 -0.22036466 0.025348973 0
-0.0050001033 -0.22069593 0.028640099 0
-0.005000113 -0.2205659 0.031224538 0
-0.0050001233 -0.22011863 0.034209169 0
-0.0050001359 -0.22047758 0.037342615 0
-0.0050001466 -0.22107181 0.040444728 0
-0.0044501177 -0.22012769 0.043614544 0
-0.0043383082 -0.22090852 0.045000792 0
-0.0016562069 -0.22127038 -0.045099199 0
-0.0017099453 -0.21956478 -0.043822087 0
-0.0011605751 -0.21959098 0.04378311 0
-0.0016565881 -0.22115101 0.045000806 0
0.001446698 -0.22074477 -0.045093164 0
0.0016551905 -0.21957013 -0.043832853 0
0.0013556516 -0.21955471 0.043710474 0
0.0016884001 -0.22106156 0.045000818 0
0.00448921 -0.22089982 -0.045095421 0
0.0045937235 -0.22009946 -0.043331571 0
0.0050001484 -0.22051287 -0.040776618 0
0.0050001354 -0.22052619 -0.037353788 0
0.0050001252 -0.22064498 -0.034635723 0
0.0050001135 -0.22059424 -0.031290062 0
0.0050001014 -0.22038367 -0.028271034 0
0.0050000926 -0.22077011 -0.02540534 0
0.0050000795 -0.2205575 -0.022309806 0
0.0050000702 -0.22042553 -0.019540573 0
0.0050000586 -0.2204091 -0.016142564 0
0.0050000492 -0.22059658 -0.013473095 0
0.0050000385 -0.22082086 -0.010720872 0
0.0050000255 -0.22019812 -0.0072517521 0
0.0050000171 -0.22051807 -0.0045685568 0
0.0050000059 -0.22044966 -0.0015560703 0
0.0049999952 -0.22035968 0.0014738268 0
0.0049999845 -0.22049281 0.0043658963 0
0.0049999729 -0.22059269 0.0072929985 0
0.0049999622 -0.22070554 0.010258182 0
0.004999951 -0.22074868 0.013580028 0
0.0049999412 -0.22048676 0.016307466 0
0.0049999282 -0.22046101 0.019732554 0
0.0049999193 -0.22050793 0.022403155 0
0.0049999082 -0.22085965 0.025508989 0
0.004999897 -0.22047597 0.028588193 0
0.0049998853 -0.22028668 0.031664841 0
0.0049998756 -0.22034305 0.034529921 0
0.0049998648 -0.22043967 0.037461262 0
0.0049998527 -0.22030143 0.040520586 0
0.0046028327 -0.22025737 0.043490876 0
0.0038177273 -0.22115037 0.045000821 0
-0.0042138961 -0.2187684 -0.042221382 0
-0.0042472049 -0.21814258 -0.040610388 0
-0.0045409957 -0.21712582 -0.037633166 0
-0.0049998737 -0.2174342 -0.034480028 0
-0.0049998863 -0.2174883 -0.031473305 0
-0.0049998965 -0.21743798 -0.028526103 0
-0.0049999072 -0.21757585 -0.025722183 0
-0.0049999175 -0.2174363 -0.022705762 0
-0.0049999286 -0.21733861 -0.019512082 0
-0.0049999407 -0.21727496 -0.016355475 0
-0.0049999529 -0.2178288 -0.013201577 0
-0.0049999617 -0.2175062 -0.010587789 0
-0.0049999738 -0.21745235 -0.0072651925 0
-0.0049999841 -0.21743292 -0.0044674505 0
-0.0049999957 -0.21733883 -0.0013522737 0
-0.0050000059 -0.21754278 0.001536249 0
-0.0050000167 -0.2174693 0.0047783875 0
-0.0050000269 -0.21776198 0.0075492021 0
-0.0050000371 -0.217627 0.010460815 0
-0.0050000483 -0.21770139 0.013535235 0
-0.0050000595 -0.21741764 0.016371813 0
-0.0050000707 -0.21748845 0.019527908 0
-0.0050000814 -0.21749531 0.022301013 0
-0.0050000916 -0.21767311 0.025390066 0
-0.0050001033 -0.21761803 0.028719518 0
-0.0050001126 -0.21756896 0.031311385 0
-0.0050001261 -0.21727501 0.034548629 0
-0.0045668404 -0.21730855 0.037528425 0
-0.0042998292 -0.21790533 0.040198967 0
-0.0039046209 -0.21892986 0.042397141 0
-0.0014577621 -0.21881999 -0.042325053 0
-0.0011374904 -0.21787734 -0.040430356 0
-0.0014420502 -0.21664923 -0.037961937 0
-0.0013860472 -0.21648809 0.037577249 0
-0.0016016236 -0.21789081 0.040382735 0
-0.0014412849 -0.21889454 0.042390153 0
0.001450624 -0.21884653 -0.042378448 0
0.001352087 -0.21782628 -0.040327691 0
0.0016293211 -0.21647778 -0.037617277 0
0.0015383458 -0.21662714 0.037855346 0
0.0014264144 -0.21790206 0.04040521 0
0.0021040696 -0.21890116 0.042403396 0
0.0039987238 -0.21890002 -0.042485919 0
0.0043343627 -0.21807046 -0.040223282 0
0.0046483302 -0.21733317 -0.037581697 0
0.0050001238 -0.21771902 -0.034184054 0
0.005000114 -0.21730763 -0.031348806 0
0.0050001019 -0.21744904 -0.028357791 0
0.0050000935 -0.2173942 -0.02553973 0
0.0050000809 -0.21770746 -0.022497723 0
0.0050000697 -0.2174174 -0.019334337 0
0.005000059 -0.21711558 -0.016397679 0
0.0050000469 -0.21757042 -0.013306981 0
0.005000039 -0.21754861 -0.010639429 0
0.0050000278 -0.21759431 -0.0074401745 0
0.0050000167 -0.21756952 -0.0047084461 0
0.0050000073 -0.21760818 -0.001746176 0
0.0049999938 -0.2174443 0.0016466597 0
0.0049999822 -0.21736169 0.0047120028 0
0.0049999733 -0.21739827 0.0074536707 0
0.0049999617 -0.21733546 0.010740108 0
0.0049999515 -0.21748804 0.013314689 0
0.0049999407 -0.21734272 0.016475793 0
0.00499993 -0.21761908 0.019283094 0
0.0049999179 -0.21747175 0.02252101 0
0.0049999072 -0.2176355 0.02532937 0
0.004999896 -0.21747141 0.028570646 0
0.0049998867 -0.2172484 0.031427138 0
0.0049998756 -0.2177635 0.034551729 0
0.0044612344 -0.21707144 0.037561435 0
0.0044918861 -0.21824051 0.040576946 0
0.0038428931 -0.21886107 0.042323198 0
-0.0037702941 -0.21578395 -0.036222704 0
-0.0042954623 -0.21509267 -0.03439346 0
-0.0046784347 -0.21424028 -0.031480677 0
-0.0049998965 -0.21452941 -0.028310148 0
-0.0049999072 -0.21443719 -0.025473434 0
-0.0049999203 -0.21447134 -0.022199109 0
-0.0049999296 -0.21510053 -0.019432915 0
-0.0049999398 -0.21446864 -0.016525185 0
-0.0049999501 -0.21443887 -0.013573065 0
-0.0049999612 -0.21450759 -0.010599756 0
-0.0049999724 -0.21455753 -0.0073308065 0
-0.0049999827 -0.21447177 -0.0046453429 0
-0.0049999962 -0.21428585 -0.0012630413 0
-0.0050000059 -0.21472825 0.0017838766 0
-0.0050000157 -0.21450463 0.0045073582 0
-0.0050000274 -0.21488118 0.0073267957 0
-0.0050000376 -0.21463564 0.010569036 0
-0.0050000479 -0.21445735 0.013364566 0
-0.0050000595 -0.21429932 0.016669735 0
-0.0050000711 -0.21429022 0.019551806 0
-0.0050000814 -0.21468385 0.022612907 0
-0.005000094 -0.2144499 0.02590403 0
-0.0050001014 -0.21466959 0.028198594 0
-0.0046037016 -0.2145054 0.031516291 0
-0.0044243927 -0.21527429 0.034645077 0
-0.0037224442 -0.21587215 0.036345363 0
-0.0016084744 -0.21587573 -0.036407191 0
-0.0014996643 -0.21509233 -0.034832601 0
-0.0014874174 -0.21364433 -0.031922076 0
-0.0012914025 -0.21362834 0.031857692 0
-0.00131926 -0.21489094 0.034382876 0
-0.0013145441 -0.21580958 0.036220182 0
0.0010962222 -0.2158476 -0.036350634 0
0.001763209 -0.21500045 -0.03464793 0
0.0017455249 -0.21357492 -0.031782597 0
0.0016874294 -0.21347447 0.031549964 0
0.001695587 -0.21486574 0.034332532 0
0.0025477193 -0.21596643 0.036533911 0
0.0040335567 -0.21580261 -0.036260221 0
0.0043691369 -0.21499208 -0.034215532 0
0.0044785216 -0.21414632 -0.031705048 0
0.0050001019 -0.21450287 -0.028326841 0
0.0050000921 -0.21469264 -0.025572687 0
0.0050000814 -0.21440403 -0.022664217 0
0.0050000707 -0.21469145 -0.019272087 0
0.0050000604 -0.21464482 -0.016723268 0
0.0050000479 -0.21455395 -0.013249246 0
0.0050000381 -0.21421824 -0.010614223 0
0.0050000264 -0.21455659 -0.0074754423 0
0.0050000157 -0.21448375 -0.0043440927 0
0.0050000041 -0.21481079 -0.0012534525 0
0.0049999952 -0.21487392 0.0014723822 0
0.0049999845 -0.21466579 0.0045360834 0
0.0049999738 -0.21454765 0.0074303439 0
0.0049999612 -0.21451321 0.010456629 0
0.0049999501 -0.21441151 0.013598746 0
0.0049999398 -0.21436769 0.016309958 0
0.0049999282 -0.21460575 0.019494697 0
0.0049999198 -0.21445063 0.022289639 0
0.0049999072 -0.21439368 0.025304927 0
0.0049998956 -0.21471466 0.028626436 0
0.0046506249 -0.2142199 0.03150975 0
0.004206609 -0.2149629 0.034196679 0
0.004042381 -0.21577758 0.0361562 0
-0.0036943201 -0.21271898 -0.030062204 0
-0.0042116744 -0.21191815 -0.028280355 0
-0.0045761946 -0.21125595 -0.0254295 0
-0.0046474384 -0.2109502 -0.022536132 0
-0.0047294297 -0.21105963 -0.019520454 0
-0.0046271295 -0.21085128 -0.016623763 0
-0.0044747293 -0.21099263 -0.013481007 0
-0.0047205575 -0.21136686 -0.010320052 0
-0.0046167374 -0.21099316 -0.0078215478 0
-0.0046442207 -0.2108331 -0.0046244697 0
-0.0049999957 -0.21164122 -0.0013976574 0
-0.0050000055 -0.211336 0.0014320569 0
-0.0047200713 -0.21106261 0.0046493807 0
-0.0045499029 -0.21106812 0.0075502479 0
-0.0044551017 -0.21110789 0.010734892 0
-0.0047132769 -0.21103466 0.013352595 0
-0.0045937053 -0.2109558 0.01645682 0
-0.0046105017 -0.21105103 0.01955229 0
-0.0044798017 -0.21088234 0.022644769 0
-0.0045727016 -0.21145254 0.025654668 0
-0.0043853796 -0.21189933 0.028175188 0
-0.0039667464 -0.21280433 0.030209638 0
-0.0013070059 -0.21280852 -0.030242169 0
-0.0016709894 -0.2119191 -0.02845446 0
-0.0017482338 -0.21047413 -0.025366506 0
-0.0016310259 -0.21020009 -0.022328276 0
-0.0015808805 -0.21020009 -0.019560358 0
-0.0014338912 -0.2102 -0.016355691 0
-0.0013696466 -0.21020003 -0.013449771 0
-0.0013805889 -0.21020003 -0.010613121 0
-0.0016942571 -0.21020006 -0.0077445107 0
-0.0013384493 -0.21013589 -0.0053333743 0
-0.0011512877 -0.2101782 0.0053591356 0
-0.0013852664 -0.21019995 0.007454325 0
-0.001668171 -0.21019995 0.010701689 0
-0.001361519 -0.21019995 0.01333876 0
-0.0015691736 -0.21019989 0.016849076 0
-0.001492979 -0.21019988 0.019475523 0
-0.0011610095 -0.21019988 0.022396516 0
-0.0013306795 -0.21057548 0.025669618 0
-0.0014995293 -0.21200985 0.028620647 0
-0.0012562916 -0.21282053 0.030242071 0
0.0013410056 -0.21291056 -0.030447219 0
0.0015210164 -0.2119595 -0.028535554 0
0.0014241213 -0.21058208 -0.025656587 0
0.0016050417 -0.21020006 -0.022499736 0
0.0014730225 -0.21020006 -0.019364875 0
0.0015012935 -0.21020006 -0.016371116 0
0.0012678307 -0.21020001 -0.01370834 0
0.0014059846 -0.21019998 -0.010411125 0
0.0013154389 -0.21019998 -0.0076023918 0
0.0015540577 -0.21019669 -0.005546113 0
0.0015757844 -0.21020003 0.0055331527 0
0.0016890097 -0.21019998 0.0071775424 0
0.0015476226 -0.21019994 0.010406583 0
0.0015239081 -0.21019994 0.01342494 0
0.0016259376 -0.21019992 0.016275618 0
0.0015116812 -0.21019988 0.019548906 0
0.0013460021 -0.21019988 0.022537895 0
0.0013982336 -0.21051812 0.025448315 0
0.0016789231 -0.21208544 0.02877187 0
0.0014463853 -0.21286757 0.030336151 0
0.0042956653 -0.21280967 -0.030244434 0
0.0045203324 -0.21218419 -0.028275989 0
0.0044079199 -0.21112233 -0.025720682 0
0.0046050469 -0.21096218 -0.022355855 0
0.0045464691 -0.21100459 -0.01932897 0
0.0046318746 -0.21103373 -0.016687537 0
0.0044942549 -0.21107328 -0.013858688 0
0.004631198 -0.21102697 -0.010452459 0
0.0045707473 -0.21088412 -0.0074954047 0
0.0047868914 -0.21107358 -0.0047434173 0
0.0050000069 -0.21140264 -0.0017399212 0
0.0049999943 -0.21155418 0.0014113283 0
0.0047138776 -0.21132417 0.004674227 0
0.0045803813 -0.21112908 0.0075538033 0
0.0045287493 -0.21112713 0.010512587 0
0.0045782626 -0.21092467 0.0134334 0
0.0046895165 -0.21100034 0.01641373 0
0.0046451245 -0.21108498 0.019540211 0
0.0046698963 -0.21110773 0.022534756 0
0.0045969682 -0.21105267 0.025467692 0
0.0043289564 -0.21213526 0.028162111 0
0.0037785352 -0.21286225 0.030325493 0
-0.0045384262 -0.20847902 -0.0044626039 0
-0.0049999952 -0.20855711 -0.0014164491 0
-0.0050000059 -0.20841728 0.0014961706 0
-0.0046199271 -0.20866318 0.0046047778 0
-0.0015994427 -0.20848751 -0.0049992516 0
-0.0015464973 -0.20864126 0.0050007501 0
0.0015227513 -0.20861028 -0.0049992385 0
0.0014096403 -0.20852667 0.0050007603 0
0.0044503235 -0.20816782 -0.0043452089 0
0.0050000064 -0.20854978 -0.0016170974 0
0.0049999934 -0.20835251 0.0016489513 0
0.0045658075 -0.20849338 0.0045321696 0
-0.0044792583 -0.20546369 -0.0044452506 0
-0.0049999943 -0.20559627 -0.001476169 0
-0.005000005 -0.20548263 0.0014910741 0
-0.0046115671 -0.20549738 0.0044346666 0
-0.0014949816 -0.20583043 -0.0049992604 0
-0.001403055 -0.20504074 0.005000738 0
0.0015228557 -0.20561314 -0.0049992502 0
0.0012593268 -0.20539738 0.0050007491 0
0.0045596161 -0.20525354 -0.0045695421 0
0.0050000069 -0.20543943 -0.0017394763 0
0.0049999938 -0.20549761 0.0018215409 0
0.0045855218 -0.2057638 0.0044914507 0
-0.004263157 -0.20250411 -0.0045240656 0
-0.0049999934 -0.20285103 -0.0018810736 0
-0.005000005 -0.2025786 0.0015756238 0
-0.004513382 -0.20249265 0.0044670627 0
-0.0014263204 -0.20236695 -0.0049992735 0
-0.0017863346 -0.20269533 0.0050007282 0
0.0016175872 -0.20251718 -0.0049992609 0
0.0014636536 -0.20253804 0.0050007389 0
0.0044042296 -0.20261268 -0.0045895246 0
0.0050000055 -0.20239814 -0.0016023328 0
0.0049999962 -0.20254272 0.0012508655 0
0.0043057222 -0.20242409 0.0044904505 0
-0.0044681206 -0.19940911 -0.0044664773 0
-0.0049999948 -0.19931115 -0.001322816 0
-0.005000005 -0.19946475 0.0013191953 0
-0.004602279 -0.19964275 0.0043226127 0
-0.0013734226 -0.19932929 -0.0049992832 0
-0.0016072858 -0.19946349 0.0050007161 0
0.0015150951 -0.19959123 -0.0049992721 0
0.0014067841 -0.19945709 0.0050007273 0
0.0044748681 -0.19919513 -0.0045253146 0
0.005000005 -0.19931534 -0.001349619 0
0.0049999948 -0.19939749 0.0014983818 0
0.0044452236 -0.1994537 0.0044874311 0
-0.0043904404 -0.19632284 -0.004527424 0
-0.0049999938 -0.19642547 -0.0013694221 0
-0.0050000045 -0.19655952 0.0015071731 0
-0.0045718802 -0.19648552 0.0043891366 0
-0.0014899661 -0.19624849 -0.0049992953 0
-0.0013448022 -0.19663735 0.0050007082 0
0.0013111406 -0.19614892 -0.0049992856 0
0.001596848 -0.19679944 0.0050007179 0
0.00468673 -0.1965497 -0.0044495473 0
0.0050000045 -0.19624318 -0.0014463125 0
0.0049999962 -0.19665594 0.0011868287 0
0.0045167678 -0.1964104 0.0044892458 0
-0.0043354775 -0.19366007 -0.0045840014 0
-0.0049999938 -0.19350852 -0.0016269663 0
-0.0050000059 -0.19341815 0.001371578 0
-0.0044619371 -0.19332875 0.0044221906 0
-0.0013371883 -0.193371 -0.0049993047 0
-0.0016213555 -0.19348623 0.0050006933 0
0.0015172391 -0.19353443 -0.0049992935 0
0.0015770777 -0.19356968 0.0050007068 0
0.0044745053 -0.19330695 -0.0044889743 0
0.0050000036 -0.19359104 -0.0014583333 0
0.0049999948 -0.19362791 0.0015759236 0
0.0046449765 -0.19360703 0.0042892853 0
-0.0043521826 -0.19031473 -0.0047446787 0
-0.0049999948 -0.19043413 -0.0015730251 0
-0.0050000059 -0.19052184 0.0014432087 0
-0.0044287625 -0.19056787 0.0045118155 0
-0.0012643532 -0.19075066 -0.0049993149 0
-0.0016294826 -0.19025052 0.0050006825 0
0.0011223179 -0.19058716 -0.0049993056 0
0.0016722315 -0.19070388 0.005000697 0
0.004459098 -0.19065453 -0.004593391 0
0.0050000041 -0.19032025 -0.0012729095 0
0.0049999952 -0.19064136 0.0013232012 0
0.0045713885 -0.19051623 0.0045701256 0
-0.0043382044 -0.18722269 -0.0046536108 0
-0.0049999948 -0.18743406 -0.0014942032 0
-0.0050000055 -0.18788345 0.0014314803 0
-0.0042988635 -0.18705851 0.0046941303 0
-0.0014112603 -0.18737555 -0.0049993256 0
-0.0014984768 -0.18729542 0.0050006728 0
0.0017453362 -0.18734795 -0.0049993163 0
0.0017049205 -0.18763967 0.0050006863 0
0.0045809234 -0.18741246 -0.004585091 0
0.0050000055 -0.18743998 -0.0014422929 0
0.0049999948 -0.18754676 0.0014560812 0
0.004734572 -0.18755619 0.0043664048 0
-0.0044048098 -0.18445818 -0.004435265 0
-0.0049999948 -0.18426579 -0.0013385379 0
-0.0050000069 -0.1845558 0.0017825309 0
-0.0045789387 -0.18459076 0.0044978238 0
-0.0013707489 -0.18433361 -0.0049993382 0
-0.0014204124 -0.18430132 0.0050006621 0
0.0016620511 -0.18425387 -0.0049993279 0
0.0014409159 -0.18425122 0.0050006704 0
0.004530658 -0.18448092 -0.0044483757 0
0.0050000064 -0.18444638 -0.0015021121 0
0.0049999938 -0.18441474 0.0015736823 0
0.004432105 -0.18470062 0.0046306839 0
-0.0045707147 -0.18138373 -0.0045086001 0
-0.0049999957 -0.18164681 -0.0013593894 0
-0.005000005 -0.1815709 0.0015362999 0
-0.0045484174 -0.18124795 0.0044169733 0
-0.0012757259 -0.18145972 -0.0049993475 0
-0.0013840483 -0.18142958 0.0050006509 0
0.0014365907 -0.18164827 -0.0049993377 0
0.0014635413 -0.18171203 0.0050006635 0
0.0045192079 -0.18141994 -0.0044888947 0
0.0050000045 -0.18144266 -0.001522948 0
0.0049999948 -0.18121578 0.001524537 0
0.0044897324 -0.18153469 0.0045133242 0
-0.0043510268 -0.17824529 -0.0046020327 0
-0.0049999948 -0.17871343 -0.0016027032 0
-0.0050000069 -0.17844655 0.00178072 0
-0.0044161584 -0.17848743 0.0045498237 0
-0.0016186622 -0.17870283 -0.0049993587 0
-0.0016243687 -0.1783815 0.0050006402 0
0.0014373141 -0.17843521 -0.0049993484 0
0.0016256424 -0.17860392 0.0050006518 0
0.004530455 -0.17845789 -0.0046342988 0
0.0050000059 -0.17855813 -0.0017799463 0
0.0049999952 -0.17869404 0.0013644205 0
0.0044457605 -0.17843553 0.0045689899 0
-0.0045067701 -0.17537491 -0.0045170067 0
-0.0049999934 -0.17535806 -0.0016680777 0
-0.0050000055 -0.17537899 0.0014418623 0
-0.0044848346 -0.17533454 0.0044363127 0
-0.0016242783 -0.17535247 -0.0049993708 0
-0.0016440133 -0.17538741 0.0050006276 0
0.0014260862 -0.17545876 -0.0049993587 0
0.0014202003 -0.17562926 0.0050006416 0
0.0046026977 -0.17552669 -0.0044531398 0
0.0050000045 -0.17546698 -0.0014630395 0
0.0049999938 -0.17574425 0.0015599063 0
0.004471994 -0.17552024 0.0045309877 0
-0.0045133727 -0.17253612 -0.0044002053 0
-0.0049999943 -0.17247251 -0.0013258843 0
-0.0050000055 -0.17253844 0.0015054574 0
-0.0044210386 -0.17247771 0.0045173327 0
-0.0014052355 -0.17255303 -0.0049993801 0
-0.0010674864 -0.17255785 0.0050006211 0
0.0012330438 -0.17252447 -0.0049993712 0
0.0014565299 -0.17248172 0.0050006304 0
0.0044539082 -0.1721981 -0.0045367754 0
0.0050000059 -0.17280102 -0.0013592691 0
0.0049999952 -0.17280993 0.0015240317 0
0.0045798174 -0.1723967 0.0043929168 0
-0.0044882824 -0.16940495 -0.0045704027 0
-0.0049999948 -0.16960515 -0.0015899992 0
-0.0050000059 -0.16928372 0.0017752654 0
-0.004497244 -0.16932686 0.0045190505 0
-0.0015497603 -0.16962729 -0.0049993903 0
-0.0017730645 -0.16953754 0.0050006071 0
0.0013619958 -0.16943066 -0.004999382 0
0.0017304125 -0.16927412 0.0050006183 0
0.0045166691 -0.1695998 -0.0044385279 0
0.0050000059 -0.16967943 -0.0016247464 0
0.0049999938 -0.16939856 0.0014184591 0
0.0043392372 -0.16935177 0.0045342525 0
-0.0045024026 -0.16650312 -0.0044777994 0
-0.0049999957 -0.16651922 -0.0012504288 0
-0.0050000059 -0.1664754 0.0015872046 0
-0.0044390252 -0.16649601 0.0044316109 0
-0.0014227476 -0.16649048 -0.0049994029 0
-0.0015924841 -0.16644558 0.0050005969 0
0.0012550324 -0.16678482 -0.0049993917 0
0.0014237624 -0.16646658 0.0050006062 0
0.0043422212 -0.16663931 -0.0046011293 0
0.0050000045 -0.16624269 -0.0014245374 0
0.0049999952 -0.16642211 0.0014670677 0
0.004566188 -0.16627683 0.0044408906 0
-0.0045740963 -0.16347943 -0.0044756322 0
-0.0049999943 -0.16343614 -0.0016986772 0
-0.0050000064 -0.16345447 0.0015071853 0
-0.0045625963 -0.16361788 0.0044236346 0
-0.0013570993 -0.16380528 -0.0049994132 0
-0.0013700846 -0.16329615 0.0050005848 0
0.0016370644 -0.16356173 -0.004999402 0
0.0014875102 -0.16365504 0.0050005973 0
0.0044934498 -0.16360427 -0.0043937019 0
0.0050000045 -0.16339765 -0.0011589343 0
0.0049999948 -0.16330902 0.0015602028 0
0.0045157834 -0.16361938 0.0044323755 0
-0.0044927732 -0.16042136 -0.0044911094 0
-0.0049999952 -0.16073927 -0.0014161638 0
-0.0050000069 -0.16039097 0.0016625407 0
-0.0046669831 -0.16040212 0.0041757184 0
-0.0016653908 -0.1602985 -0.0049994253 0
-0.0011871003 -0.1603263 0.0050005764 0
0.0013381232 -0.16037947 -0.0049994141 0
0.0015279105 -0.16036613 0.0050005852 0
0.0046519157 -0.16034804 -0.0043769488 0
0.0050000059 -0.16033459 -0.001416922 0
0.0049999957 -0.16026236 0.0014487504 0
0.0044842293 -0.16048944 0.0046246154 0
-0.0044345642 -0.15727112 -0.0045431005 0
-0.0049999948 -0.15747693 -0.0015308779 0
-0.005000005 -0.15747355 0.001579652 0
-0.0045803562 -0.15748537 0.0044521056 0
-0.0016117742 -0.15758842 -0.0049994364 0
-0.0011387955 -0.15761784 0.0050005666 0
0.001627253 -0.15737493 -0.0049994248 0
0.0015218877 -0.15747893 0.0050005764 0
0.0044964729 -0.15778011 -0.0043381723 0
0.0050000045 -0.15753411 -0.0015991399 0
0.0049999948 -0.15731184 0.0016198911 0
0.0044518635 -0.15766975 0.0045331176 0
-0.0045301905 -0.15434133 -0.0043600863 0
-0.0049999948 -0.15457672 -0.0017014691 0
-0.0050000055 -0.15445511 0.0013397735 0
-0.0042818198 -0.15411691 0.0047356351 0
-0.0015677704 -0.15436636 -0.0049994476 0
-0.0014532901 -0.15461977 0.0050005536 0
0.0014337463 -0.15443149 -0.0049994346 0
0.0014190342 -0.15458512 0.0050005638 0
0.0043583401 -0.15424126 -0.0045915027 0
0.005000005 -0.15456629 -0.0012660408 0
0.0049999943 -0.15447314 0.0016017935 0
0.0044612004 -0.15466781 0.0044567292 0
-0.004392623 -0.15168135 -0.0046812887 0
-0.0049999957 -0.15138471 -0.0012622603 0
-0.0050000055 -0.15143183 0.001509577 0
-0.004671793 -0.15124828 0.0042652627 0
-0.0016578528 -0.15185778 -0.0049994565 0
-0.0015921718 -0.1513681 0.0050005428 0
0.0011417011 -0.15155149 -0.0049994467 0
0.0016229113 -0.15161112 0.0050005536 0
0.0043536639 -0.15138762 -0.0044878451 0
0.0050000036 -0.15139391 -0.0011427314 0
0.0049999962 -0.15135835 0.0012431358 0
0.0046336255 -0.15150645 0.0045205285 0
-0.0045454456 -0.14852886 -0.0044875848 0
-0.0049999943 -0.14859851 -0.001636407 0
-0.005000005 -0.14826149 0.0012717634 0
-0.0046400428 -0.1486361 0.0043470683 0
-0.001274313 -0.14855489 -0.0049994658 0
-0.0013153586 -0.14833261 0.0050005321 0
0.0017171821 -0.1482328 -0.0049994583 0
0.0014076568 -0.14851758 0.0050005433 0
0.0043938155 -0.14872992 -0.0045370171 0
0.0050000045 -0.14852214 -0.0013646249 0
0.0049999934 -0.14853871 0.0015406378 0
0.0044354377 -0.14853418 0.004435332 0
-0.0045484183 -0.14566916 -0.0043920497 0
-0.0049999952 -0.14545754 -0.0014569189 0
-0.005000005 -0.14553444 0.0013212827 0
-0.0044057826 -0.14534 0.0044963681 0
-0.0013843208 -0.14581154 -0.0049994774 0
-0.0015042197 -0.14563443 0.0050005219 0
0.0015277406 -0.14528894 -0.0049994686 0
0.0015398788 -0.14542975 0.0050005317 0
0.0044612656 -0.14561045 -0.0044832681 0
0.0050000059 -0.14556788 -0.00157894 0
0.0049999943 -0.14529552 0.001837258 0
0.0046849386 -0.14541829 0.004484748 0
-0.004660272 -0.1424827 -0.0044184015 0
-0.0049999957 -0.14236394 -0.001349952 0
-0.005000005 -0.14252508 0.0012053663 0
-0.0047383052 -0.14243652 0.0044052801 0
-0.0015519437 -0.14273164 -0.0049994891 0
-0.0014122844 -0.14267364 0.0050005107 0
0.0014543539 -0.14275669 -0.0049994779 0
0.0017383974 -0.14206459 0.005000521 0
0.0043755537 -0.14249235 -0.0046622483 0
0.0050000055 -0.1422905 -0.001352226 0
0.0049999934 -0.1424937 0.0016200769 0
0.0044046738 -0.14248641 0.0045448123 0
-0.0045638457 -0.13926898 -0.0045017549 0
-0.0049999948 -0.13948624 -0.0015254935 0
-0.0050000059 -0.13949004 0.0014982607 0
-0.0046081124 -0.13958275 0.004357039 0
-0.0015579393 -0.13962349 -0.0049995012 0
-0.0015889729 -0.139649 0.0050004991 0
0.0013924827 -0.1398205 -0.0049994881 0
0.001690466 -0.1396914 0.0050005121 0
0.004395375 -0.13934769 -0.0045001702 0
0.0050000045 -0.13945936 -0.0012935358 0
0.0049999952 -0.13955742 0.001551859 0
0.0045735049 -0.13942198 0.0045082234 0
-0.0047211456 -0.13666752 -0.0044831638 0
-0.0049999943 -0.13659361 -0.0014802748 0
-0.0050000045 -0.13636932 0.0012858569 0
-0.0045685144 -0.13659739 0.0043999963 0
-0.0012779516 -0.13624091 -0.0049995123 0
-0.0012931878 -0.13654479 0.0050004898 0
0.001446464 -0.136581 -0.0049995002 0
0.0015145653 -0.13672194 0.0050005005 0
0.0044245641 -0.13653009 -0.0044750557 0
0.0050000055 -0.13655622 -0.0014970177 0
0.0049999934 -0.13637748 0.0016828601 0
0.0045233117 -0.13676196 0.0044877408 0
-0.004470414 -0.13335899 -0.0044149184 0
-0.0049999943 -0.13330415 -0.0013620419 0
-0.0050000069 -0.13365592 0.0018717955 0
-0.0044374242 -0.13350101 0.0044669295 0
-0.00169108 -0.1336174 -0.0049995212 0
-0.0013518254 -0.13356683 0.0050004786 0
0.0018184944 -0.13319613 -0.0049995114 0
0.00158702 -0.13361903 0.0050004898 0
0.0046569342 -0.13345711 -0.0043033841 0
