# .PCD v0.7 - Point Cloud Data file format
VERSION 0.7
FIELDS x y z rgb
SIZE 4 4 4 4
TYPE F F F F
COUNT 1 1 1 1
WIDTH 1243
HEIGHT 1
VIEWPOINT 0 0 0 1 0 0 0
POINTS 1243
DATA ascii
0.034496218 -0.23871312 -0.019705052 0
0.034832474 -0.24000004 -0.016352426 0
0.034036983 -0.24000005 -0.013833847 0
0.034769662 -0.2389462 -0.01023028 0
0.034693908 -0.23907176 0.010423447 0
0.03428768 -0.23999991 0.013291404 0
0.034752995 -0.23999992 0.016486153 0
0.03443427 -0.23894991 0.019636707 0
0.034617748 -0.23850055 0.030000987 0
0.034488857 -0.23943907 0.030793689 0
0.034417011 -0.23999988 0.034961201 0
0.034398954 -0.23999986 0.037754625 0
0.034564268 -0.23865923 0.03987208 0
0.034234259 -0.23852535 0.050092664 0
0.034363523 -0.23999982 0.052296441 0
0.034335341 -0.2399998 0.055325445 0
0.034282714 -0.23973273 0.05895913 0
0.034129899 -0.23851211 0.06000099 0
0.034600742 -0.23883653 0.070244953 0
0.034679763 -0.2399997 0.07338319 0
0.034290567 -0.23999971 0.076427713 0
0.034662016 -0.23901282 0.079611488 0
0.037445471 -0.23927769 -0.079690382 0
0.037138924 -0.24000028 -0.076244503 0
0.036943235 -0.24000026 -0.073699564 0
0.037440542 -0.23896272 -0.070311844 0
0.037174158 -0.2384299 -0.059999008 0
0.037508242 -0.23932192 -0.059328102 0
0.037126455 -0.2400002 -0.055056509 0
0.037581008 -0.24000019 -0.052364998 0
0.037387352 -0.23903769 -0.050168246 0
0.037688311 -0.23878253 -0.039872523 0
0.037357841 -0.24000013 -0.037319183 0
0.037169769 -0.24000011 -0.034854885 0
0.037039455 -0.23945314 -0.031166626 0
0.037555054 -0.23874868 -0.029998999 0
0.037544485 -0.23899354 -0.01963268 0
0.037428189 -0.24000004 -0.016716644 0
0.037275705 -0.24000005 -0.013512107 0
0.037434828 -0.23862273 -0.010208761 0
0.037107121 -0.23912923 0.010318412 0
0.037755068 -0.23999996 0.013369141 0
0.037594009 -0.23999994 0.017009243 0
0.037615318 -0.23906866 0.019634031 0
0.037369125 -0.23832923 0.030000998 0
0.037545718 -0.23936619 0.030807974 0
0.037566345 -0.23999988 0.034274977 0
0.03796592 -0.23999986 0.037459392 0
0.037404157 -0.2387608 0.039912026 0
0.037334371 -0.23866858 0.050078724 0
0.037323523 -0.2399998 0.052573979 0
0.037625365 -0.23999979 0.055702578 0
0.037366856 -0.2393416 0.059156712 0
0.037406497 -0.23890804 0.060000993 0
0.037688933 -0.23931779 0.070427611 0
0.037806887 -0.23999973 0.07355009 0
0.037542332 -0.23999971 0.076666422 0
0.037352622 -0.23910657 0.079730302 0
0.040454697 -0.23890062 -0.079693459 0
0.040554028 -0.24000026 -0.076392584 0
0.040040821 -0.24000023 -0.073422991 0
0.040629778 -0.23920843 -0.070366271 0
0.040598121 -0.23841467 -0.059998993 0
0.040469915 -0.23916373 -0.059514415 0
0.040195759 -0.24000019 -0.054688599 0
0.040268861 -0.24000017 -0.052388858 0
0.040032472 -0.23865494 -0.050151128 0
0.040783517 -0.23888886 -0.039911054 0
0.040611487 -0.24000013 -0.037574247 0
0.040260542 -0.24000013 -0.034548327 0
0.040593211 -0.24000011 -0.031298652 0
0.040416658 -0.23865418 -0.02999899 0
0.040047068 -0.23900519 -0.01962956 0
0.040450837 -0.24000007 -0.016345778 0
0.040337767 -0.24000004 -0.013546199 0
0.040378448 -0.23889874 -0.010259365 0
0.040361315 -0.23895431 0.010265633 0
0.040451627 -0.23999995 0.013486576 0
0.039862007 -0.23999995 0.016542872 0
0.040495474 -0.23929055 0.019477436 0
0.040794998 -0.2382962 0.030001011 0
0.040092673 -0.23916122 0.031093229 0
0.040434789 -0.23999988 0.034611318 0
0.040143918 -0.23999986 0.037835639 0
0.040153202 -0.23874657 0.039964549 0
0.040497128 -0.23895039 0.050234418 0
0.040296908 -0.2399998 0.052227017 0
0.040397741 -0.23999982 0.055484179 0
0.040030267 -0.23921005 0.059144434 0
0.040355973 -0.23898353 0.060001016 0
0.040864639 -0.23923688 0.070511714 0
0.040791292 -0.23999973 0.073375463 0
0.040517092 -0.23999967 0.076434277 0
0.040567946 -0.23880935 0.079741657 0
0.043783039 -0.23915988 -0.079647854 0
0.043381188 -0.24000026 -0.076673947 0
0.043392994 -0.24000026 -0.073376618 0
0.04356486 -0.23862909 -0.070313588 0
0.04349494 -0.23842247 -0.059998985 0
0.043535247 -0.23920085 -0.059177719 0
0.04361527 -0.2400002 -0.055699587 0
0.043266688 -0.24000019 -0.052514061 0
0.043459166 -0.23875327 -0.05013676 0
0.043271646 -0.23861156 -0.039964799 0
0.043512277 -0.24000013 -0.037419379 0
0.043782257 -0.2400001 -0.034760252 0
0.043551214 -0.23973393 -0.031008108 0
0.043632761 -0.23847407 -0.029998977 0
0.043525431 -0.23885329 -0.019686513 0
0.043680675 -0.24000004 -0.016752096 0
0.043439198 -0.24000004 -0.013502404 0
0.043467291 -0.23910175 -0.010388792 0
0.043385912 -0.23884775 0.010328094 0
0.043041002 -0.23999995 0.013530696 0
0.043178465 -0.23999994 0.016667645 0
0.043462932 -0.23898712 0.019681312 0
0.043970626 -0.23909424 0.030001024 0
0.043593787 -0.23930721 0.030747097 0
0.043578964 -0.23999989 0.034419846 0
0.043411311 -0.23999985 0.037496753 0
0.043297604 -0.23861353 0.039926354 0
0.043676857 -0.23856334 0.05006779 0
0.043567464 -0.2399998 0.052389476 0
0.043352913 -0.23999979 0.055475123 0
0.043693945 -0.23972557 0.058724754 0
0.043333039 -0.23814408 0.060001019 0
0.043488331 -0.23890248 0.070228964 0
0.043110602 -0.23999971 0.073275112 0
0.043644752 -0.23999968 0.076406255 0
0.043191895 -0.2389117 0.079734594 0
0.046486277 -0.23845634 -0.079825878 0
0.046275727 -0.24000028 -0.07658387 0
0.046631064 -0.24000028 -0.073675826 0
0.04624936 -0.23916315 -0.070398942 0
0.045092851 -0.23876591 -0.059998974 0
0.046487316 -0.23932023 -0.05928297 0
0.046472766 -0.2400002 -0.055354413 0
0.046590731 -0.2400002 -0.052459288 0
0.046504591 -0.23863991 -0.050103452 0
0.046735343 -0.23884845 -0.039775502 0
0.046745889 -0.24000013 -0.037412371 0
0.046663363 -0.2400001 -0.034492057 0
0.046633508 -0.23962937 -0.03110672 0
0.046329744 -0.2386402 -0.029998967 0
0.046545826 -0.23867047 -0.019807167 0
0.04671235 -0.24000005 -0.016601672 0
0.046677142 -0.24000004 -0.013557957 0
0.046842277 -0.23893645 -0.01027224 0
0.046465982 -0.2389265 0.010272078 0
0.046152741 -0.23999995 0.013773463 0
0.046893585 -0.23999994 0.016700633 0
0.046295878 -0.23885553 0.019711964 0
0.046869569 -0.23798428 0.030001031 0
0.046500053 -0.23907048 0.03068034 0
0.046128932 -0.23999988 0.034683287 0
0.046382897 -0.23999988 0.037208974 0
0.046326242 -0.23864046 0.03989711 0
0.046649795 -0.23890267 0.050105773 0
0.046377871 -0.2399998 0.052411225 0
0.046683714 -0.2399998 0.055113688 0
0.046879824 -0.23932326 0.059108399 0
0.046297625 -0.23878802 0.060001034 0
0.046438906 -0.23916295 0.070503891 0
0.046685562 -0.23999968 0.073200859 0
0.046375677 -0.23999967 0.076207221 0
0.046489704 -0.23863301 0.079805106 0
0.049415093 -0.23916499 -0.079820909 0
0.049578536 -0.24000026 -0.076598227 0
0.049440771 -0.24000026 -0.073486708 0
0.049482349 -0.23871231 -0.070292205 0
0.050247416 -0.23876444 -0.059998956 0
0.049531087 -0.23905224 -0.059510056 0
0.049595922 -0.2400002 -0.055877563 0
0.049906403 -0.2400002 -0.052514289 0
0.04946075 -0.23902375 -0.050111622 0
0.049588166 -0.23882085 -0.039914113 0
0.049540035 -0.24000013 -0.037702773 0
0.049313847 -0.24000011 -0.03441922 0
0.049121834 -0.2395106 -0.030813897 0
0.049266025 -0.23863719 -0.029998958 0
0.049223576 -0.23875819 -0.019740075 0
0.049678963 -0.24000007 -0.016479645 0
0.049283706 -0.24000004 -0.013158126 0
0.049647123 -0.23878418 -0.010145734 0
0.049631566 -0.23917121 0.01033798 0
0.049333397 -0.23999995 0.01332921 0
0.049525276 -0.23999995 0.016438516 0
0.049614366 -0.23901328 0.019645603 0
0.048718046 -0.23863399 0.030001039 0
0.049647685 -0.23915724 0.030746205 0
0.049779221 -0.23999986 0.034343768 0
0.049806051 -0.23999986 0.037579577 0
0.049602192 -0.23876354 0.039904222 0
0.049395658 -0.23860069 0.050031908 0
0.049735416 -0.2399998 0.052416354 0
0.04988407 -0.23999976 0.055404611 0
0.04957043 -0.23943585 0.058812011 0
0.049587067 -0.23884024 0.060001038 0
0.049363583 -0.23929249 0.070320398 0
0.049497921 -0.23999973 0.073538758 0
0.049491327 -0.23999973 0.076776519 0
0.049592849 -0.23893483 0.079657719 0
0.05246973 -0.23923378 -0.079709321 0
0.052354168 -0.24000028 -0.076951474 0
0.052481193 -0.24000028 -0.073345289 0
0.05263111 -0.23886003 -0.070346221 0
0.052776791 -0.23725905 -0.059998952 0
0.052553367 -0.23927882 -0.059498906 0
0.052264895 -0.24000017 -0.055346373 0
0.0523718 -0.24000017 -0.052416135 0
0.052973073 -0.23851857 -0.050049484 0
0.052540265 -0.23919328 -0.039712295 0
0.052680105 -0.24000014 -0.037562452 0
0.052711472 -0.24000011 -0.034721911 0
0.052377641 -0.23939726 -0.030729435 0
0.052634783 -0.23837799 -0.029998947 0
0.052442484 -0.23927054 -0.019590035 0
0.052080605 -0.24000007 -0.016578559 0
0.052485604 -0.24000004 -0.013295154 0
0.052497424 -0.23894396 -0.010516291 0
0.052373756 -0.23909259 0.010458527 0
0.052754238 -0.23999995 0.01394296 0
0.052445926 -0.23999994 0.016413536 0
0.052491859 -0.23923555 0.019689281 0
0.053494614 -0.23910646 0.030001057 0
0.052555207 -0.23937765 0.030763963 0
0.052854016 -0.23999986 0.034135692 0
0.052231625 -0.23999988 0.037378382 0
0.052289914 -0.23889592 0.039844293 0
0.052720822 -0.23880439 0.050067995 0
0.052293837 -0.23999979 0.052012563 0
0.05297827 -0.23999979 0.05580312 0
0.052769653 -0.23937234 0.058504146 0
0.052370436 -0.23829348 0.060001049 0
0.052427869 -0.2390445 0.070341259 0
0.052736394 -0.23999973 0.073168717 0
0.05241131 -0.23999973 0.076739036 0
0.052398454 -0.23864149 0.079670347 0
0.055301771 -0.23914276 -0.079693854 0
0.055563811 -0.24000023 -0.076711453 0
0.054793872 -0.24000028 -0.072987124 0
0.055553328 -0.2386867 -0.07010407 0
0.056658149 -0.23869486 -0.059998933 0
0.055426065 -0.23928738 -0.059353463 0
0.055253398 -0.2400002 -0.055689614 0
0.055431884 -0.24000017 -0.052458249 0
0.055554241 -0.23896058 -0.050075602 0
0.05554397 -0.23894216 -0.039822675 0
0.055385251 -0.24000014 -0.037824485 0
0.055566326 -0.24000011 -0.034460358 0
0.055258621 -0.23939228 -0.031085651 0
0.055377211 -0.23837209 -0.029998934 0
0.05553472 -0.23915175 -0.019602071 0
0.055410806 -0.24000007 -0.01699941 0
0.055251744 -0.24000005 -0.01342266 0
0.055488843 -0.23881629 -0.010262602 0
0.055675972 -0.2390133 0.010312682 0
0.05551029 -0.23999995 0.013528913 0
0.055163998 -0.23999994 0.016136719 0
0.05559814 -0.23890013 0.019625219 0
0.05577714 -0.23911154 0.030001065 0
0.055279739 -0.23918228 0.030763227 0
0.055996053 -0.23999986 0.034504551 0
0.055417631 -0.23999988 0.037230901 0
0.055609789 -0.23890376 0.039899059 0
0.055366218 -0.23891595 0.050130714 0
0.055143598 -0.2399998 0.052399129 0
0.055399273 -0.23999977 0.055692721 0
0.055445302 -0.23965934 0.058804721 0
0.055369709 -0.23850945 0.060001045 0
0.055536337 -0.23914577 0.070392825 0
0.0556393 -0.23999973 0.073405541 0
0.055046789 -0.23999971 0.076347619 0
0.055626262 -0.23899479 0.079617247 0
0.058492702 -0.23910972 -0.079525359 0
0.059007611 -0.23972154 -0.076628894 0
0.058973461 -0.23933184 -0.073797181 0
0.058414027 -0.23887551 -0.070496388 0
0.057980258 -0.23795646 -0.059998933 0
0.058463685 -0.23922431 -0.059218988 0
0.058384705 -0.23960459 -0.055104736 0
0.059130937 -0.23924866 -0.052372709 0
0.058497936 -0.23838572 -0.050035395 0
0.058246292 -0.23896076 -0.039913654 0
0.058852233 -0.23966716 -0.037572633 0
0.058830269 -0.23969163 -0.034844071 0
0.058685746 -0.23951724 -0.031469449 0
0.058752373 -0.23887174 -0.029998921 0
0.058552425 -0.23912543 -0.019510584 0
0.058963738 -0.23947591 -0.016499853 0
0.058930565 -0.2390909 -0.013720237 0
0.058768708 -0.23892669 -0.010535273 0
0.058545027 -0.23918849 0.010514372 0
0.058946237 -0.23979053 0.013452136 0
0.058694646 -0.23957236 0.016383622 0
0.058574371 -0.23912857 0.019656362 0
0.058616366 -0.23875023 0.030001076 0
0.058636259 -0.23931302 0.031199344 0
0.058635551 -0.23928449 0.034311593 0
0.058879498 -0.23955594 0.037301961 0
0.058493156 -0.23845756 0.039890856 0
0.058259841 -0.23876165 0.05005436 0
0.058825959 -0.23976365 0.052077856 0
0.058989789 -0.23935328 0.055508118 0
0.058697701 -0.23945151 0.058600202 0
0.058842059 -0.23863627 0.060001064 0
0.058674149 -0.23889513 0.070415735 0
0.058887787 -0.23959497 0.073364966 0
0.059136551 -0.2396097 0.076371573 0
0.058309045 -0.23908411 0.079631075 0
0.060000289 -0.23778459 -0.079403177 0
0.060000282 -0.23903355 -0.076693021 0
0.060000267 -0.23879415 -0.073196657 0
0.060000256 -0.23875725 -0.071180299 0
0.060000211 -0.23828365 -0.058756527 0
0.060000207 -0.23853888 -0.055450153 0
0.060000192 -0.23873323 -0.0526869 0
0.060000185 -0.2385228 -0.050642312 0
0.060000144 -0.23836708 -0.039534785 0
0.06000014 -0.23826812 -0.037602786 0
0.060000129 -0.23833297 -0.034726247 0
0.060000099 -0.2385093 -0.031543564 0
0.060000069 -0.23866224 -0.018873112 0
0.060000066 -0.23883033 -0.016541841 0
0.060000051 -0.23864032 -0.013951441 0
0.06000004 -0.2384242 -0.010817304 0
0.059999958 -0.2388009 0.010954688 0
0.05999995 -0.23850672 0.013704255 0
0.059999928 -0.23872097 0.016357603 0
0.059999928 -0.23867449 0.019029586 0
0.059999894 -0.23875676 0.031281807 0
0.059999883 -0.23857917 0.034175251 0
0.059999872 -0.23820272 0.037331376 0
0.059999857 -0.23945931 0.039407413 0
0.059999824 -0.23808071 0.050469875 0
0.059999805 -0.23891139 0.052651525 0
0.059999801 -0.23837119 0.055365801 0
0.059999794 -0.23856467 0.058678478 0
0.059999745 -0.2393396 0.070827886 0
0.059999734 -0.23858921 0.073762283 0
0.05999973 -0.23822398 0.076192267 0
0.059999712 -0.23880571 0.079124808 0
-0.0099696685 -0.23559786 -0.058274653 0
-0.0099997986 -0.23527968 -0.055907786 0
-0.0099998107 -0.23553497 -0.052471645 0
-0.009999821 -0.23512867 -0.049288362 0
-0.0099998312 -0.23537652 -0.046804707 0
-0.0099998433 -0.23544174 -0.043092266 0
-0.0099998536 -0.23535453 -0.04057166 0
-0.0099998647 -0.23519577 -0.037223898 0
-0.0099998759 -0.23534116 -0.034387264 0
-0.0099998871 -0.23557605 -0.031663638 0
-0.0099998964 -0.23565364 -0.028552745 0
-0.0099999085 -0.23537861 -0.02554292 0
-0.0099999188 -0.23539178 -0.022582678 0
-0.0099999281 -0.23561125 -0.019828305 0
-0.0099999411 -0.23592484 -0.016103949 0
-0.0099999532 -0.23522098 -0.013483481 0
-0.0099999616 -0.23559587 -0.010495884 0
-0.0099999737 -0.23585744 -0.0075028711 0
-0.0099999867 -0.23574825 -0.0040361783 0
-0.0099999961 -0.23594812 -0.0014475762 0
-0.010000006 -0.23556259 0.0015136212 0
-0.010000017 -0.23532845 0.0044604423 0
-0.010000027 -0.2354296 0.0072082435 0
-0.01000004 -0.23597272 0.010684595 0
-0.01000005 -0.23552176 0.013513342 0
-0.010000061 -0.23551846 0.01642549 0
-0.010000071 -0.23526014 0.019561488 0
-0.010000083 -0.23540238 0.022296047 0
-0.010000093 -0.23536377 0.025221439 0
-0.010000105 -0.2353695 0.028708484 0
-0.010000116 -0.23553976 0.031754274 0
-0.010000126 -0.23565879 0.034535836 0
-0.010000135 -0.23559728 0.037197482 0
-0.010000146 -0.23545918 0.040215168 0
-0.010000159 -0.23536779 0.043872505 0
-0.01000017 -0.23553358 0.046656515 0
-0.01000018 -0.23560895 0.04957043 0
-0.01000019 -0.23548429 0.052485432 0
-0.010000201 -0.2354182 0.055564206 0
-0.0099146962 -0.23528466 0.058965586 0
-0.0074181142 -0.23536357 -0.059879977 0
-0.0076077469 -0.23571126 0.059873097 0
-0.004280048 -0.23561355 -0.060191683 0
-0.0058015846 -0.23462348 -0.05996564 0
-0.0058167744 -0.2360764 0.059965659 0
-0.003907227 -0.23580171 0.060262173 0
-0.0016243937 -0.23541166 -0.060880955 0
-0.0014771003 -0.23556311 0.060941525 0
0.0029128005 -0.23573686 -0.063209906 0
0.0012801535 -0.2357817 -0.062227681 0
0.0012630564 -0.23559338 0.062216498 0
0.0027964243 -0.23484842 0.063141592 0
0.0044512949 -0.23545387 -0.064559728 0
0.0042652627 -0.23548719 0.064423412 0
0.0058881221 -0.23562959 0.06603729 0
0.0084569147 -0.23540406 -0.070012435 0
0.0069987103 -0.23564878 -0.067518927 0
0.0070292302 -0.23569517 0.067536063 0
0.0085848169 -0.23570934 0.070295855 0
0.010602565 -0.23533449 -0.079506822 0
0.010087132 -0.23577239 -0.076454952 0
0.0096365577 -0.23538116 -0.073412441 0
0.0091304434 -0.2355473 -0.071513183 0
0.0091816233 -0.23588787 0.071632437 0
0.0096349809 -0.23530094 0.073433481 0
0.010068635 -0.2354594 0.076315001 0
0.010515864 -0.23565599 0.079581872 0
0.013435896 -0.23523454 -0.079999104 0
0.013242603 -0.23565637 0.0800009 0
0.016550289 -0.23548479 -0.079999097 0
0.017015677 -0.23553221 0.080000922 0
0.019463893 -0.23543903 -0.079999089 0
0.020318201 -0.23553532 -0.069876894 0
0.020000247 -0.2357219 -0.067595631 0
0.020000232 -0.23511665 -0.064649321 0
0.020018598 -0.23558012 -0.061515801 0
0.020436911 -0.23503383 -0.059999075 0
0.020179894 -0.2355547 -0.049402382 0
0.020000167 -0.23581456 -0.04639269 0
0.020000158 -0.23562664 -0.043600991 0
0.020244859 -0.23575938 -0.040442344 0
0.020499127 -0.23573957 -0.029999074 0
0.020043118 -0.23554815 -0.028415965 0
0.020000095 -0.23570004 -0.025658319 0
0.02000008 -0.23583731 -0.022348596 0
0.02012025 -0.23551209 -0.020178197 0
0.020321898 -0.23544958 -0.0099037373 0
0.020000029 -0.23550971 -0.0073823528 0
0.020000016 -0.23580164 -0.004127495 0
0.020000005 -0.23566961 -0.0013411621 0
0.019999998 -0.23542018 0.0014011882 0
0.019999985 -0.23567237 0.0041392674 0
0.019999973 -0.23597237 0.0074470551 0
0.020235183 -0.23557043 0.0096730627 0
0.020050952 -0.2356807 0.020637684 0
0.019999916 -0.23578162 0.022823753 0
0.019999908 -0.23547694 0.025793105 0
0.02000666 -0.2355509 0.028585467 0
0.020666081 -0.2353822 0.030000927 0
0.020241726 -0.23515411 0.040551506 0
0.019999841 -0.23563544 0.043410685 0
0.019999834 -0.23522407 0.046512663 0
0.020132827 -0.23554306 0.049439043 0
0.020447955 -0.23576663 0.060000923 0
0.020072943 -0.23576483 0.061296482 0
0.019999769 -0.23574111 0.064502306 0
0.019999759 -0.23553753 0.067134775 0
0.020432346 -0.2358463 0.069741048 0
0.019756749 -0.23511159 0.080000922 0
0.022214273 -0.23534295 -0.079999082 0
0.022607114 -0.23534912 -0.069999084 0
0.022679863 -0.23562278 -0.059999067 0
0.022215806 -0.23540241 -0.059999064 0
0.022182314 -0.23551197 -0.049999058 0
0.022621937 -0.23565932 -0.039999064 0
0.023246035 -0.23520687 -0.029999066 0
0.022483462 -0.235663 -0.029999066 0
0.022097088 -0.23583871 -0.019999065 0
0.022440854 -0.23538123 -0.0099990666 0
0.022594821 -0.23568419 0.010000937 0
0.0226488 -0.23554373 0.020000936 0
0.021934126 -0.23583542 0.030000931 0
0.02250498 -0.235588 0.030000936 0
0.022051074 -0.23574831 0.040000938 0
0.022302898 -0.23518251 0.050000932 0
0.022612788 -0.23597707 0.06000093 0
0.022541346 -0.23531377 0.060000934 0
0.022588775 -0.23577169 0.070000939 0
0.022414295 -0.2355698 0.080000944 0
0.025522683 -0.2354501 -0.079999067 0
0.02562784 -0.23595451 -0.069999054 0
0.025895277 -0.23563118 -0.059999056 0
0.025316937 -0.23558015 -0.059999049 0
0.025731534 -0.23558712 -0.049999051 0
0.025158942 -0.23553909 -0.039999064 0
0.025292948 -0.23570953 -0.029999057 0
0.025559345 -0.2352466 -0.029999055 0
0.025231389 -0.23575519 -0.019999053 0
0.025400694 -0.23534787 -0.0099990573 0
0.025340576 -0.23530246 0.010000944 0
0.025384698 -0.23540905 0.020000944 0
0.026088255 -0.23584948 0.030000947 0
0.025336474 -0.2349678 0.03000094 0
0.025718765 -0.2354946 0.040000945 0
0.025602672 -0.23555079 0.050000954 0
0.02520193 -0.23555823 0.060000941 0
0.025791032 -0.2354793 0.060000949 0
0.025619859 -0.23585254 0.070000961 0
0.02545803 -0.2356066 0.080000937 0
0.028312292 -0.23562352 -0.079999059 0
0.028494483 -0.23544602 -0.069999047 0
0.028217688 -0.23536755 -0.059999049 0
0.028571559 -0.23558429 -0.059999045 0
0.028709529 -0.23540598 -0.049999051 0
0.028400952 -0.23550275 -0.039999045 0
0.028291196 -0.23613408 -0.029999046 0
0.028189773 -0.23572858 -0.029999044 0
0.028476547 -0.23538613 -0.01999905 0
0.028553518 -0.23516536 -0.0099990461 0
0.028636664 -0.23535159 0.010000957 0
0.028561955 -0.23569551 0.020000961 0
0.028125267 -0.23514223 0.030000953 0
0.028402971 -0.23562025 0.030000957 0
0.028543571 -0.23543695 0.04000096 0
0.02838379 -0.23587041 0.050000966 0
0.028833305 -0.23549062 0.060000956 0
0.028613901 -0.23528267 0.06000096 0
0.028611567 -0.23558635 0.070000976 0
0.02843776 -0.23557469 0.080000967 0
0.031389985 -0.23564541 -0.079999037 0
0.031600606 -0.23574592 -0.069999054 0
0.030940013 -0.23517516 -0.059999038 0
0.031740796 -0.23551852 -0.05999903 0
0.031379342 -0.2353698 -0.049999036 0
0.031401232 -0.23522618 -0.039999038 0
0.032222945 -0.23529606 -0.029999034 0
0.031419557 -0.23601 -0.029999031 0
0.031705391 -0.23570716 -0.019999033 0
0.03168565 -0.23567601 -0.0099990321 0
0.03154289 -0.23558843 0.010000968 0
0.031290773 -0.23548716 0.020000968 0
0.031485043 -0.2359098 0.030000964 0
0.031862177 -0.23563468 0.030000957 0
0.031733055 -0.23506154 0.040000968 0
0.031665716 -0.23564111 0.050000977 0
0.030986561 -0.23627637 0.060000964 0
0.03135974 -0.23563717 0.060000967 0
0.031442292 -0.23551044 0.070000969 0
0.031822171 -0.23557025 0.080000967 0
0.034456018 -0.2355299 -0.079999015 0
0.034464393 -0.23556034 -0.069999039 0
0.034517024 -0.23471652 -0.059999026 0
0.034422472 -0.23548329 -0.059999019 0
0.034566775 -0.23573129 -0.049999021 0
0.034472566 -0.23582725 -0.039999031 0
0.034709003 -0.23543197 -0.029999023 0
0.034238476 -0.2359819 -0.02999902 0
0.034330565 -0.23556142 -0.019999025 0
0.034496207 -0.23553437 -0.0099990238 0
0.034497611 -0.23554574 0.01000098 0
0.034621451 -0.23559022 0.020000977 0
0.034872945 -0.23548059 0.030000981 0
0.034636162 -0.23505446 0.030000975 0
0.034460258 -0.23552912 0.040000979 0
0.034366112 -0.23530918 0.050000969 0
0.035121553 -0.2359698 0.060000975 0
0.03440306 -0.2358454 0.060000971 0
0.034470182 -0.23540162 0.070000991 0
0.034596156 -0.23547161 0.080000989 0
0.037572842 -0.2357163 -0.079999022 0
0.037600528 -0.23550457 -0.069999017 0
0.037731346 -0.23568687 -0.059999011 0
0.037642598 -0.23579901 -0.059999008 0
0.037869636 -0.23519439 -0.04999901 0
0.037510861 -0.23551548 -0.039999016 0
0.037858501 -0.23531452 -0.029999012 0
0.037616182 -0.23542817 -0.029999008 0
0.037332751 -0.23549764 -0.019999014 0
0.037350696 -0.23513897 -0.0099990154 0
0.037456799 -0.23544824 0.010000987 0
0.03723361 -0.23571461 0.020000989 0
0.037272707 -0.2351771 0.030000983 0
0.037495557 -0.23547941 0.03000099 0
0.037507541 -0.23548059 0.04000099 0
0.037387099 -0.23535545 0.050000995 0
0.037282668 -0.23552606 0.06000099 0
0.037613478 -0.23550974 0.060000993 0
0.037227195 -0.23569626 0.070000991 0
0.037613351 -0.23541605 0.080000989 0
0.040186509 -0.23537602 -0.079999 0
0.040445711 -0.23550865 -0.069999017 0
0.040316906 -0.23583333 -0.059999008 0
0.040464547 -0.23542966 -0.059999 0
0.04026299 -0.23577364 -0.049999006 0
0.040586468 -0.23549485 -0.039999008 0
0.03952067 -0.23487803 -0.029999008 0
0.040735088 -0.23581992 -0.029998999 0
0.040667124 -0.23546605 -0.019998999 0
0.04076599 -0.23533142 -0.0099990005 0
0.040279277 -0.23603341 0.010001 0
0.040436171 -0.2358066 0.020000998 0
0.040814284 -0.23615815 0.030001001 0
0.040572207 -0.23569405 0.030001001 0
0.040557664 -0.23533064 0.040001001 0
0.040709898 -0.23561288 0.050000999 0
0.039878629 -0.23567687 0.060000993 0
0.040462434 -0.23524901 0.060001001 0
0.040543836 -0.23576099 0.070001021 0
0.040853191 -0.23556624 0.080001011 0
0.043705598 -0.23578797 -0.079998992 0
0.043503612 -0.23514158 -0.069999009 0
0.043872513 -0.23520212 -0.059998989 0
0.043425038 -0.23558627 -0.059998989 0
0.043378472 -0.2354788 -0.049998987 0
0.04370065 -0.23556398 -0.039998997 0
0.043731607 -0.23517562 -0.029998992 0
0.043359172 -0.23545426 -0.029998992 0
0.04373908 -0.23561889 -0.019998988 0
0.043504391 -0.23547375 -0.0099989921 0
0.043384098 -0.23586783 0.010001014 0
0.043800019 -0.23565663 0.020001011 0
0.04306655 -0.23586057 0.030001009 0
0.043456446 -0.23548788 0.030001009 0
0.043701053 -0.23543473 0.040001012 0
0.043924045 -0.23544519 0.050001014 0
0.043650318 -0.23555169 0.060001004 0
0.043485966 -0.2349429 0.060001008 0
0.043480013 -0.23547603 0.070001021 0
0.043087188 -0.23529683 0.080001019 0
0.046379726 -0.23557691 -0.079998985 0
0.046483919 -0.2353494 -0.06999898 0
0.046585467 -0.2355821 -0.059998982 0
0.046584778 -0.23492885 -0.059998985 0
0.046740178 -0.2352335 -0.049998965 0
0.046436798 -0.2353459 -0.039998986 0
0.046661552 -0.23547499 -0.029998979 0
0.046404239 -0.23550092 -0.029998973 0
0.046319086 -0.23569329 -0.019998981 0
0.046679769 -0.23535338 -0.0099989809 0
0.046385232 -0.23535581 0.010001021 0
0.046425469 -0.2354771 0.020001024 0
0.046794057 -0.23579995 0.03000102 0
0.04661262 -0.23523937 0.030001024 0
0.046553627 -0.2356782 0.040001024 0
0.046444487 -0.23557323 0.050001029 0
0.046293013 -0.23605879 0.060001019 0
0.046544284 -0.23550548 0.060001019 0
0.046999916 -0.23534469 0.070001014 0
0.047029834 -0.23562613 0.080001019 0
0.049825598 -0.23548365 -0.079998985 0
0.049427703 -0.23600042 -0.069998965 0
0.049352825 -0.23550172 -0.059998974 0
0.049275629 -0.2357271 -0.059998963 0
0.049692661 -0.23570418 -0.049998969 0
0.049631331 -0.23545235 -0.039998975 0
0.04881287 -0.23527597 -0.029998973 0
0.04949249 -0.23548496 -0.029998967 0
0.049584493 -0.23539439 -0.01999897 0
0.049583603 -0.23524624 -0.0099989707 0
0.049331572 -0.23551227 0.010001032 0
0.049480334 -0.23548327 0.020001031 0
0.049932808 -0.23540047 0.030001031 0
0.048998035 -0.23561083 0.030001031 0
0.049679592 -0.23564208 0.040001027 0
0.049262606 -0.23548937 0.050001025 0
0.049434651 -0.23537678 0.060001031 0
0.049212441 -0.235348 0.060001034 0
0.049657404 -0.23553555 0.070001051 0
0.049554341 -0.23575966 0.080001049 0
0.052694816 -0.23550138 -0.079998963 0
0.052491173 -0.23560873 -0.069998965 0
0.053149499 -0.23561426 -0.059998956 0
0.052533969 -0.23536511 -0.059998956 0
0.052787904 -0.23565465 -0.049998954 0
0.052735183 -0.235268 -0.039998956 0
0.051767632 -0.23591401 -0.02999896 0
0.052427936 -0.23565465 -0.029998953 0
0.052537348 -0.23530068 -0.01999896 0
0.05270486 -0.23565748 -0.0099989548 0
0.052484754 -0.23576957 0.010001045 0
0.052368265 -0.23568836 0.020001044 0
0.053439029 -0.23638155 0.030001048 0
0.052608438 -0.23524581 0.030001044 0
0.052307516 -0.23532802 0.04000105 0
0.052946489 -0.23522539 0.050001051 0
0.052717552 -0.23503259 0.060001038 0
0.052371353 -0.23557557 0.060001042 0
0.05225233 -0.23535676 0.070001043 0
0.05235336 -0.23544841 0.080001049 0
0.055386778 -0.23504189 -0.079998948 0
0.055336986 -0.23514585 -0.069998957 0
0.054558262 -0.23514768 -0.059998952 0
0.055690654 -0.23578309 -0.059998948 0
0.055473268 -0.23509689 -0.049998954 0
0.055443622 -0.23568368 -0.039998952 0
0.055346429 -0.23522457 -0.029998949 0
0.055351973 -0.23572655 -0.029998945 0
0.055656571 -0.23519483 -0.019998949 0
0.05521971 -0.23560326 -0.0099989483 0
0.055680543 -0.23555443 0.010001056 0
0.055681057 -0.23530586 0.020001054 0
0.055835243 -0.23568875 0.030001057 0
0.055467896 -0.2355258 0.030001052 0
0.05552179 -0.23548871 0.040001057 0
0.0549317 -0.23553735 0.050001059 0
0.055367023 -0.23589621 0.060001053 0
0.055265017 -0.23549779 0.060001057 0
0.055870626 -0.2353697 0.070001066 0
0.055443801 -0.23540588 0.080001056 0
0.058640085 -0.23534565 -0.079738319 0
0.060000274 -0.23587091 -0.07615035 0
0.060000259 -0.23583961 -0.07324896 0
0.058671862 -0.23590119 -0.070142046 0
0.058503717 -0.23570062 -0.059998937 0
0.058917791 -0.23531029 -0.059616126 0
0.0600002 -0.23514099 -0.055720646 0
0.060000189 -0.23521832 -0.052868396 0
0.05854534 -0.23539954 -0.050012257 0
0.0584291 -0.23555636 -0.039998941 0
0.060000129 -0.23574664 -0.036614154 0
0.060000118 -0.23534334 -0.034313463 0
0.058874361 -0.23544799 -0.03055167 0
0.058822598 -0.23548512 -0.029998934 0
0.058649559 -0.23564929 -0.019701589 0
0.060000058 -0.23466425 -0.01635845 0
0.060000043 -0.23542173 -0.013885872 0
0.058935732 -0.23542781 -0.010166733 0
0.058673602 -0.23545803 0.010222246 0
0.059999954 -0.23505126 0.013692504 0
0.059999943 -0.2359699 0.016689591 0
0.05867723 -0.23568115 0.019898165 0
0.059086852 -0.23651005 0.030001068 0
0.058641732 -0.23597504 0.030199025 0
0.059999872 -0.23611948 0.034447938 0
0.059999857 -0.23595098 0.037708521 0
0.058376726 -0.23595501 0.039956305 0
0.05834927 -0.23537964 0.05000107 0
0.059999809 -0.23494023 0.053152796 0
0.059999797 -0.23531811 0.055277713 0
0.059456561 -0.23568961 0.058739748 0
0.058212638 -0.23586266 0.060001068 0
0.058936998 -0.23557483 0.070341274 0
0.05999973 -0.23554492 0.073749349 0
0.059999719 -0.23606424 0.076497763 0
0.058731079 -0.23533499 0.079959497 0
0.060000286 -0.23559949 -0.078829624 0
0.060000271 -0.23609233 -0.07667359 0
0.060000259 -0.23508772 -0.073300749 0
0.060000259 -0.23563917 -0.070758916 0
0.060000204 -0.23549335 -0.058380846 0
0.0600002 -0.2355331 -0.055685498 0
0.060000196 -0.23517422 -0.052535217 0
0.060000185 -0.23579499 -0.050572518 0
0.060000136 -0.23553161 -0.039571635 0
0.060000144 -0.23532067 -0.037625864 0
0.060000129 -0.23543766 -0.034490291 0
0.060000118 -0.23599926 -0.031835124 0
0.060000069 -0.23522009 -0.018692514 0
0.060000066 -0.23577139 -0.016541801 0
0.060000055 -0.23523487 -0.014088194 0
0.06000004 -0.23527002 -0.010701166 0
0.059999961 -0.23532289 0.010916475 0
0.059999947 -0.23566589 0.013601284 0
0.059999943 -0.23561999 0.016185103 0
0.059999939 -0.23556539 0.018754166 0
0.059999891 -0.23570244 0.031660344 0
0.059999879 -0.23532261 0.034469675 0
0.059999861 -0.23521686 0.03745785 0
0.059999861 -0.23534644 0.039325599 0
0.05999982 -0.23549755 0.050485652 0
0.059999812 -0.23564509 0.052609343 0
0.059999786 -0.23501398 0.055440392 0
0.059999794 -0.23552959 0.058521152 0
0.059999745 -0.23558861 0.070674822 0
0.059999738 -0.23568799 0.073041551 0
0.059999723 -0.23515519 0.076693587 0
0.059999716 -0.23516062 0.078920923 0
-0.0098800482 -0.23237792 -0.058916148 0
-0.0099997986 -0.23228991 -0.055191386 0
-0.0099998107 -0.2327037 -0.052646741 0
-0.009999821 -0.23254243 -0.049718197 0
-0.009999834 -0.23274884 -0.046369553 0
-0.0099998433 -0.23232989 -0.043447323 0
-0.0099998536 -0.23286323 -0.040516779 0
-0.0099998666 -0.23256297 -0.037402805 0
-0.0099998768 -0.23238453 -0.034522533 0
-0.0099998871 -0.23270778 -0.031397406 0
-0.0099998992 -0.23254679 -0.028386038 0
-0.0099999085 -0.23239245 -0.025443187 0
-0.0099999206 -0.23229675 -0.022035874 0
-0.0099999318 -0.23266777 -0.019415662 0
-0.0099999402 -0.23236744 -0.016387161 0
-0.0099999513 -0.23274463 -0.013545623 0
-0.0099999625 -0.23247586 -0.010306854 0
-0.0099999709 -0.23261435 -0.0075892154 0
-0.0099999858 -0.23281556 -0.0041933949 0
-0.0099999979 -0.23255405 -0.0010287516 0
-0.010000007 -0.23281816 0.0015653326 0
-0.010000016 -0.23260579 0.0042791129 0
-0.010000029 -0.23251814 0.0077424506 0
-0.010000039 -0.23241526 0.010240546 0
-0.010000046 -0.23247588 0.012952708 0
-0.01000006 -0.23241399 0.016332142 0
-0.010000073 -0.23228209 0.019715147 0
-0.010000083 -0.23235886 0.022467399 0
-0.010000093 -0.23253101 0.025493361 0
-0.010000103 -0.23240238 0.028590674 0
-0.010000113 -0.23269403 0.031391647 0
-0.010000126 -0.23218615 0.034383677 0
-0.010000136 -0.23236795 0.037446342 0
-0.010000148 -0.23236017 0.040613815 0
-0.010000156 -0.23231684 0.043218851 0
-0.01000017 -0.23238675 0.046564512 0
-0.010000181 -0.23246089 0.049571872 0
-0.010000191 -0.23275475 0.052529834 0
-0.010000202 -0.23265934 0.05561702 0
-0.0098796953 -0.23240863 0.058918327 0
-0.0077427644 -0.23292464 -0.059865229 0
-0.00743039 -0.23248237 0.059850149 0
-0.0043830285 -0.23288709 -0.060167313 0
-0.0057514519 -0.23273273 -0.059971221 0
-0.0058462294 -0.2325626 0.059962377 0
-0.004110964 -0.23240767 0.060218532 0
-0.0015453337 -0.23250988 -0.060917161 0
-0.0012241647 -0.23262706 0.061027236 0
0.0027779564 -0.2328914 -0.063124932 0
0.0012455899 -0.23275527 -0.062197961 0
0.0015544188 -0.23248559 0.062386606 0
0.0028047387 -0.2321611 0.063148946 0
0.0058679297 -0.23168272 -0.066011444 0
0.0044199764 -0.23264721 -0.064523555 0
0.0041892743 -0.2322498 0.064334944 0
0.0084972624 -0.23259965 -0.070084564 0
0.0068805325 -0.23253946 -0.067334376 0
0.0068514985 -0.23275669 0.067295708 0
0.0084745344 -0.23236105 0.070052586 0
0.010553411 -0.2324454 -0.079400383 0
0.010114746 -0.23269431 -0.076569691 0
0.0096477242 -0.23204483 -0.073473737 0
0.0091871917 -0.23260064 -0.071648873 0
0.0092636887 -0.23151538 0.071827404 0
0.0097007798 -0.23258221 0.073726892 0
0.010097163 -0.23252252 0.076442175 0
0.010429861 -0.23262556 0.079346456 0
0.013305897 -0.23256125 -0.079999119 0
0.013321984 -0.23233938 0.080000892 0
0.01653607 -0.23247571 -0.079999104 0
0.016514217 -0.23250835 0.080000907 0
0.019357221 -0.23255734 -0.079999104 0
0.020317696 -0.23280302 -0.06971845 0
0.020000242 -0.23249847 -0.06699232 0
0.020000236 -0.23259027 -0.064636432 0
0.02000238 -0.23227221 -0.061220359 0
0.020354027 -0.23302068 -0.059999079 0
0.020314019 -0.23278521 -0.049643718 0
0.020000165 -0.23252483 -0.046489552 0
0.020000158 -0.23207194 -0.043568686 0
0.020162627 -0.2324274 -0.040620703 0
0.020177003 -0.23232989 -0.028760487 0
0.020000091 -0.23233818 -0.025557302 0
0.020000083 -0.23196705 -0.02247853 0
0.020233549 -0.23298812 -0.020243108 0
0.020299371 -0.23222183 -0.0097610895 0
0.020000026 -0.23254836 -0.007278481 0
0.020000018 -0.23230705 -0.0045821466 0
0.020000007 -0.23239623 -0.0017687057 0
0.019999996 -0.23218049 0.0015725977 0
0.019999987 -0.23261903 0.0041975812 0
0.019999972 -0.23278825 0.0079421401 0
0.020191496 -0.23210479 0.0097152237 0
0.020172728 -0.23238198 0.020282252 0
0.019999921 -0.23265171 0.022661017 0
0.01999991 -0.23277928 0.025250278 0
0.020065239 -0.23242058 0.028716011 0
0.020266866 -0.23156211 0.03000091 0
0.020163635 -0.23280226 0.040720053 0
0.019999845 -0.23229536 0.043371525 0
0.019999834 -0.2327731 0.046154533 0
0.020165639 -0.23269293 0.049152475 0
0.020105502 -0.23234051 0.061124247 0
0.019999767 -0.23238946 0.064488627 0
0.019999757 -0.23256041 0.067334957 0
0.020175414 -0.23222567 0.069812104 0
0.019433327 -0.23242813 0.080000915 0
0.022793543 -0.2325172 -0.079999082 0
0.02208901 -0.23276237 -0.069999076 0
0.022289982 -0.23230042 -0.059999079 0
0.022895919 -0.23268579 -0.059999071 0
0.0222135 -0.23262532 -0.049999081 0
0.022537824 -0.23215055 -0.039999083 0
0.023004817 -0.23227903 -0.029999077 0
0.022413537 -0.23246671 -0.02999907 0
0.02264588 -0.23276286 -0.019999078 0
0.022484487 -0.23268582 -0.0099990778 0
0.022512412 -0.23256184 0.010000925 0
0.022727227 -0.23247012 0.020000925 0
0.022831179 -0.23246019 0.030000923 0
0.022180583 -0.23271832 0.030000921 0
0.022456327 -0.23231064 0.040000927 0
0.022397297 -0.23279884 0.050000917 0
0.022450706 -0.23183803 0.060000915 0
0.022156922 -0.23299393 0.06000093 0
0.02234862 -0.23244786 0.070000939 0
0.022364154 -0.23244272 0.080000915 0
0.025703453 -0.23226921 -0.079999082 0
0.02565404 -0.23228411 -0.069999069 0
0.026949013 -0.23293342 -0.059999064 0
0.025833372 -0.23296079 -0.05999906 0
0.026033461 -0.23248574 -0.049999066 0
0.025607061 -0.2325858 -0.03999906 0
0.025239341 -0.23306809 -0.029999066 0
0.025403194 -0.23215663 -0.029999062 0
0.025487363 -0.23230812 -0.01999907 0
0.025771527 -0.23247837 -0.0099990657 0
0.025460858 -0.23232768 0.010000933 0
0.025534397 -0.23239671 0.020000935 0
0.025198752 -0.23286636 0.030000933 0
0.025757737 -0.23233555 0.030000938 0
0.02522495 -0.23257513 0.040000934 0
0.02568101 -0.23226868 0.050000936 0
0.025132198 -0.23255759 0.06000093 0
0.025591353 -0.23262767 0.06000093 0
0.02550401 -0.23270349 0.070000932 0
0.025350984 -0.23218971 0.080000944 0
0.028531492 -0.23243049 -0.079999052 0
0.028594734 -0.23245907 -0.069999062 0
0.028336274 -0.23212665 -0.059999056 0
0.028610604 -0.23233238 -0.059999056 0
0.028605133 -0.23279563 -0.049999062 0
0.028337646 -0.23245497 -0.03999906 0
0.028072359 -0.23263472 -0.029999057 0
0.028829003 -0.2322447 -0.029999055 0
0.028417025 -0.23242341 -0.019999057 0
0.028717689 -0.23227859 -0.0099990563 0
0.028413506 -0.2323433 0.010000945 0
0.028706141 -0.23258071 0.020000946 0
0.028639501 -0.23268747 0.030000946 0
0.028567147 -0.23240195 0.030000944 0
0.028399445 -0.23237969 0.040000949 0
0.028608248 -0.2325667 0.05000094 0
0.028327165 -0.23271953 0.060000945 0
0.028250594 -0.23229043 0.060000949 0
0.028473929 -0.23253416 0.070000954 0
0.028476009 -0.23257954 0.080000959 0
0.031247981 -0.23261417 -0.079999059 0
0.031698003 -0.23234402 -0.069999069 0
0.031765439 -0.23237373 -0.059999049 0
0.031631775 -0.23216477 -0.059999041 0
0.031303611 -0.23255967 -0.04999904 0
0.031686638 -0.23268332 -0.039999045 0
0.031772535 -0.23258837 -0.029999046 0
0.031532895 -0.23237473 -0.029999046 0
0.031733509 -0.23279664 -0.019999044 0
0.030983195 -0.23216173 -0.0099990489 0
0.031279352 -0.23259215 0.010000956 0
0.031501051 -0.23226021 0.020000955 0
0.031716358 -0.23208044 0.030000953 0
0.031251468 -0.23258598 0.030000957 0
0.031361967 -0.23239534 0.040000953 0
0.031298559 -0.23243335 0.050000951 0
0.031682156 -0.23262589 0.060000956 0
0.031563375 -0.2327316 0.06000096 0
0.031452756 -0.23240048 0.070000969 0
0.031687714 -0.23264284 0.080000967 0
0.034546658 -0.23257494 -0.079999022 0
0.034612119 -0.23276715 -0.069999032 0
0.03444986 -0.2325927 -0.059999041 0
0.034656484 -0.23247083 -0.059999034 0
0.034413338 -0.23239633 -0.049999043 0
0.034345578 -0.23233417 -0.039999042 0
0.034616649 -0.23169743 -0.029999038 0
0.034555495 -0.23255862 -0.029999033 0
0.034826886 -0.2324546 -0.019999033 0
0.034573749 -0.23245367 -0.009999034 0
0.034421973 -0.23245102 0.010000968 0
0.03502183 -0.23291744 0.020000968 0
0.034457233 -0.23242854 0.030000968 0
0.03443443 -0.23243678 0.030000964 0
0.03433039 -0.23246282 0.040000971 0
0.034518078 -0.23253873 0.050000977 0
0.034544889 -0.23230404 0.060000971 0
0.034508865 -0.23258686 0.060000967 0
0.034736019 -0.23258591 0.070000984 0
0.034290373 -0.23254502 0.080000967 0
0.037737321 -0.23228718 -0.07999903 0
0.037654083 -0.23262037 -0.069999032 0
0.037493955 -0.23273942 -0.059999026 0
0.037565008 -0.23273337 -0.059999023 0
0.037148718 -0.23220168 -0.049999032 0
0.03752245 -0.23246555 -0.039999031 0
0.037444267 -0.23293848 -0.029999021 0
0.037292931 -0.232558 -0.029999025 0
0.037233032 -0.23260717 -0.019999025 0
0.037642524 -0.23258567 -0.0099990238 0
0.037877411 -0.232279 0.010000979 0
0.03764347 -0.23246016 0.020000979 0
0.037402283 -0.23251146 0.030000977 0
0.037640434 -0.23275313 0.030000973 0
0.037616584 -0.23236693 0.040000983 0
0.037545193 -0.23278475 0.05000098 0
0.037603572 -0.23225495 0.060000978 0
0.037657212 -0.23259787 0.060000964 0
0.037365079 -0.23240359 0.070000999 0
0.037614156 -0.23254153 0.080000982 0
0.040517345 -0.23266853 -0.079999022 0
0.040301323 -0.23256198 -0.069999017 0
0.041181196 -0.23289287 -0.059999011 0
0.040350348 -0.23256753 -0.059999011 0
0.040527206 -0.23219521 -0.049999017 0
0.040233947 -0.23240553 -0.039999016 0
0.040556565 -0.23234083 -0.029999012 0
0.040564358 -0.23236628 -0.029999012 0
0.040766429 -0.23208554 -0.019999012 0
0.040263385 -0.2325809 -0.0099990116 0
0.040473577 -0.23246457 0.010000989 0
0.040865295 -0.23274916 0.020000992 0
0.040549215 -0.23258503 0.030000988 0
0.040722836 -0.23218681 0.03000099 0
0.040160697 -0.23243672 0.040000994 0
0.040353026 -0.23271737 0.050000999 0
0.040066943 -0.23304798 0.060000982 0
0.040710226 -0.23261532 0.06000099 0
0.040561952 -0.23237838 0.070001006 0
0.040668987 -0.23295517 0.080001004 0
0.043243986 -0.2324917 -0.079999 0
0.043337379 -0.23259312 -0.069999024 0
0.042937953 -0.23273125 -0.059999004 0
0.043538377 -0.23254581 -0.059999004 0
0.043654311 -0.23250133 -0.04999901 0
0.043500055 -0.23288175 -0.039999008 0
0.04342743 -0.23284288 -0.029999003 0
0.043775026 -0.23300856 -0.029998997 0
0.04366773 -0.23228462 -0.019999003 0
0.043303244 -0.23287761 -0.0099990023 0
0.043514755 -0.23250188 0.010001 0
0.043578278 -0.23226671 0.020001 0
0.043571595 -0.2325521 0.030001 0
0.043747846 -0.23286334 0.030001005 0
0.043573022 -0.23237017 0.040000997 0
0.043713916 -0.23254007 0.050001007 0
0.042872064 -0.23233362 0.060000993 0
0.043706194 -0.23287876 0.060001001 0
0.043543588 -0.23257159 0.070000999 0
0.043304734 -0.23269072 0.080000997 0
0.046248842 -0.23244107 -0.079999 0
0.046266802 -0.23261578 -0.069998994 0
0.046789695 -0.23261335 -0.059998993 0
0.046776384 -0.23261409 -0.059998989 0
0.046565935 -0.232352 -0.049998991 0
0.046013735 -0.23239841 -0.039998997 0
0.04593651 -0.23214756 -0.029998995 0
0.046670653 -0.23239303 -0.029998986 0
0.046495967 -0.23245585 -0.019998992 0
0.04637209 -0.23253995 -0.0099989912 0
0.046692148 -0.23272923 0.010001012 0
0.046888247 -0.23259723 0.020001011 0
0.046819527 -0.2325644 0.030001011 0
0.046857398 -0.23218657 0.030001011 0
0.046549987 -0.23271546 0.040001016 0
0.046093002 -0.23254035 0.050001018 0
0.046652541 -0.23292616 0.060001004 0
0.046402492 -0.23249099 0.060001016 0
0.046734408 -0.23252104 0.070001028 0
0.046455689 -0.23242378 0.080001019 0
0.049468096 -0.23272046 -0.079998985 0
0.049490325 -0.23260528 -0.069998987 0
0.049131829 -0.23281388 -0.059998982 0
0.049246389 -0.23230042 -0.059998978 0
0.049495183 -0.23246709 -0.049998987 0
0.049749337 -0.23248179 -0.039998978 0
0.049959689 -0.2316729 -0.029998982 0
0.049725384 -0.23234782 -0.029998979 0
0.050352495 -0.23274069 -0.019998973 0
0.049407691 -0.23248242 -0.00999898 0
0.049180523 -0.23245835 0.01000102 0
0.04923949 -0.23269042 0.020001018 0
0.049604438 -0.23268297 0.03000102 0
0.049414933 -0.23255083 0.030001024 0
0.049529411 -0.23286383 0.04000102 0
0.049536958 -0.23267101 0.050001029 0
0.049616221 -0.23285772 0.060001016 0
0.049982831 -0.23237553 0.060001027 0
0.049735297 -0.23258109 0.070001021 0
0.049563702 -0.23249952 0.080001026 0
0.052626643 -0.232572 -0.079998977 0
0.052318089 -0.23254864 -0.069998994 0
0.052196864 -0.23298001 -0.059998974 0
0.052525956 -0.23210314 -0.05999897 0
0.052666478 -0.23252295 -0.049998976 0
0.052107427 -0.23244353 -0.039998967 0
0.053720124 -0.23188494 -0.029998967 0
0.05260836 -0.23244344 -0.029998964 0
0.052395523 -0.23292002 -0.01999897 0
0.052191854 -0.23265669 -0.0099989707 0
0.052238014 -0.23255323 0.010001033 0
0.052458551 -0.2324882 0.020001033 0
0.052305155 -0.2326477 0.030001029 0
0.052378479 -0.23231533 0.030001029 0
0.052569978 -0.23250993 0.040001038 0
0.052783608 -0.23234762 0.050001033 0
0.052206133 -0.23238783 0.060001031 0
0.052428193 -0.23221149 0.060001034 0
0.052271307 -0.23236485 0.070001028 0
0.05224615 -0.23274177 0.080001026 0
0.055274308 -0.23279062 -0.07999897 0
0.055788845 -0.23252366 -0.06999898 0
0.054598965 -0.23235641 -0.059998963 0
0.055580024 -0.23243168 -0.059998959 0
0.055193782 -0.23239282 -0.049998965 0
0.055622771 -0.23234549 -0.03999896 0
0.055994824 -0.23175684 -0.02999896 0
0.055439312 -0.23266293 -0.029998956 0
0.055620424 -0.23232958 -0.019998958 0
0.055530556 -0.23250777 -0.0099989576 0
0.055756122 -0.23253489 0.010001044 0
0.055278428 -0.23249719 0.020001043 0
0.054958832 -0.23270178 0.030001041 0
0.055325419 -0.23216672 0.030001039 0
0.055445146 -0.2323871 0.04000105 0
0.055739492 -0.23244983 0.050001051 0
0.054648027 -0.23307931 0.060001034 0
0.055604711 -0.23253143 0.060001049 0
0.05538962 -0.23245174 0.070001043 0
0.055613574 -0.23240362 0.080001049 0
0.058589552 -0.23267262 -0.079969011 0
0.060000274 -0.23239678 -0.075782508 0
0.060000263 -0.23228848 -0.073436871 0
0.058646698 -0.23252745 -0.070085116 0
0.057677671 -0.23167579 -0.059998956 0
0.058603197 -0.2325872 -0.059782352 0
0.0600002 -0.23297317 -0.055371802 0
0.060000185 -0.23259538 -0.05240351 0
0.058625389 -0.23217261 -0.049998946 0
0.058980688 -0.23259456 -0.039943628 0
0.060000133 -0.23310065 -0.0377369 0
0.060000118 -0.23260428 -0.03441954 0
0.059021182 -0.2330187 -0.030598931 0
0.058494914 -0.23245788 -0.029998938 0
0.058874641 -0.23283246 -0.0198665 0
0.060000051 -0.23319593 -0.015938461 0
0.060000043 -0.23253554 -0.013776052 0
0.058897674 -0.23264143 -0.01010163 0
0.058538802 -0.2326984 0.010051786 0
0.059999947 -0.23261569 0.013897583 0
0.059999939 -0.23254465 0.0161859 0
0.058593888 -0.23247676 0.019871315 0
0.058856037 -0.23245935 0.030485893 0
0.059999872 -0.23276238 0.034628324 0
0.059999865 -0.23230442 0.037296034 0
0.058490366 -0.23253776 0.040001053 0
0.058678355 -0.23240392 0.050063934 0
0.059999805 -0.23301591 0.052664772 0
0.059999801 -0.23200651 0.055344988 0
0.059143558 -0.23271251 0.059440542 0
0.058901951 -0.2325002 0.060001057 0
0.058992386 -0.23264362 0.070012294 0
0.05999973 -0.23221514 0.074008733 0
0.059999719 -0.2325044 0.076386422 0
0.058823884 -0.23263136 0.079821512 0
0.060000289 -0.23266044 -0.078958564 0
0.060000278 -0.23237804 -0.076775648 0
0.060000271 -0.23251009 -0.073609136 0
0.060000259 -0.23234305 -0.070824057 0
0.060000215 -0.23222597 -0.058424298 0
0.060000204 -0.23291156 -0.055901431 0
0.060000189 -0.23248218 -0.051740151 0
0.060000185 -0.23194277 -0.050709628 0
0.060000144 -0.23199297 -0.03936816 0
0.060000114 -0.23239349 -0.037512414 0
0.060000125 -0.23264192 -0.034873039 0
0.060000107 -0.23286089 -0.031324368 0
0.060000069 -0.23201573 -0.018992795 0
0.060000062 -0.23230951 -0.016410476 0
0.060000055 -0.23280646 -0.013797238 0
0.060000043 -0.23276038 -0.011324377 0
0.059999961 -0.23206373 0.01058323 0
0.059999932 -0.2326159 0.013386006 0
0.059999943 -0.232044 0.016626189 0
0.059999932 -0.23288049 0.019521609 0
0.059999891 -0.23256075 0.031400364 0
0.059999879 -0.23247701 0.03407922 0
0.059999868 -0.23258047 0.037444007 0
0.059999861 -0.23216119 0.039567385 0
0.059999824 -0.23248872 0.050374735 0
0.059999812 -0.23261693 0.052687664 0
0.059999797 -0.23254533 0.056137122 0
0.059999794 -0.23285867 0.058457453 0
0.059999749 -0.23244156 0.071116611 0
0.059999738 -0.23226544 0.07344798 0
0.059999723 -0.23261805 0.076847866 0
0.059999708 -0.23238903 0.078849576 0
-0.0097784596 -0.2304254 -0.05829503 0
-0.009689129 -0.23029283 -0.055409912 0
-0.0097040804 -0.2302472 -0.052706908 0
-0.0099430429 -0.23061685 -0.049542744 0
-0.0097021656 -0.23030618 -0.046325557 0
-0.0095581878 -0.23036453 -0.043613993 0
-0.0096133528 -0.23022777 -0.040826075 0
-0.0099676885 -0.22960345 -0.037398905 0
-0.0099998768 -0.22951618 -0.034566291 0
-0.0099998862 -0.2297999 -0.031550623 0
-0.0099998983 -0.22940762 -0.028210977 0
-0.0099999094 -0.22951418 -0.025293617 0
-0.0099999188 -0.22977166 -0.022506803 0
-0.0099999299 -0.22942615 -0.019265307 0
-0.0099999402 -0.22877862 -0.016505014 0
-0.0099999523 -0.22945429 -0.013392779 0
-0.0099999616 -0.22950362 -0.010758293 0
-0.0099999737 -0.22944878 -0.0073790071 0
-0.0099999839 -0.23007621 -0.0045097796 0
-0.0099999961 -0.22952503 -0.0015830244 0
-0.010000007 -0.22942272 0.0014707131 0
-0.010000018 -0.22963357 0.0046317126 0
-0.010000027 -0.22950235 0.0075272825 0
-0.010000039 -0.22962813 0.010301274 0
-0.010000049 -0.22937985 0.013593975 0
-0.010000063 -0.2294814 0.016896067 0
-0.01000007 -0.22941856 0.019620093 0
-0.010000082 -0.22982363 0.022224998 0
-0.010000091 -0.22945036 0.025539204 0
-0.010000103 -0.22930397 0.02860748 0
-0.010000114 -0.22942105 0.031597681 0
-0.010000125 -0.2293324 0.0343742 0
-0.0098539228 -0.229573 0.038033362 0
-0.0097280992 -0.23019068 0.040101137 0
-0.0098126885 -0.23039013 0.04319822 0
-0.0096574612 -0.23029128 0.046285845 0
-0.009832669 -0.23047699 0.049380429 0
-0.0097009037 -0.23044546 0.052545402 0
-0.0096933413 -0.2304254 0.055487856 0
-0.0097057251 -0.23032992 0.058753718 0
-0.0076284995 -0.23025943 -0.058414903 0
-0.0076695797 -0.23020019 -0.055457421 0
-0.0072614257 -0.23020022 -0.052409388 0
-0.0077956044 -0.23020022 -0.049443189 0
-0.0073494879 -0.23020019 -0.046772685 0
-0.0076274504 -0.2302002 -0.043536883 0
-0.0074891974 -0.23001093 -0.040298484 0
-0.0075183124 -0.22870441 -0.038503479 0
-0.0077620815 -0.22861494 0.038415845 0
-0.007662836 -0.22995842 0.040293548 0
-0.0072379014 -0.23019983 0.043382227 0
-0.007644312 -0.23019986 0.046362963 0
-0.0077721537 -0.23019984 0.049189612 0
-0.0074651446 -0.23019983 0.052449796 0
-0.0076583442 -0.23019981 0.055408929 0
-0.0075025177 -0.23030849 0.058805458 0
-0.0044249189 -0.23052461 -0.060158409 0
-0.0042333207 -0.23022942 -0.058771029 0
-0.0047594062 -0.2302002 -0.055505723 0
-0.0047126166 -0.23020023 -0.052069962 0
-0.0045708874 -0.23020017 -0.049420357 0
-0.0045327218 -0.23020014 -0.046434138 0
-0.0045593185 -0.23020013 -0.043348361 0
-0.0045394935 -0.23000136 -0.04034099 0
-0.0041476148 -0.22875318 -0.038552213 0
-0.0046980577 -0.22855423 0.038355175 0
-0.0047196671 -0.23001343 0.040431563 0
-0.0045241006 -0.23019989 0.043672882 0
-0.0046776696 -0.2301998 0.046632346 0
-0.0041643158 -0.23019977 0.049423475 0
