# .PCD v0.7 - Point Cloud Data file format
VERSION 0.7
FIELDS x y z rgb
SIZE 4 4 4 4
TYPE F F F F
COUNT 1 1 1 1
WIDTH 1153
HEIGHT 1
VIEWPOINT 0 0 0 1 0 0 0
POINTS 1153
DATA ascii
0.0018380195 -0.145559 0.0060005328 0
0.0043812874 -0.14529821 -0.0059994571 0
0.0060000056 -0.14482301 -0.0017280874 0
0.0059999926 -0.14518651 0.0019716462 0
0.0042368639 -0.14564992 0.0060005416 0
0.0060000145 -0.14539063 -0.0044100876 0
0.0060000028 -0.14565365 -0.0010981272 0
0.0059999935 -0.1454365 0.0015258555 0
0.0059999833 -0.14516808 0.0044284794 0
-0.0052372231 -0.14234717 -0.0053450279 0
-0.0059999935 -0.14249118 -0.0014416524 0
-0.0060000038 -0.14264606 0.001418256 0
-0.006000015 -0.14264688 0.0043326225 0
-0.0046846955 -0.1423582 0.0060004978 0
-0.00134291 -0.14252898 -0.0059994878 0
-0.0012817417 -0.1424032 0.0060005095 0
0.0015930689 -0.14182195 -0.0059994813 0
0.0015412425 -0.14262594 -0.0059994766 0
0.0018246417 -0.14334731 0.0060005249 0
0.0014861887 -0.14255233 0.0060005202 0
0.004452514 -0.14269939 -0.0059994669 0
0.0036854541 -0.14307415 0.0060005309 0
0.0044786092 -0.14256947 0.0060005309 0
0.006000014 -0.14273234 -0.0042826766 0
0.0060000047 -0.14254065 -0.0017008823 0
0.0059999945 -0.14262767 0.0013043991 0
0.0059999828 -0.14247632 0.0043618288 0
-0.0059999996 -0.13863176 -0.00019427339 0
-0.0052469089 -0.13950378 -0.0053375876 0
-0.0059999931 -0.13944094 -0.0017293137 0
-0.0060000038 -0.13953097 0.0014622791 0
-0.0060000154 -0.13964483 0.0045166453 0
-0.0043000286 -0.13948487 0.0060004876 0
-0.0014290875 -0.13966949 -0.0059994981 0
-0.0013657773 -0.13944894 0.0060004997 0
-0.0013974321 -0.13966504 0.0060004997 0
0.001518672 -0.13952352 -0.0059994878 0
0.0025332284 -0.13927904 0.0060005132 0
0.0017755782 -0.13940935 0.0060005113 0
0.0044917017 -0.13931456 -0.0059233154 0
0.0060000033 -0.14000785 -0.0010553788 0
0.0044679129 -0.13961764 0.0060005202 0
0.006000015 -0.13962625 -0.0045310389 0
0.0060000038 -0.13963707 -0.0013786315 0
0.0059999945 -0.1398353 0.0011835342 0
0.0059999828 -0.13949639 0.0043674833 0
-0.0052373959 -0.13653028 -0.0052587106 0
-0.005999994 -0.13655381 -0.0014623447 0
-0.0060000042 -0.13618961 0.0014349855 0
-0.0060000168 -0.13641059 0.0044697537 0
-0.0046627317 -0.13665508 0.0060004764 0
-0.0017275893 -0.1364972 -0.0059995106 0
-0.0012649582 -0.13659473 0.0060004885 0
0.0016119013 -0.13624164 -0.0059994995 0
0.0011652721 -0.13676547 0.0060004988 0
0.0010019448 -0.13642861 0.0060004964 0
0.0046871183 -0.13636251 -0.0059994883 0
0.0060000052 -0.13675632 -0.001523888 0
0.0044653784 -0.1364888 0.006000509 0
0.0060000164 -0.13642992 -0.0046478342 0
0.0060000042 -0.13663474 -0.0014348673 0
0.0059999931 -0.13644312 0.0016510144 0
0.0059999824 -0.13648896 0.0044254987 0
-0.0050645601 -0.13344669 -0.0052582826 0
-0.0059999935 -0.13362651 -0.0014684934 0
-0.0060000042 -0.13347551 0.0016545829 0
-0.0060000154 -0.1337139 0.0044448967 0
-0.0042830049 -0.13355009 0.0060004666 0
-0.0016749387 -0.13361758 -0.0059995209 0
-0.0014380232 -0.13339855 0.0060004764 0
0.0015236107 -0.13324067 -0.0059995111 0
0.0021920654 -0.1334852 0.0060004909 0
0.0015032106 -0.13349047 0.0060004881 0
0.0045714504 -0.13346939 -0.0059994985 0
0.0060000052 -0.13326624 -0.0016024058 0
0.0059999875 -0.13417037 0.0032993949 0
0.0047894879 -0.13374697 0.0060005006 0
0.0060000164 -0.13376407 -0.0047234599 0
0.0060000038 -0.1333653 -0.0013814629 0
0.0059999935 -0.13358748 0.0013613596 0
0.0059999824 -0.13363498 0.0044699032 0
-0.0054374314 -0.13046804 -0.0052439217 0
-0.0059999931 -0.13035975 -0.0014845303 0
-0.0060000042 -0.13041794 0.001376995 0
-0.006000015 -0.13052167 0.0045100814 0
-0.004439564 -0.13065521 0.0060004559 0
-0.0019721943 -0.13049598 -0.0059995353 0
-0.001419211 -0.13055256 -0.0059995311 0
-0.0015572142 -0.1306008 0.0060004662 0
0.0015017575 -0.13054937 -0.0059995204 0
0.0018316276 -0.13109069 0.0060004806 0
0.0017187509 -0.13042103 0.0060004769 0
0.0045217928 -0.13083929 -0.0059995088 0
0.0060000052 -0.13189323 -0.0015368676 0
0.0047082952 -0.13046931 0.0060004881 0
0.0060000159 -0.13041122 -0.00423826 0
0.0060000056 -0.13064571 -0.0016433254 0
0.0059999926 -0.1303516 0.0018194282 0
0.0059999828 -0.13030659 0.0045367689 0
-0.0052389544 -0.1275799 -0.0052880025 0
-0.0059999926 -0.12768719 -0.0016311622 0
-0.0060000042 -0.12717962 0.0014919211 0
-0.0060000159 -0.12738113 0.0047424366 0
-0.0044622826 -0.12752822 0.0060004443 0
-0.0012460944 -0.127519 -0.0059995423 0
-0.00078645517 -0.12740947 0.0060004578 0
-0.0014846823 -0.1274289 0.006000455 0
0.001451796 -0.1274832 -0.0059995321 0
0.001305362 -0.1275664 0.0060004652 0
0.0042352309 -0.12750328 -0.0059995218 0
0.0042161765 -0.12755951 0.006000476 0
0.006000015 -0.12731643 -0.0044275043 0
0.0060000033 -0.12753102 -0.0012346978 0
0.0059999931 -0.12740405 0.0015271807 0
0.0059999819 -0.12743296 0.0046357997 0
-0.0060000056 -0.12457911 0.0014181876 0
-0.0052598892 -0.12443617 -0.0052950312 0
-0.0059999935 -0.12439784 -0.0015642433 0
-0.0060000052 -0.12434753 0.0017905346 0
-0.0059126876 -0.12452696 0.0046899584 0
-0.0043949173 -0.12474016 0.0060004345 0
-0.0014194879 -0.12429778 -0.0059995544 0
-0.0015756142 -0.12447293 0.0060004443 0
0.00075476046 -0.12556075 -0.0059995432 0
0.0014459039 -0.12458511 -0.0059995428 0
0.0017171004 -0.12479892 0.0060004564 0
0.0044088145 -0.12448093 -0.0059995321 0
0.0047187759 -0.12437705 0.0060004662 0
0.006000015 -0.12452491 -0.0045233448 0
0.0060000042 -0.1246594 -0.0015747414 0
0.0059999945 -0.12448362 0.0011421834 0
0.0059999814 -0.12449966 0.0047833095 0
-0.005269445 -0.12162996 -0.005209065 0
-0.0059999926 -0.12161427 -0.0016857148 0
-0.0060000042 -0.12145177 0.0015544936 0
-0.0060000164 -0.12156277 0.0047006346 0
-0.0045577562 -0.12144442 0.0060004224 0
-0.0015384355 -0.12158465 -0.0059995642 0
-0.0013920872 -0.12149496 0.0060004331 0
0.0014626608 -0.12125695 -0.0059995544 0
0.0017732846 -0.1214209 0.0060004457 0
0.0044646305 -0.12161553 -0.0059995437 0
0.0060000014 -0.12158804 -0.00047730943 0
0.0059999912 -0.12223906 0.0023632664 0
0.0059999852 -0.12138805 0.0039407909 0
0.0044247564 -0.12156369 0.0060004545 0
0.0060000164 -0.12146187 -0.0048341127 0
0.0060000061 -0.12173412 -0.0016366474 0
0.0059999935 -0.12148641 0.0014962765 0
0.0059999828 -0.12147319 0.0043833577 0
-0.0054332148 -0.11858635 -0.0049333209 0
-0.0059999931 -0.11830585 -0.0015442532 0
-0.0060000052 -0.11850207 0.0018039208 0
-0.0059239375 -0.11840402 0.0044565629 0
-0.0045373165 -0.11853645 0.0060004112 0
-0.0014232664 -0.11862965 -0.0059995744 0
-0.0021226171 -0.11812799 0.0060004191 0
-0.0012320906 -0.11877198 0.0060004238 0
0.0016051746 -0.11862426 -0.0059995642 0
0.0014532764 -0.11868083 0.0060004336 0
0.0045358078 -0.11867049 -0.005999553 0
0.0059999903 -0.11908099 0.0026290319 0
0.005999987 -0.11790639 0.0034124283 0
0.0045611854 -0.11849567 0.0060004438 0
0.0060000164 -0.11836951 -0.0046381308 0
0.0060000042 -0.11883311 -0.0015567731 0
0.0059999945 -0.11829345 0.0012673101 0
0.0059999828 -0.11832176 0.0044768141 0
-0.0030215075 -0.11447698 -0.0059995968 0
-0.0054721055 -0.11537655 -0.0051402687 0
-0.0059999935 -0.11531822 -0.0014358306 0
-0.0060000038 -0.11541268 0.0014780078 0
-0.0059526004 -0.11553813 0.0043514669 0
-0.0046156263 -0.11524633 0.0060003996 0
-0.002066409 -0.11618717 -0.0059995875 0
-0.001533934 -0.11553285 -0.0059995861 0
-0.0015490142 -0.11548511 0.0060004117 0
0.00042829959 -0.11427668 -0.0059995856 0
0.0017602978 -0.11550117 -0.0059995744 0
0.0014830441 -0.11549819 0.0060004224 0
0.0042593884 -0.11581834 -0.0059995647 0
0.0044794409 -0.11545575 0.0060004336 0
0.0060000154 -0.11533231 -0.0046619228 0
0.0060000038 -0.11548997 -0.0014158704 0
0.0059999935 -0.11537826 0.0013555681 0
0.0059999814 -0.11560428 0.0047518611 0
-0.0060000084 -0.11151091 0.0021732817 0
-0.0051503167 -0.11233586 -0.0051610144 0
-0.0059999926 -0.11269262 -0.0016796358 0
-0.0060000052 -0.11218993 0.0015796877 0
-0.0060000154 -0.11237182 0.0046587843 0
-0.0043727458 -0.11258278 0.0060003912 0
-0.0013275419 -0.11252414 -0.0059995959 0
-0.0014516718 -0.11273342 0.0060004028 0
0.00018258249 -0.11394767 -0.0059995875 0
0.0014759888 -0.11266803 -0.0059995861 0
0.0015219031 -0.1122001 0.0060004108 0
0.0045403526 -0.11232446 -0.0059995758 0
0.0043972856 -0.11242225 0.006000421 0
0.0060000159 -0.11255015 -0.0047392552 0
0.0060000061 -0.11229393 -0.0014865753 0
0.005999994 -0.1122422 0.0012975322 0
0.0059999824 -0.11266098 0.004571096 0
-0.0060000084 -0.10893985 0.0022406112 0
-0.0060000168 -0.10868392 0.0045403745 0
-0.0030501049 -0.10885708 -0.0059996177 0
-0.005249924 -0.10949887 -0.0051698061 0
-0.0059999931 -0.10938435 -0.0015482863 0
-0.0060000047 -0.1094333 0.001539481 0
-0.006000015 -0.10959685 0.004432248 0
-0.0041627227 -0.10944454 0.0060003805 0
-0.0025391439 -0.10913992 -0.005999615 0
-0.0014610229 -0.10930575 -0.005999608 0
-0.0015995231 -0.10946348 0.0060003893 0
0.0013522652 -0.10947611 -0.0059995973 0
0.0014403099 -0.10968415 0.0060004005 0
0.00476859 -0.10959131 -0.0059995851 0
0.0059999824 -0.11002526 0.0048302142 0
0.0042746523 -0.10947062 0.0060004103 0
0.006000015 -0.11003043 -0.0042996081 0
0.0060000042 -0.10944667 -0.0014791809 0
0.0059999945 -0.109305 0.00133962 0
0.0059999828 -0.10932335 0.0043892534 0
-0.0060000038 -0.10707513 0.00084180769 0
-0.0060000187 -0.10647854 0.0049812067 0
-0.004629211 -0.10645356 -0.0059996317 0
-0.0051737414 -0.10663933 -0.0050912066 0
-0.005999994 -0.10648525 -0.0015676075 0
-0.0060000038 -0.10653574 0.0014111913 0
-0.0059387502 -0.10646114 0.0044665304 0
-0.0044449461 -0.10657474 0.0060003679 0
-0.0012584938 -0.10718481 -0.0059996173 0
-0.0013758909 -0.10628342 -0.0059996196 0
-0.0021498359 -0.10579695 0.0060003744 0
-0.0014598017 -0.10640841 0.0060003791 0
0.0015501591 -0.10652002 -0.0059996075 0
0.0013119184 -0.10670556 0.0060003898 0
0.0043812115 -0.10627094 -0.0059995987 0
0.0059999903 -0.10636798 0.0025583718 0
0.0044848779 -0.10653355 0.006000401 0
0.006000015 -0.10613885 -0.0044814604 0
0.0060000047 -0.10655256 -0.0015361444 0
0.0059999931 -0.10633953 0.0015089778 0
0.0059999828 -0.10647666 0.0044135777 0
-0.0060000089 -0.10371485 0.0022754187 0
-0.0034259541 -0.10435528 -0.0059996354 0
-0.005116866 -0.10342493 -0.0053378409 0
-0.0059999926 -0.10336034 -0.0016847994 0
-0.0060000042 -0.10361147 0.0014856821 0
-0.0058832453 -0.10341007 0.0046489709 0
-0.0045347568 -0.1035712 0.0060003572 0
-0.0014648201 -0.10282888 -0.0059996336 0
-0.001532583 -0.10346843 -0.0059996303 0
-0.0021596968 -0.10389078 0.0060003679 0
-0.001208972 -0.10353013 0.0060003693 0
0.0015149567 -0.10353483 -0.0059996182 0
0.0018447981 -0.10345059 0.00600038 0
0.0042604771 -0.10368831 -0.0059996084 0
0.0059999912 -0.10354763 0.0023765506 0
0.0059999786 -0.10391269 0.0058401865 0
0.0047647008 -0.1036073 0.0060003907 0
0.0060000173 -0.10369988 -0.0046256208 0
0.0060000042 -0.10361072 -0.0013689122 0
0.0059999935 -0.10348959 0.0014171866 0
0.0059999819 -0.10351382 0.0046248259 0
-0.0060000028 -0.10053774 0.00065601728 0
-0.0060000187 -0.10137465 0.0050217193 0
-0.0047122203 -0.09938927 -0.0059996578 0
-0.0050122063 -0.10045701 -0.0054141437 0
-0.0059999931 -0.10032874 -0.0016238875 0
-0.0060000047 -0.10051459 0.0015242698 0
-0.0058945781 -0.10049094 0.0041928892 0
-0.0043511726 -0.10038796 0.0060003465 0
-0.0012978101 -0.10038193 -0.0059996401 0
-0.0015358801 -0.1004441 0.0060003572 0
0.001584236 -0.10066234 -0.0059996285 0
0.0014892567 -0.10077363 0.0060003684 0
0.0045019058 -0.10047631 -0.0059996187 0
0.0059999842 -0.10061867 0.0044101444 0
0.0044622873 -0.10040475 0.0060003786 0
0.006000015 -0.10054742 -0.004517056 0
0.0060000042 -0.10037625 -0.0014817393 0
0.0059999935 -0.10056363 0.0014374156 0
0.0059999819 -0.10090467 0.0045947041 0
-0.006000008 -0.096985847 0.0020162358 0
-0.0050478806 -0.096169889 -0.0059996704 0
-0.0052619143 -0.097648717 -0.005190806 0
-0.0059999935 -0.097368822 -0.0013245523 0
-0.0060000061 -0.097571455 0.0015594412 0
-0.0059909122 -0.097443715 0.0041263318 0
-0.0044977805 -0.097128026 0.0060003344 0
-0.0014532035 -0.098070852 -0.0059996508 0
-0.001583742 -0.097517587 -0.0059996508 0
-0.0022867701 -0.097922049 0.0060003456 0
-0.001387483 -0.097362638 0.006000346 0
0.0016266321 -0.097511895 -0.0059996396 0
0.001711345 -0.097097628 0.0060003567 0
0.0046639261 -0.097470544 -0.0059996289 0
0.0059999921 -0.097028479 0.0022499026 0
0.0059999847 -0.097891741 0.0040928451 0
0.0044002593 -0.097549416 0.0060003675 0
0.006000014 -0.097654797 -0.0042946152 0
0.0060000047 -0.09729667 -0.0015217111 0
0.0059999931 -0.097580254 0.0015932919 0
0.0059999824 -0.097681798 0.0044938647 0
-0.0060000084 -0.094683893 0.002131026 0
-0.0047057369 -0.093143098 -0.0059996806 0
-0.0052769263 -0.094498806 -0.005087683 0
-0.0059999931 -0.094285853 -0.001657603 0
-0.0060000038 -0.094662897 0.0013968946 0
-0.0059207841 -0.094297729 0.0047319611 0
-0.004184382 -0.094324276 0.0060003251 0
-0.0011884666 -0.094508506 -0.0059996611 0
-0.0012914593 -0.094275966 0.0060003353 0
0.0015786476 -0.094477862 -0.0059996513 0
0.0016982986 -0.094643593 0.0060003479 0
0.0047890549 -0.094599277 -0.0059996392 0
0.0059999903 -0.094127975 0.0025734943 0
0.0059999796 -0.095751859 0.0055113416 0
0.0043001277 -0.094395556 0.0060003567 0
0.006000015 -0.094447225 -0.0043600346 0
0.0060000042 -0.094230913 -0.0013649159 0
0.0059999954 -0.094257563 0.0010678882 0
0.0059999833 -0.094471581 0.0043377695 0
-0.0060000024 -0.092970476 0.00045381143 0
-0.0060000145 -0.090753675 0.0038495942 0
-0.0042442768 -0.090745665 -0.0059996876 0
-0.0051143668 -0.091520712 -0.0052195862 0
-0.0059999935 -0.091545209 -0.0015440169 0
-0.0060000042 -0.091639496 0.0015310767 0
-0.0058890465 -0.091562137 0.0044680475 0
-0.0045233192 -0.091417752 0.0060003134 0
-0.0019498507 -0.09241762 -0.0059996732 0
-0.0013263138 -0.091550715 -0.0059996718 0
-0.0016122073 -0.091669358 0.0060003246 0
0.001595231 -0.09164457 -0.0059996615 0
0.0013282374 -0.091276638 0.0060003344 0
0.0042590084 -0.09139815 -0.0059996527 0
0.0059999898 -0.092194282 0.0026680133 0
0.0059999833 -0.091564044 0.004592842 0
0.0045455662 -0.091404043 0.006000346 0
0.0060000154 -0.091653988 -0.0045472905 0
0.0060000047 -0.09152963 -0.0015223469 0
0.0059999935 -0.091611318 0.0014284196 0
0.0059999819 -0.091423169 0.0046409047 0
-0.0060000154 -0.088389382 0.0040706457 0
-0.00450694 -0.088035099 -0.0059996983 0
-0.0053440654 -0.0882928 -0.0051951776 0
-0.0059999935 -0.088522159 -0.0014771585 0
-0.0060000042 -0.088284075 0.0013825757 0
-0.0058466019 -0.088509582 0.0048213606 0
-0.0043737614 -0.088392779 0.0060003027 0
-0.0021842483 -0.089537807 -0.0059996843 0
-0.001415341 -0.088777609 -0.0059996829 0
-0.0026153314 -0.0872491 0.006000306 0
-0.0012437198 -0.088442788 0.0060003144 0
0.0015639452 -0.088772118 -0.0059996718 0
0.0014307626 -0.088802814 0.0060003255 0
0.0044149668 -0.088420592 -0.0059996624 0
0.0059999842 -0.087922797 0.0042227376 0
0.0046227891 -0.088648193 0.0060003363 0
0.0060000145 -0.088260822 -0.0043435227 0
0.0060000047 -0.088458739 -0.0015186857 0
0.0059999931 -0.088867314 0.0016379722 0
0.0059999824 -0.088731937 0.0045331484 0
-0.006000007 -0.085575528 0.0018061068 0
-0.0060000173 -0.086348452 0.0045857341 0
-0.0051034931 -0.086247757 -0.0059997072 0
-0.005100294 -0.085551314 -0.0052073612 0
-0.0059999935 -0.085212804 -0.0015100979 0
-0.0060000047 -0.085527718 0.0015001564 0
-0.0058856513 -0.085644744 0.0043134168 0
-0.0045177662 -0.085353822 0.0060002916 0
-0.0014951091 -0.085650586 -0.0059996946 0
-0.0022762388 -0.084598564 0.0060002976 0
-0.0014542262 -0.085487068 0.0060003027 0
0.0012501894 -0.085521363 -0.0059996843 0
0.0016961085 -0.085388087 0.0060003139 0
0.0044321259 -0.085575446 -0.0059996732 0
0.0059999903 -0.085488133 0.0025325883 0
0.0059999833 -0.084567979 0.004457253 0
0.00439583 -0.085493758 0.0060003242 0
0.0060000154 -0.085488655 -0.0046849456 0
0.0060000033 -0.085466094 -0.0013359799 0
0.0059999921 -0.085441351 0.0017755918 0
0.0059999819 -0.085214108 0.0047724815 0
-0.0060000196 -0.082641564 0.0052284892 0
-0.0049159466 -0.082300432 -0.0059997202 0
-0.005109523 -0.082418971 -0.00539133 0
-0.005999994 -0.082600549 -0.0014332947 0
-0.0060000042 -0.082573585 0.0014976889 0
-0.0059242062 -0.0823889 0.0045650452 0
-0.0042335293 -0.082345799 0.0060002813 0
-0.0024569682 -0.082088105 -0.0059997123 0
-0.0012842508 -0.082551353 -0.0059997048 0
-0.002386959 -0.083597861 0.0060002934 0
-0.0012609735 -0.082598351 0.006000293 0
0.0013978643 -0.082445741 -0.005999695 0
0.0014562081 -0.082279578 0.0060003018 0
0.0043978235 -0.082207896 -0.0059996853 0
0.0059999912 -0.081931733 0.0023249632 0
0.0059999824 -0.082320496 0.0048883227 0
0.0044588265 -0.082449727 0.0060003139 0
0.0060000145 -0.082507655 -0.0043551279 0
0.0060000038 -0.082407698 -0.0014045999 0
0.0059999935 -0.082469784 0.0014243717 0
0.0059999833 -0.082399845 0.0043129888 0
-0.0060000164 -0.07917662 0.0044086012 0
-0.0050302674 -0.079204217 -0.0059997318 0
-0.0052165631 -0.079641066 -0.0052035074 0
-0.0059999926 -0.079447486 -0.0017217625 0
-0.0060000042 -0.079309717 0.0015196071 0
-0.0059292801 -0.079496101 0.0044496828 0
-0.0046201702 -0.079372607 0.0060002701 0
-0.0012011963 -0.079529285 -0.0059997151 0
-0.0022590754 -0.078145951 0.0060002739 0
-0.0014298144 -0.079611719 0.0060002818 0
0.0016509723 -0.079140179 -0.0059997072 0
0.0013794388 -0.079361379 0.0060002911 0
0.0043784641 -0.079679757 -0.0059996946 0
0.0059999907 -0.079104327 0.0024349943 0
0.0059999791 -0.078705214 0.0056970064 0
0.0045307698 -0.079603642 0.0060003041 0
0.006000015 -0.079812415 -0.0045511052 0
0.0060000033 -0.079701357 -0.0013436439 0
0.005999994 -0.079468057 0.0012331618 0
0.0059999828 -0.079453863 0.00456576 0
-0.004578324 -0.076091558 -0.0059997416 0
-0.0050391383 -0.076668151 -0.0054605575 0
-0.0059999945 -0.076645575 -0.0012163609 0
-0.0060000038 -0.076499537 0.0014689665 0
-0.0059704734 -0.076455787 0.0045244843 0
-0.004437685 -0.076338291 0.006000259 0
-0.0012680533 -0.076353915 -0.0059997272 0
-0.0028894476 -0.077227414 0.0060002687 0
-0.0013588788 -0.076525614 0.0060002701 0
0.0015617508 -0.076622479 -0.0059997155 0
0.00130584 -0.076508395 0.0060002808 0
0.0044727409 -0.076447867 -0.0059997058 0
0.0059999898 -0.076338835 0.0026766313 0
0.0059999824 -0.076464161 0.0048113228 0
0.0048323777 -0.076302037 0.006000293 0
0.0060000168 -0.076485947 -0.0045595197 0
0.0060000042 -0.076468565 -0.0014889295 0
0.0059999935 -0.076465629 0.0014483688 0
0.0059999824 -0.076430805 0.0045096879 0
-0.0060000094 -0.072667375 0.0024213253 0
-0.0048108045 -0.073232219 -0.0059997528 0
-0.0051669944 -0.073522359 -0.0053770412 0
-0.0059999926 -0.073346376 -0.0016164716 0
-0.0060000038 -0.073435016 0.0013526262 0
-0.0058375462 -0.073454402 0.0045387284 0
-0.0046571032 -0.073061101 0.0060002469 0
-0.0016799533 -0.073683433 -0.0059997384 0
-0.0027879213 -0.074250467 0.006000258 0
-0.0013516663 -0.073286496 0.006000259 0
0.001389437 -0.073516697 -0.0059997276 0
0.0014531944 -0.073304303 0.0060002692 0
0.0046324772 -0.073482178 -0.005999716 0
0.0045317612 -0.07330811 0.0060002799 0
0.006000015 -0.073398046 -0.004447158 0
0.0060000033 -0.07368055 -0.001268541 0
0.0059999935 -0.073581062 0.001462883 0
0.0059999819 -0.073483557 0.0048004468 0
-0.0092042759 -0.069579177 -0.0013215601 0
-0.0091936551 -0.069440104 0.0015588995 0
-0.0065691518 -0.069683932 -0.0064337202 0
-0.007438831 -0.0698433 -0.0045730812 0
-0.0075293626 -0.069965288 -0.0012936572 0
-0.0075381747 -0.069979064 0.0015488267 0
-0.0073815044 -0.069948919 0.0044780783 0
-0.0065316684 -0.069833294 0.0063521019 0
-0.0043719942 -0.069881544 -0.0072485642 0
-0.0054448475 -0.070814811 -0.0050821509 0
-0.0059999945 -0.070907481 -0.001248299 0
-0.0060000061 -0.07092391 0.0017510912 0
-0.0059377775 -0.070955873 0.0045311628 0
-0.0045407466 -0.070418231 0.0067390837 0
-0.0012484423 -0.069709845 -0.0092169279 0
-0.0014512641 -0.069991238 -0.0075598229 0
-0.0014199837 -0.071000539 -0.0059997472 0
-0.0013424865 -0.070536457 0.0067066881 0
-0.0012477376 -0.069486462 0.009210716 0
0.0012916459 -0.06954845 -0.0092253154 0
0.001454393 -0.069994353 -0.0075416919 0
0.0012988884 -0.071029484 -0.0059997374 0
0.0014934064 -0.070380419 0.0069601499 0
0.001488696 -0.069565147 0.0091867233 0
0.0043613459 -0.06985683 -0.0075579532 0
0.0046015726 -0.07103014 -0.0059997253 0
0.0059999824 -0.071153 0.0047387807 0
0.0045256624 -0.070175521 0.0069199931 0
0.0064665396 -0.069784388 -0.0063348687 0
0.0068592518 -0.070330128 -0.004464203 0
0.0068644672 -0.070373632 -0.0016242141 0
0.006726041 -0.070496008 0.0014277996 0
0.0067448714 -0.070317283 0.0047479379 0
0.0064946073 -0.06980259 0.0064496649 0
0.0092025455 -0.069543667 -0.0012309876 0
0.0092168022 -0.069667898 0.0013750554 0
-0.0091784783 -0.067674957 -0.0016468514 0
-0.0092168776 -0.067371905 0.001427128 0
-0.0065765632 -0.067402259 -0.0065608644 0
-0.0079848422 -0.06750571 -0.0046553435 0
-0.0089248829 -0.06633725 -0.0028025394 0
-0.0088880928 -0.06693884 0.0028876218 0
-0.0082250312 -0.067593202 0.0042777215 0
-0.0065659317 -0.067174189 0.0065743667 0
-0.0047718319 -0.067622267 -0.0079325875 0
-0.0047634034 -0.067875817 0.0079111448 0
-0.0013961711 -0.067479663 -0.0092214448 0
-0.002874465 -0.067305304 -0.0088934638 0
-0.0028364535 -0.067722432 0.0089104865 0
-0.0014171201 -0.067214355 0.0092175519 0
0.001516968 -0.067545354 -0.0092023555 0
0.0028189651 -0.067032352 -0.0089176027 0
0.0028148431 -0.067860797 0.0089198751 0
0.0013815457 -0.067607425 0.0092244456 0
0.0046116365 -0.067307249 -0.0080292923 0
0.004400766 -0.067409165 0.0081436625 0
0.0064709843 -0.067584872 -0.0066656689 0
0.0080938507 -0.067531548 -0.0044874502 0
0.008973645 -0.067523524 -0.0026903604 0
0.0089132637 -0.068186492 0.0028297522 0
0.0080805244 -0.067366652 0.0045084646 0
0.0065689101 -0.0673794 0.0065452247 0
0.009245459 -0.067348674 -0.001236098 0
0.0092583876 -0.067376226 0.0011186207 0
-0.0092186378 -0.064406782 -0.0014354355 0
-0.0092147067 -0.064475834 0.0014340166 0
-0.0064826859 -0.064415947 -0.0066558681 0
-0.0079844985 -0.064689986 -0.0046512331 0
-0.00893055 -0.064694308 -0.0027895109 0
-0.0089011574 -0.064173512 0.0028575629 0
-0.0080877328 -0.064611018 0.0045153345 0
-0.0066007497 -0.064826421 0.0065285652 0
-0.0046233898 -0.064497545 -0.0080159502 0
-0.0048103412 -0.064364225 0.0079014543 0
-0.0012763232 -0.064725861 -0.0092372131 0
-0.0028622174 -0.063717142 -0.0088988012 0
-0.0027549895 -0.064425215 0.0089458944 0
-0.0010410018 -0.064618066 0.0092676422 0
0.0015806775 -0.064183392 -0.0091951005 0
0.0028022078 -0.063604079 -0.0089249006 0
0.002935492 -0.064114511 0.0088674054 0
0.0011472632 -0.064335838 0.0092527093 0
0.004970253 -0.064608514 -0.0078276526 0
0.004543202 -0.064432688 0.0080561079 0
0.0065335152 -0.064453378 -0.0066036726 0
0.008275534 -0.0646194 -0.0041456474 0
0.008872088 -0.064418435 -0.0029239575 0
0.0089236954 -0.064764746 0.0028057448 0
0.0080684256 -0.064474516 0.004549115 0
0.0065019852 -0.064786017 0.0066367104 0
0.0092358207 -0.064434849 -0.0012946988 0
0.0092428243 -0.064382285 0.0012346072 0
-0.0092556626 -0.061384466 -0.00114798 0
-0.0092467861 -0.061394136 0.0012052133 0
-0.0066136224 -0.062002774 -0.0065273275 0
-0.0080485521 -0.061706983 -0.0045740642 0
-0.0089249872 -0.061484121 -0.0028023159 0
-0.0089443428 -0.061288793 0.0027582231 0
-0.0079788724 -0.06147489 0.004678539 0
-0.0065525118 -0.060827281 0.0065898923 0
-0.0046568536 -0.06152834 -0.0079974104 0
-0.0047047487 -0.06153734 0.0079512103 0
-0.0014864968 -0.061403569 -0.0092105838 0
-0.0029232095 -0.061936315 -0.0088722892 0
-0.0028479802 -0.061932251 0.0089054555 0
-0.0012815681 -0.061540317 0.0092376489 0
0.0014264305 -0.061520096 -0.0092178872 0
0.0028510666 -0.061524343 -0.0089036655 0
0.0028442293 -0.061631553 0.0089070778 0
0.001329488 -0.060871482 0.0092323394 0
0.0046136156 -0.061692234 -0.0080086896 0
0.0046775504 -0.061512083 0.0079771485 0
0.0065949433 -0.061607782 -0.0065394398 0
0.0079498878 -0.06181594 -0.0047480823 0
0.0089182826 -0.060891889 -0.0028177234 0
0.0088688908 -0.060962018 0.0029317811 0
0.0080626849 -0.061136957 0.004552213 0
0.0066582249 -0.061364207 0.0064806542 0
0.0092298472 -0.06153148 -0.001338241 0
0.0092363944 -0.061531194 0.0012904847 0
-0.0092249364 -0.058656693 -0.001361703 0
-0.009255195 -0.058141623 0.0011378655 0
-0.0065941368 -0.058777791 -0.006529096 0
-0.008174099 -0.058683529 -0.0043382435 0
-0.0089004785 -0.058242697 -0.0028586991 0
-0.008903699 -0.059096973 0.0028516983 0
-0.0081248209 -0.05857012 0.0044253469 0
-0.0065813907 -0.058525261 0.0065454361 0
-0.0043664519 -0.058623675 -0.0081560789 0
-0.0048833629 -0.058414299 0.0078383852 0
-0.0011656553 -0.058608267 -0.0092509566 0
-0.0028325021 -0.05877085 -0.00891174 0
-0.0028186904 -0.058695387 0.0089181773 0
-0.0012846021 -0.058502313 0.009236454 0
0.0014030727 -0.058263149 -0.009222338 0
0.002860202 -0.058049425 -0.0088997055 0
0.0029386478 -0.058966856 0.0088660149 0
0.0012422663 -0.058353111 0.0092429724 0
0.0046255314 -0.058483165 -0.0080079697 0
0.0046205861 -0.058420502 0.0080005256 0
0.0066851787 -0.05843069 -0.006460058 0
0.0079999035 -0.058674134 -0.0046829698 0
0.0089228395 -0.058921419 -0.0028072479 0
0.0089490684 -0.059562881 0.0027473692 0
0.0081329681 -0.058712445 0.0043887305 0
0.0066380501 -0.058464542 0.0064953794 0
0.0092490884 -0.058522582 -0.0011967848 0
0.0091886418 -0.058754288 0.0016752286 0
-0.0092281364 -0.055231318 -0.0013387427 0
-0.0092670238 -0.055831362 0.0010573342 0
-0.0066220779 -0.055316135 -0.0065124007 0
-0.0081261173 -0.055643454 -0.0044314046 0
-0.0089498926 -0.055643078 -0.0027450554 0
-0.0088756448 -0.055186022 0.0029162094 0
-0.0079843206 -0.055533223 0.0046713934 0
-0.0066700904 -0.05496946 0.006455034 0
-0.0045285895 -0.055407196 -0.008088571 0
-0.0046465374 -0.055426318 0.0079814261 0
-0.0012143995 -0.055657402 -0.0092444196 0
-0.002834161 -0.055186443 -0.0089110304 0
-0.0028865875 -0.055401903 0.0088886442 0
-0.0014020308 -0.055526365 0.0092235748 0
0.0012078753 -0.055335116 -0.0092448257 0
0.0027675058 -0.055768322 -0.0089400169 0
0.0028964782 -0.056617063 0.0088843415 0
0.0014364799 -0.055645481 0.009216235 0
0.0045996755 -0.055441063 -0.0080184573 0
0.0044806199 -0.055669554 0.0080918353 0
0.0063885907 -0.056039795 -0.0067274887 0
0.0079036569 -0.055525992 -0.0048278756 0
0.0089335451 -0.055347294 -0.0027826398 0
0.0089337267 -0.0553279 0.0027826393 0
0.0080180094 -0.055573735 0.0045942869 0
0.0065673068 -0.055574287 0.0065795365 0
0.0092764609 -0.055553149 -0.00096803036 0
0.0092051169 -0.055423662 0.0015215309 0
-0.0092046419 -0.05267207 -0.0014999058 0
-0.0092322892 -0.052490417 0.001333741 0
-0.0066139377 -0.052523769 -0.0065260287 0
-0.0079675782 -0.052451618 -0.0047258674 0
-0.0088991756 -0.052613083 -0.0028617154 0
-0.0089049358 -0.05259138 0.002848831 0
-0.0080968626 -0.052362405 0.0044719414 0
-0.0063865632 -0.052475244 0.0067359935 0
-0.0046685934 -0.052847195 -0.0079987142 0
-0.0047448413 -0.052434813 0.0079421094 0
-0.0014975843 -0.052686833 -0.0092072748 0
-0.0028445371 -0.051595356 -0.0089065321 0
-0.0028711306 -0.052161716 0.0088953543 0
-0.0012805254 -0.052550726 0.0092401244 0
0.0013522041 -0.052488286 -0.0092262449 0
0.0027192754 -0.051496167 -0.0089610023 0
0.002798096 -0.052947409 0.0089271031 0
0.0014944932 -0.052558269 0.0092057819 0
0.0046463199 -0.052791812 -0.0079680784 0
0.0047556683 -0.052660298 0.0079279644 0
0.0065463074 -0.052032903 -0.0065966048 0
0.008074237 -0.052614853 -0.0045397412 0
0.0089146765 -0.053226739 -0.0028260436 0
0.0089040911 -0.052687891 0.0028507893 0
0.008191349 -0.0525252 0.004308085 0
0.0065248758 -0.052555822 0.0066174162 0
0.0092314119 -0.052608803 -0.0013292264 0
0.0092273103 -0.052511614 0.0013460341 0
-0.0092213387 -0.049555156 -0.0014187195 0
-0.0092272786 -0.049395401 0.0013299551 0
-0.006600996 -0.049333885 -0.0065399953 0
-0.0080812089 -0.049596999 -0.0045249392 0
-0.0089390464 -0.050011352 0.0027703673 0
-0.0081563899 -0.049731221 0.0043909624 0
-0.0066218022 -0.049448401 0.006501752 0
-0.0047839666 -0.049450729 -0.007923576 0
-0.0044986191 -0.049537279 0.0080815628 0
-0.0014232878 -0.049528211 -0.0092160264 0
-0.0027677675 -0.048608232 -0.0089399219 0
-0.0027870464 -0.050455328 0.008931906 0
-0.001126994 -0.049056966 0.0092556588 0
0.0013422607 -0.049602438 -0.0092309956 0
0.0028085215 -0.049113538 -0.0089222081 0
0.0028705711 -0.048711404 0.008895576 0
0.0014027136 -0.049581788 0.0092206541 0
0.0044796583 -0.049427249 -0.0081204614 0
0.0044068433 -0.049539253 0.0081304498 0
0.0065642498 -0.049494211 -0.0065862951 0
0.0080713946 -0.04957708 -0.0045206961 0
0.0088708745 -0.05004311 -0.0029267981 0
0.0089188181 -0.048822016 0.0028169055 0
0.0082252128 -0.049336202 0.0042382586 0
0.0065379706 -0.049579095 0.0065975212 0
0.0092380354 -0.049541056 -0.00127646 0
0.009231654 -0.049364138 0.0012793549 0
-0.0092057148 -0.046424828 -0.001509866 0
-0.0092551801 -0.046326626 0.0011531127 0
-0.0065747146 -0.046590839 -0.0065722475 0
-0.0080921007 -0.046499316 -0.0044857664 0
-0.0089132404 -0.046955749 -0.0028293885 0
-0.0089053856 -0.046901882 0.0028477756 0
-0.0081197591 -0.046186101 0.0044431663 0
-0.0067276377 -0.046370652 0.0064079301 0
-0.0048061348 -0.046500381 -0.0079153422 0
-0.0043787002 -0.046402961 0.0081621381 0
-0.0013822959 -0.046425499 -0.0092223734 0
-0.0028702193 -0.047205135 -0.0088953832 0
-0.0028701611 -0.046844747 0.0088957557 0
-0.0016743854 -0.046178613 0.0091839312 0
0.0013481725 -0.046625663 -0.0092296461 0
0.002763879 -0.046549302 -0.008941628 0
0.0028813654 -0.046060409 0.0088908738 0
0.0012429268 -0.046724059 0.0092419432 0
0.0044183135 -0.046438649 -0.008148931 0
0.0044520525 -0.046499319 0.0081005711 0
0.0065225996 -0.046150371 -0.0066019604 0
0.0080786329 -0.046325434 -0.0045233369 0
0.0089229904 -0.046790428 -0.0028069441 0
0.0089584785 -0.045871537 0.0027256743 0
0.0081046391 -0.046522912 0.0045002936 0
0.006613344 -0.046755686 0.0065324935 0
0.0092374915 -0.046545651 -0.0012843743 0
0.0092369718 -0.046740565 0.0012946205 0
-0.0092129614 -0.04361276 -0.0014248478 0
-0.0092261704 -0.043633178 0.0013728089 0
-0.0065435409 -0.04343285 -0.0065875025 0
-0.0080400128 -0.043667391 -0.0045634191 0
-0.008891182 -0.042132802 -0.0028801383 0
-0.0089197457 -0.043768059 0.0028147346 0
-0.0078191422 -0.043606564 0.0049686409 0
-0.0065533658 -0.043341961 0.0065705311 0
-0.0044090743 -0.043223765 -0.0081375139 0
-0.0046260194 -0.043434191 0.0080134133 0
-0.0012446982 -0.04343313 -0.009239627 0
-0.0028069788 -0.043591842 -0.0089228917 0
-0.0029010561 -0.043247603 0.0088823102 0
-0.0013093718 -0.043625146 0.0092353001 0
0.0015161347 -0.043520831 -0.0092083896 0
0.0029053802 -0.043167647 -0.0088801179 0
0.0027610958 -0.044296671 0.0089431591 0
0.0012412291 -0.043605633 0.009242449 0
0.0046968246 -0.04353625 -0.0079685757 0
0.0044493466 -0.04330245 0.0081373975 0
0.0065784883 -0.043572083 -0.0065530278 0
0.0080216639 -0.043445624 -0.0046448153 0
0.0089436769 -0.043430924 -0.0027593784 0
0.0089498339 -0.04494293 0.0027455552 0
0.0079429364 -0.043423194 0.0047394843 0
0.0065913121 -0.043224253 0.00655516 0
0.0092230011 -0.043253433 -0.0013951743 0
0.0092177922 -0.043484904 0.0014154162 0
-0.0092260875 -0.040454641 -0.0013474312 0
-0.0092207016 -0.040511303 0.0014163614 0
-0.006552618 -0.040598415 -0.0065842569 0
-0.0080301343 -0.040579017 -0.0045935442 0
-0.0089108227 -0.041513193 -0.0028349659 0
-0.0089362431 -0.040400881 0.0027767788 0
-0.0080292197 -0.040681027 0.0046105655 0
-0.0066390075 -0.040766206 0.0064926911 0
-0.00443595 -0.040524326 -0.0081418455 0
-0.004520711 -0.040645827 0.0080612861 0
-0.0013320146 -0.04022019 -0.0092269871 0
-0.0028303142 -0.039990157 -0.0089127598 0
-0.002863558 -0.039923903 0.0088986019 0
-0.0011353404 -0.040501233 0.0092578698 0
0.0012521888 -0.040256485 -0.0092418604 0
0.0028288986 -0.040790498 -0.0089133792 0
0.002909183 -0.040908106 0.008878761 0
0.0012938371 -0.040323671 0.0092353877 0
0.0046498235 -0.040408239 -0.0080060791 0
0.004649668 -0.040537994 0.007996656 0
0.0066114985 -0.040425465 -0.0065292907 0
0.0080223046 -0.040494703 -0.0046128137 0
0.0089305853 -0.040707834 -0.0027895009 0
0.0089273825 -0.040607303 0.0027971754 0
0.0079490207 -0.040408343 0.004755185 0
0.006599234 -0.040624242 0.0065371422 0
0.009246815 -0.0405818 -0.0012080299 0
0.0092465747 -0.04032648 0.0012178059 0
-0.0092465626 -0.037309211 -0.0011833127 0
-0.0092230504 -0.037970617 0.001364972 0
-0.0066787601 -0.037496161 -0.0064622117 0
-0.0079829134 -0.037372705 -0.0046290895 0
-0.0089357356 -0.03831638 -0.0027776801 0
-0.0089197932 -0.037890442 0.0028146054 0
-0.0080762915 -0.037638865 0.0044995015 0
-0.0065396382 -0.037422735 0.0066052261 0
-0.0046068192 -0.037223034 -0.0080354642 0
-0.004761003 -0.037389174 0.0079378625 0
-0.0015373995 -0.037548047 -0.0091999462 0
-0.002859103 -0.037342168 -0.0089002512 0
-0.0027771972 -0.03708126 0.0089361398 0
-0.0011800484 -0.037432287 0.0092489719 0
0.0015396778 -0.037731491 -0.0092024487 0
0.002903189 -0.036800411 -0.008881093 0
0.0027299095 -0.037912089 0.008956694 0
0.0018138527 -0.037618347 0.0091639813 0
0.0045580589 -0.037576336 -0.008046085 0
0.0045128656 -0.037423406 0.0080686091 0
0.0065982239 -0.03749894 -0.0065348884 0
0.0080099925 -0.037567701 -0.0046425085 0
0.0089399833 -0.037115429 -0.0027678977 0
0.0089372657 -0.037697475 0.002774436 0
0.0081284065 -0.037565745 0.0044276887 0
0.0065459698 -0.037364222 0.0065993709 0
0.0092388308 -0.037330396 -0.0012537371 0
0.0092161437 -0.037398096 0.0014569694 0
-0.0092607355 -0.034588374 -0.0011034239 0
-0.0092073437 -0.034450777 0.0015278762 0
-0.0066513056 -0.034787104 -0.0064807786 0
-0.0082304189 -0.034392297 -0.0042437734 0
-0.008896471 -0.034098215 -0.002868003 0
-0.0089188153 -0.033907544 0.0028168382 0
-0.0080159567 -0.034542296 0.0046149548 0
-0.0065996926 -0.034730867 0.0065432028 0
-0.0042839479 -0.034441307 -0.0082322182 0
-0.0044174325 -0.034687251 0.0081178322 0
-0.0015538856 -0.034455169 -0.0092003793 0
-0.0028413106 -0.034237023 -0.008907998 0
-0.0027610678 -0.034169305 0.0089431424 0
-0.00128417 -0.034566604 0.0092391009 0
0.0010856993 -0.034567423 -0.0092614545 0
0.0027648245 -0.034365818 -0.0089412602 0
0.0028174564 -0.03461352 0.0089186188 0
0.0012820014 -0.034562137 0.0092351129 0
0.0047606458 -0.034745324 -0.0079669999 0
0.0043369923 -0.034271818 0.008192339 0
0.0065731327 -0.034526423 -0.0065547032 0
0.0080936523 -0.034530517 -0.0044961963 0
0.0089355335 -0.03488427 -0.0027781399 0
0.0089342371 -0.034265704 0.0027813879 0
0.0080341445 -0.034329962 0.0045767478 0
0.00659071 -0.034289557 0.0065550683 0
0.0092202639 -0.034478601 -0.0013954093 0
0.0092491526 -0.034460288 0.0012068958 0
-0.0092645641 -0.031477671 -0.0010708291 0
-0.0092150588 -0.031535119 0.0014268638 0
-0.0065024947 -0.031095032 -0.0066168644 0
-0.00810932 -0.031596906 -0.0044826181 0
-0.0089185964 -0.031554993 -0.0028171232 0
-0.0089062387 -0.030913841 0.002845756 0
-0.0080301119 -0.031417724 0.0045951647 0
-0.0065874602 -0.031697337 0.0065508136 0
-0.0046983343 -0.031551056 -0.0079766233 0
-0.0044339094 -0.031427421 0.0081235552 0
-0.0017669928 -0.03117829 -0.0091693914 0
-0.0027857167 -0.031848945 -0.0089321788 0
-0.0029151256 -0.030250626 0.0088761467 0
-0.0010822265 -0.031488374 0.009261989 0
0.0013246987 -0.031276703 -0.0092309378 0
0.0029195049 -0.031623028 -0.0088740177 0
0.0027963389 -0.032171428 0.0089277923 0
0.0016831439 -0.031674501 0.0091830762 0
0.0044028903 -0.031637024 -0.0081611695 0
0.0046964064 -0.031498119 0.0079684071 0
0.006579089 -0.031682525 -0.0065673348 0
0.0080192173 -0.031460326 -0.0045951162 0
0.0089226002 -0.031647567 -0.0028078954 0
0.0089097945 -0.031076718 0.0028375946 0
0.0080874898 -0.031496715 0.004487806 0
0.0065290807 -0.031282928 0.0066148345 0
0.0092397779 -0.03136551 -0.001260056 0
0.0092509734 -0.031399023 0.0011658088 0
-0.0092649776 -0.028613748 -0.0010509797 0
-0.0091983061 -0.028339176 0.0015618154 0
-0.0065727686 -0.02861247 -0.0065725255 0
-0.0081532141 -0.02860304 -0.0043958263 0
-0.0089815874 -0.027608881 -0.0026722613 0
-0.0089271571 -0.028613364 0.0027976343 0
-0.0080831638 -0.028386714 0.0044862316 0
-0.0067445193 -0.02888044 0.0063837105 0
-0.0046055713 -0.028657636 -0.0080342554 0
-0.0044947835 -0.028700577 0.0080970414 0
-0.0013460382 -0.028377771 -0.0092264665 0
-0.0029434199 -0.029256571 -0.0088636205 0
-0.0028371641 -0.028520161 0.0089100357 0
-0.0014274574 -0.028423332 0.0092189396 0
0.0011746974 -0.028803756 -0.0092506725 0
0.0028098323 -0.028701834 -0.0089217126 0
0.0027999913 -0.028587306 0.0089261904 0
0.0013248613 -0.02858115 0.0092344964 0
0.0046837921 -0.028632585 -0.0079828519 0
0.0045970581 -0.028477842 0.0080212299 0
0.0065852711 -0.028349079 -0.0065497309 0
0.0080148336 -0.028659323 -0.0046347706 0
0.008888443 -0.028606609 -0.0028864711 0
0.0088888556 -0.028363524 0.0028857456 0
0.0081277248 -0.028554209 0.0043878267 0
0.0067030094 -0.028468829 0.006436924 0
0.0092502944 -0.029003127 -0.0011820775 0
0.0092465505 -0.028665166 0.0011916986 0
-0.0092591979 -0.025473019 -0.0011263313 0
-0.0092014624 -0.025683831 0.0015459681 0
-0.0065632011 -0.025166541 -0.0065757553 0
-0.008001077 -0.025530025 -0.0046389326 0
-0.008962946 -0.026417701 0.002715311 0
-0.0080241011 -0.025674202 0.004583193 0
-0.006505399 -0.025368283 0.0066329138 0
-0.0046392172 -0.025453221 -0.0079975529 0
-0.0046055787 -0.025511365 0.0080328258 0
-0.0010941925 -0.02538109 -0.009262342 0
-0.0027929125 -0.025035532 -0.0089290747 0
-0.0028578984 -0.025646878 0.0089010112 0
-0.0013516431 -0.025434509 0.0092278682 0
0.0012507697 -0.025842089 -0.00923914 0
0.0028106889 -0.025648488 -0.0089213513 0
0.0027959151 -0.02564368 0.0089279525 0
0.0011855427 -0.025241137 0.0092510348 0
0.0045152241 -0.025421768 -0.0080677224 0
0.0043734317 -0.025661811 0.008135519 0
0.0065593766 -0.025386665 -0.0065826843 0
0.0079779793 -0.025459953 -0.0047089471 0
0.0089291697 -0.025338113 -0.0027928113 0
0.0089079868 -0.025231175 0.0028417315 0
0.008031331 -0.025418468 0.0046016551 0
0.0066509875 -0.025466751 0.006501467 0
0.0092190076 -0.025462428 -0.0014034926 0
0.0092643583 -0.02533034 0.0010712998 0
-0.0092422459 -0.022520103 -0.001251054 0
-0.0092315776 -0.022640873 0.0013198465 0
-0.0066819983 -0.022099495 -0.0064581339 0
-0.0079688393 -0.022441437 -0.0047001801 0
-0.0089477161 -0.022424283 -0.0027501814 0
-0.0089107817 -0.022193877 0.002835274 0
-0.0080617974 -0.022517184 0.0045721424 0
-0.0065162652 -0.022340337 0.0066108326 0
-0.0046240063 -0.022455148 -0.0080409665 0
-0.0046991366 -0.022407725 0.0079669235 0
-0.0013123435 -0.022787882 -0.009233389 0
-0.0027961691 -0.022076696 -0.0089276694 0
-0.002847953 -0.022641357 0.0089053242 0
-0.0014658186 -0.022526739 0.0092136534 0
0.0013323579 -0.022570051 -0.009226935 0
0.0028007114 -0.021677494 -0.0089257043 0
0.0027675468 -0.022048762 0.0089402739 0
0.0013698223 -0.023092493 0.0092250649 0
0.0045478004 -0.022374893 -0.0080507686 0
0.0044852495 -0.022539398 0.0080977231 0
0.0065728873 -0.022245012 -0.0065460489 0
0.0080512417 -0.022472108 -0.0045684064 0
0.0089138439 -0.022650434 -0.0028280693 0
0.0089041376 -0.022240886 0.0028505747 0
0.00806602 -0.02241258 0.0045812801 0
0.0066315252 -0.022621091 0.0064833816 0
0.0092140147 -0.022463432 -0.0014665178 0
0.0092432601 -0.022308966 0.0012301392 0
-0.0092180297 -0.019523969 -0.0014503495 0
-0.0092234286 -0.019701906 0.0013992491 0
-0.0064630532 -0.0193938 -0.0066746939 0
-0.0079562273 -0.019557687 -0.0046821721 0
-0.0088522974 -0.018625448 -0.0029696557 0
-0.0089173298 -0.019405212 0.0028202019 0
-0.0080275824 -0.019424023 0.004586454 0
-0.0066277422 -0.01989287 0.0065097129 0
-0.0044437028 -0.0196745 -0.008126121 0
-0.0045881965 -0.019529188 0.008065206 0
-0.0013358982 -0.019493898 -0.0092303362 0
-0.0029099567 -0.019160859 -0.0088782078 0
-0.0028896276 -0.018370347 0.0088871894 0
-0.00097648869 -0.019441197 0.0092756152 0
0.0014168408 -0.019655438 -0.0092196204 0
0.0029537152 -0.018290365 -0.008859193 0
0.0028071795 -0.01934634 0.0089230323 0
0.0015144449 -0.01960128 0.0092061982 0
0.0046024271 -0.019575739 -0.0080208397 0
0.0046808934 -0.019282563 0.0079896934 0
0.0066651651 -0.019657204 -0.0064883949 0
0.0080041951 -0.019269925 -0.0046330779 0
0.0088887252 -0.020387024 -0.0028858536 0
0.0089553529 -0.019263474 0.0027327677 0
0.0081597073 -0.019229094 0.0043650945 0
0.0065963133 -0.019841669 0.0065399897 0
0.0092368126 -0.019368308 -0.0012716186 0
0.0092456136 -0.019430228 0.0012256361 0
-0.0092225736 -0.016400442 -0.0013827169 0
-0.0092554176 -0.01664569 0.0011453377 0
-0.006404147 -0.016881788 -0.0067206896 0
-0.0080941767 -0.016432745 -0.0044966722 0
-0.0088583762 -0.016277738 -0.0029556854 0
-0.0089184912 -0.016054589 0.002817522 0
-0.0081391707 -0.01648468 0.0044731339 0
-0.0066472958 -0.016652722 0.006471111 0
-0.0043808585 -0.016309641 -0.0081544947 0
-0.0044117025 -0.016430136 0.008140414 0
-0.0010060885 -0.016413527 -0.0092724999 0
-0.0028643692 -0.017022746 -0.0088980356 0
-0.0028585107 -0.016807055 0.0089007132 0
-0.001443326 -0.016424693 0.0092149116 0
0.0012259916 -0.016667191 -0.0092447391 0
0.0028061816 -0.016218092 -0.0089233452 0
0.0028920015 -0.017042333 0.0088861445 0
0.0012940732 -0.016486613 0.0092375986 0
0.0046954518 -0.01668122 -0.0079620723 0
0.0046065901 -0.01647201 0.0080243712 0
0.0066107246 -0.016134821 -0.0065241931 0
0.0080429642 -0.016336419 -0.0045451033 0
0.0089351228 -0.016153341 -0.0027791532 0
0.0089363316 -0.016824599 0.0027765057 0
0.00797329 -0.016504087 0.0046979063 0
0.0066430806 -0.016449768 0.0065093152 0
0.0092284176 -0.016549366 -0.0013362286 0
0.0092352098 -0.016631827 0.0012982372 0
-0.0092440238 -0.013572344 -0.0012477617 0
-0.0092476495 -0.013629298 0.0011804006 0
-0.0065700011 -0.013637094 -0.0065564583 0
-0.0081312954 -0.013442732 -0.004423128 0
-0.0088920211 -0.014031743 -0.0028783102 0
-0.0089178178 -0.013177194 0.0028190578 0
-0.0081947092 -0.013566057 0.0042687985 0
-0.0063172351 -0.013309869 0.0068132076 0
-0.0045638192 -0.013656292 -0.0080545889 0
-0.0046286704 -0.013636407 0.0080369981 0
-0.00094739691 -0.013645303 -0.0092815254 0
-0.0027956134 -0.013358702 -0.0089279423 0
-0.0027895987 -0.013340417 0.0089306617 0
-0.0011995703 -0.013290955 0.009249582 0
0.0013445048 -0.013636672 -0.0092269657 0
0.0028078775 -0.013811188 -0.008922616 0
0.0028625201 -0.013966721 0.008898952 0
0.0012877787 -0.013370062 0.0092349425 0
0.0045313882 -0.013808148 -0.0080603464 0
0.0048483936 -0.013497381 0.0078878589 0
0.0065597598 -0.013452809 -0.0065755611 0
0.0081500243 -0.013494219 -0.0044054622 0
0.0089288549 -0.013391932 -0.0027935784 0
0.008922792 -0.013902253 0.0028076391 0
0.0081866831 -0.013332511 0.0043091225 0
0.006593253 -0.013744529 0.0065481784 0
0.0092280544 -0.013744166 -0.0013705867 0
0.0092500234 -0.013458197 0.0011875317 0
-0.0092330566 -0.010541935 -0.0013099951 0
-0.0092090229 -0.010856297 0.001503572 0
-0.0065466245 -0.010370296 -0.0065804045 0
-0.0081436131 -0.010506178 -0.0043585892 0
-0.0089217126 -0.0098954244 -0.0028100342 0
-0.0088994652 -0.011093523 0.0028612635 0
-0.008069979 -0.01053765 0.0045463629 0
-0.0064756135 -0.010567985 0.0066645285 0
-0.004610654 -0.010630477 -0.0080695841 0
-0.0045921453 -0.010446166 0.008025906 0
-0.0012001307 -0.010791239 -0.0092464034 0
-0.0029002745 -0.01047981 -0.0088824481 0
-0.0029316584 -0.010494711 0.0088688862 0
-0.0015550267 -0.010168476 0.0091989441 0
0.0011229396 -0.010728217 -0.0092575643 0
0.0027942986 -0.0099925781 -0.0089285336 0
0.0029309515 -0.0093212947 0.0088691814 0
0.0013675926 -0.010428363 0.0092272395 0
0.00431081 -0.010427471 -0.0081895618 0
0.0046704109 -0.010482053 0.0079779439 0
0.0065236944 -0.010615416 -0.0066190986 0
0.008125918 -0.010143568 -0.0044220751 0
0.0089281667 -0.01136363 -0.0027951701 0
0.0089370878 -0.01033558 0.0027747441 0
0.0081065437 -0.010494138 0.0044696205 0
0.0065638376 -0.010694786 0.0065737139 0
0.009253975 -0.01046843 -0.0011623156 0
0.009234692 -0.010358272 0.0013164583 0
-0.0092594419 -0.007563612 -0.0010981343 0
-0.0092446767 -0.0071078395 0.0012185677 0
-0.0065459968 -0.0075272219 -0.0065928693 0
-0.0081301956 -0.0074251718 -0.0043788478 0
-0.0089751314 -0.008142543 -0.0026871825 0
-0.0089407004 -0.0073831282 0.0027664076 0
-0.0082105938 -0.0076509123 0.004283627 0
-0.006589009 -0.0073916195 0.0065464908 0
-0.0045337137 -0.0074094129 -0.0080502592 0
-0.0044626682 -0.0075203385 0.0081205498 0
-0.001376599 -0.0073448564 -0.0092243329 0
-0.0028147316 -0.0076248534 -0.0089196516 0
-0.0029168003 -0.0072242632 0.0088753346 0
-0.0012436182 -0.0072245644 0.0092445742 0
0.0013077697 -0.0074734511 -0.0092350189 0
0.0027904199 -0.0075774305 -0.0089302305 0
0.0027473979 -0.0065492811 0.008948978 0
0.0013764898 -0.0074621644 0.0092219366 0
0.004570757 -0.0076465509 -0.008038477 0
0.0046048444 -0.0073431772 0.0080281598 0
0.0064942893 -0.0079578143 -0.0066386154 0
0.0079922089 -0.007561502 -0.0046472056 0
0.0089116683 -0.0072519481 -0.0028331291 0
0.0089618145 -0.0071600243 0.0027178633 0
0.0080070728 -0.0077268486 0.0046612355 0
0.0064690099 -0.007264229 0.0066811782 0
0.0092460057 -0.0076253628 -0.0012033752 0
0.0092496732 -0.0075713694 0.001193003 0
-0.0092404848 -0.0045858151 -0.0012614195 0
-0.0092376219 -0.0044028 0.0012844004 0
-0.006664848 -0.0045382343 -0.0064525893 0
-0.0081403097 -0.0043652733 -0.0043595177 0
-0.0089284452 -0.0051714513 -0.0027945654 0
-0.0089439722 -0.0042844331 0.0027588746 0
-0.0082217995 -0.0046287458 0.0042546117 0
-0.0064032385 -0.0045093107 0.0067211352 0
-0.0046349387 -0.0045212395 -0.0080141155 0
-0.0044833319 -0.0044862917 0.0081044817 0
-0.0015276239 -0.0043931333 -0.0091970777 0
-0.002982015 -0.0052672047 -0.0088469293 0
-0.0027588697 -0.0042180372 0.0089439889 0
-0.0012378455 -0.0044342438 0.0092425207 0
0.0012292602 -0.0047331769 -0.0092456732 0
0.002793764 -0.004503658 -0.008928786 0
0.0028358549 -0.0040245713 0.0089105098 0
0.001409772 -0.0044072066 0.0092205368 0
0.0045816484 -0.0042832722 -0.0080668479 0
0.0046366281 -0.0043440242 0.0080101015 0
0.0065827132 -0.0044484707 -0.0065482166 0
0.0079808962 -0.004610939 -0.004679502 0
0.0089368196 -0.0049886913 -0.0027752889 0
0.0089143617 -0.0048464271 0.0028269968 0
0.0080838278 -0.004526881 0.004497055 0
0.0066262111 -0.0045980262 0.0065089869 0
0.0092217615 -0.0045894212 -0.00138929 0
0.0092268279 -0.0047423942 0.00134771 0
-0.0092601823 -0.001531734 -0.0010992524 0
-0.0092492029 -0.001590151 0.0011889283 0
-0.0065866397 -0.0015320571 -0.0065333154 0
-0.0079770833 -0.0013664474 -0.0046816505 0
-0.0089280652 -0.0011218797 -0.0027954562 0
-0.0088858502 -0.0017522003 0.0028925445 0
-0.0080615822 -0.0012677745 0.0044812178 0
-0.0066223652 -0.00121055 0.0065042572 0
-0.0043203393 -0.0016302607 -0.0081849815 0
-0.0044772672 -0.0012994123 0.008097156 0
-0.0011962556 -0.0013783489 -0.0092465216 0
-0.0027873057 -0.0019051605 -0.0089315968 0
-0.0028671804 -0.0018758265 0.0088968892 0
-0.0012041259 -0.0014287361 0.0092472797 0
0.0012861968 -0.0015148213 -0.009238692 0
0.0027621998 -0.00081031088 -0.008942524 0
0.0027914252 -0.0019314385 0.0089298198 0
0.001341267 -0.0016544198 0.0092273643 0
0.0042988141 -0.0011531579 -0.0081896847 0
0.0044821771 -0.0014755684 0.0081136478 0
0.0065245498 -0.0012922399 -0.0066124955 0
0.0079647731 -0.0014538051 -0.0047060074 0
0.00891467 -0.0015385938 -0.0028262462 0
0.0089240232 -0.0012232412 0.0028047613 0
0.0079594571 -0.0014892841 0.0047319895 0
0.0066568381 -0.0015915727 0.006471917 0
0.009222433 -0.001315571 -0.0013543412 0
0.0092458706 -0.0017780745 0.0012138134 0
-0.0091301845 -1.3065384e-09 -0.00036092321 0
-0.0091035664 5.4698623e-09 0.0015110158 0
-0.0061467085 -2.3288312e-08 -0.0064332532 0
-0.0073237335 -1.5567384e-08 -0.0043003941 0
-0.0076815439 -6.4933605e-09 -0.0017937509 0
-0.0074204444 5.190965e-09 0.0014339722 0
-0.0071038818 1.5727984e-08 0.0043447586 0
-0.0067588389 2.2522851e-08 0.0062217987 0
-0.0045454586 -2.5181777e-08 -0.0069563105 0
-0.0043828902 -1.6548885e-08 -0.0045715277 0
-0.0044769691 -5.8601235e-09 -0.001618823 0
