# .PCD v0.7 - Point Cloud Data file format
VERSION 0.7
FIELDS x y z rgb
SIZE 4 4 4 4
TYPE F F F F
COUNT 1 1 1 1
WIDTH 1210
HEIGHT 1
VIEWPOINT 0 0 0 1 0 0 0
POINTS 1210
DATA ascii
0.0093375053 -0.22695814 0.035333578 0
0.010499099 -0.22640137 0.037615716 0
0.011654355 -0.22656116 0.039744891 0
0.010535598 -0.22644855 0.042988919 0
0.012885137 -0.22618754 -0.042881679 0
0.012425533 -0.22658673 -0.041149497 0
0.012388147 -0.22653498 0.041122459 0
0.012905094 -0.22627801 0.042747553 0
-0.0030811075 -0.22292165 -0.00028828904 0
-0.0030799257 -0.22283435 0.00034205645 0
-0.00022024826 -0.22331017 -0.016010694 0
-0.00056020648 -0.22365348 -0.01398076 0
-0.0011903492 -0.22347355 -0.010556846 0
-0.0017386304 -0.22369348 -0.0074214926 0
-0.0023041924 -0.2234685 -0.0043748161 0
-0.0027857432 -0.22354837 -0.0016680961 0
-0.0027950045 -0.22360116 0.001641556 0
-0.0023406602 -0.22344255 0.004303168 0
-0.0017945378 -0.22341196 0.0074341721 0
-0.0012458479 -0.22370683 0.010440978 0
-0.00073321338 -0.2233716 0.013510787 0
-0.0002637218 -0.22318092 0.01627259 0
-1.662989e-06 -0.22201547 0.018266052 0
0.0028960404 -0.22291727 -0.033600841 0
0.0024920441 -0.22331282 -0.031295713 0
0.0019839897 -0.22349842 -0.028342888 0
0.0015277767 -0.2235772 -0.025640056 0
0.00099062535 -0.22379465 -0.022532506 0
0.00041815563 -0.22339937 -0.019518139 0
0.00076808827 -0.22397293 -0.016965006 0
0.0026032198 -0.22352615 -0.013614784 0
0.00201045 -0.22346076 -0.010511707 0
0.0015011942 -0.22347848 -0.0071392395 0
0.0012002913 -0.22341672 -0.0044797114 0
0.0010113593 -0.22346695 -0.0016295792 0
0.0010363692 -0.2234409 0.0015913985 0
0.0012210164 -0.22338669 0.0045333258 0
0.0015486038 -0.22368017 0.0073935715 0
0.0020173802 -0.22379063 0.010340502 0
0.0026079291 -0.22366065 0.013509715 0
0.0015175665 -0.2233272 0.016626418 0
0.00031354191 -0.22339782 0.019475758 0
0.00078945328 -0.22338322 0.022199098 0
0.0013763204 -0.22333369 0.025570793 0
0.001880661 -0.22336598 0.028436441 0
0.0023993775 -0.22348028 0.031349145 0
0.0028373422 -0.22328164 0.033934359 0
0.0053471988 -0.22329545 -0.043197226 0
0.0044747484 -0.22325282 -0.040210567 0
0.0037141647 -0.22361982 -0.037363153 0
0.0031488631 -0.22353941 -0.034721158 0
0.0058924984 -0.22384861 -0.027397858 0
0.0054153963 -0.2234626 -0.025603177 0
0.0046509989 -0.22346823 -0.022595985 0
0.0039167968 -0.22353104 -0.019440733 0
0.0033041858 -0.22332637 -0.016754625 0
0.0030084343 -0.22485404 0.014961288 0
0.0032943618 -0.22377406 0.016622109 0
0.0038595237 -0.22358307 0.019346491 0
0.0046219998 -0.22332887 0.022732962 0
0.0053233569 -0.22360352 0.025533229 0
0.0058610304 -0.22380842 0.027665826 0
0.0031394551 -0.22397481 0.035363402 0
0.0035807448 -0.22354688 0.037528198 0
0.004371929 -0.22350772 0.040463626 0
0.0052026128 -0.22344247 0.043264568 0
0.0073686084 -0.22343451 -0.043916468 0
0.0082976352 -0.22349721 -0.034106459 0
0.0070367465 -0.2234474 -0.031545773 0
0.0062591215 -0.2235526 -0.028842133 0
0.0062343813 -0.22333424 0.029215492 0
0.0070022624 -0.22355632 0.031515587 0
0.0082728425 -0.22341767 0.034039572 0
0.0075275539 -0.22325382 0.043966707 0
0.010451215 -0.22385745 -0.043795642 0
0.011431269 -0.22343096 -0.039899997 0
0.01014913 -0.22350293 -0.03753306 0
0.0091864588 -0.22375832 -0.035714377 0
0.009161137 -0.22381423 0.035622831 0
0.010111778 -0.22337236 0.037487816 0
0.011462026 -0.22346862 0.039984632 0
0.01062873 -0.22353241 0.04386365 0
0.012914902 -0.22333077 -0.043373179 0
0.012322365 -0.22327834 -0.041537844 0
0.012243235 -0.22361131 0.041410223 0
0.012980783 -0.22335193 0.043188579 0
-0.0031552275 -0.22044881 -0.00090294675 0
-0.0031761215 -0.22031957 0.00086595712 0
-2.0654546e-05 -0.22001991 -0.018484248 0
-0.00033415548 -0.22046034 -0.01656092 0
-0.00088804041 -0.22060169 -0.013427039 0
-0.0014223254 -0.2206483 -0.010441319 0
-0.0019148272 -0.22065243 -0.0077052121 0
-0.002473813 -0.22059941 -0.0046236985 0
-0.0029225973 -0.22080651 -0.0020460701 0
-0.0028746016 -0.22078969 0.0023868 0
-0.002513109 -0.22059603 0.0045332932 0
-0.0019689791 -0.22057039 0.0076508061 0
-0.0014502308 -0.22055048 0.010620959 0
-0.00095514848 -0.220779 0.013350003 0
-0.0004526783 -0.22026771 0.016436879 0
-8.1971026e-05 -0.22005345 0.018644787 0
0.0027817776 -0.22043066 -0.033853475 0
0.0023437939 -0.22046219 -0.031559408 0
0.001801056 -0.22043011 -0.028648876 0
0.0012922479 -0.22034727 -0.025758127 0
0.00072891416 -0.22039236 -0.022491738 0
0.00023568714 -0.22059356 -0.019669406 0
0.0028821561 -0.22054815 -0.015671683 0
0.0023975978 -0.22074997 -0.013473866 0
0.0017511849 -0.22058295 -0.010580485 0
0.0011922449 -0.22020793 -0.007434383 0
0.00098766224 -0.22048807 -0.0046439408 0
0.00091035565 -0.22036979 -0.0014968067 0
0.00091577932 -0.22051431 0.0013289921 0
0.00096549792 -0.22049516 0.0043084752 0
0.001233907 -0.22030734 0.0076613291 0
0.0017598037 -0.22041151 0.010579555 0
0.0024019293 -0.22038034 0.013486377 0
0.0028683238 -0.22006759 0.015770182 0
0.00014586393 -0.22041929 0.019789441 0
0.00065570127 -0.22061662 0.022616044 0
0.0011699526 -0.22058745 0.025564466 0
0.0016976808 -0.2204815 0.02862261 0
0.0022281087 -0.22058658 0.031606104 0
0.00275758 -0.22053346 0.034422424 0
0.0054116477 -0.22052245 -0.04353131 0
0.0046230117 -0.22048157 -0.040745381 0
0.0037299218 -0.22043718 -0.037525333 0
0.0031762139 -0.22040713 -0.03549457 0
0.0058642309 -0.22006157 -0.027705496 0
0.0052856728 -0.22050232 -0.025429228 0
0.0044671292 -0.22032212 -0.022295985 0
0.0037393202 -0.22029588 -0.019417116 0
0.0032038591 -0.220783 -0.017035373 0
0.0032081271 -0.22089887 0.017087661 0
0.0038287735 -0.22068098 0.019831719 0
0.0044651227 -0.22033955 0.022457058 0
0.0051955739 -0.22030388 0.025389342 0
0.0057643177 -0.22037503 0.02766143 0
0.0030900484 -0.2202559 0.035780851 0
0.0036030544 -0.22028188 0.037653785 0
0.0043875375 -0.22046761 0.040517956 0
0.0053066984 -0.22031042 0.0436945 0
0.0073172925 -0.21917729 -0.045031786 0
0.0073891273 -0.22063744 -0.044649087 0
0.0089970883 -0.21936215 -0.036051415 0
0.0082549294 -0.22063334 -0.03456739 0
0.0068815229 -0.22040837 -0.031545088 0
0.006282798 -0.22087663 -0.029227586 0
0.0062107891 -0.22051829 0.029435294 0
0.0067613875 -0.22058071 0.031430654 0
0.0082718208 -0.22074573 0.034552488 0
0.0073881852 -0.22085334 0.044599917 0
0.0074399486 -0.21918078 0.045037586 0
0.011464409 -0.21911816 -0.045040179 0
0.010374637 -0.22060068 -0.044649545 0
0.011463428 -0.22023758 -0.040240914 0
0.0099419476 -0.22078399 -0.03759351 0
0.0091165584 -0.22176576 -0.035956174 0
0.0090150116 -0.2216201 0.035781622 0
0.010008365 -0.22049321 0.037726864 0
0.011489672 -0.22051094 0.0402923 0
0.010699742 -0.22078429 0.044607673 0
0.01024276 -0.21914895 0.04504592 0
0.013484334 -0.21913408 -0.045035951 0
0.013129552 -0.22037297 -0.04380152 0
0.01223391 -0.22054434 -0.041549601 0
0.012247211 -0.22101264 0.041591197 0
0.013165384 -0.22043765 0.043843191 0
-0.0032630512 -0.21722007 -0.0016441561 0
-0.003239823 -0.21756995 0.0016755916 0
-0.0030590519 -0.21639289 0.0032099229 0
-0.00015224794 -0.21740705 -0.018837914 0
-0.00060238072 -0.21712953 -0.016453881 0
-0.0010601948 -0.21777654 -0.013643607 0
-0.0016549852 -0.21739373 -0.010500152 0
-0.0021833919 -0.21755995 -0.0074974359 0
-0.0027033817 -0.2174738 -0.0046461681 0
-0.0029874274 -0.21826728 -0.0027398719 0
-0.0027356786 -0.21769021 0.0045025516 0
-0.0022289699 -0.2175651 0.0074488665 0
-0.0016877732 -0.21749051 0.010570495 0
-0.0012433626 -0.21721908 0.01322358 0
-0.00063624437 -0.21758656 0.016532959 0
-0.00018038052 -0.2173489 0.019237 0
0.0026934366 -0.21757069 -0.033770807 0
0.0021497123 -0.21745849 -0.031525601 0
0.0015710022 -0.21749547 -0.028528707 0
0.00099355099 -0.21732889 -0.025414923 0
0.00049675762 -0.21729831 -0.022530824 0
0.00012543426 -0.2175343 -0.020326806 0
0.0027695259 -0.21738245 -0.015950769 0
0.0022474644 -0.21751353 -0.013701349 0
0.0015058176 -0.21767414 -0.010434435 0
0.0011218064 -0.21743686 -0.0077129058 0
0.001084793 -0.21736114 -0.0046628062 0
0.0010153025 -0.21749441 -0.0012533381 0
0.001032775 -0.21766113 0.0014164767 0
0.001027858 -0.21752569 0.0044848863 0
0.0010637253 -0.21736598 0.0075577381 0
0.0015776876 -0.21765631 0.010531998 0
0.0022204865 -0.21746294 0.013492691 0
0.0027860662 -0.21745256 0.015963562 0
7.9840844e-05 -0.21780349 0.02052871 0
0.00036277136 -0.2172211 0.022392545 0
0.00095325499 -0.21759133 0.02560579 0
0.0014184351 -0.21740299 0.028341977 0
0.0019707284 -0.21753018 0.031369243 0
0.0026741675 -0.21762845 0.034260303 0
0.0059098261 -0.2176185 -0.045263033 0
0.0054091876 -0.2176118 -0.043540344 0
0.0045489804 -0.21731178 -0.040462684 0
0.0037054308 -0.21752597 -0.037446856 0
0.0031181979 -0.21768013 -0.035325192 0
0.0058192094 -0.21755679 -0.027804386 0
0.0051843156 -0.21737105 -0.025383312 0
0.0044862544 -0.21745364 -0.02268628 0
0.003693077 -0.21742447 -0.019629175 0
0.0031537402 -0.21761571 -0.017479468 0
0.0031474628 -0.21836397 0.017342014 0
0.003710073 -0.2176418 0.01973056 0
0.0043551219 -0.21759048 0.022322994 0
0.0050939103 -0.21743472 0.025302112 0
0.0057440866 -0.21767089 0.027874306 0
0.0030751866 -0.21736766 0.035724137 0
0.0035225146 -0.21739255 0.037357289 0
0.004476612 -0.21763146 0.040840749 0
0.0051472005 -0.21754701 0.043318335 0
0.0057133795 -0.21703224 0.045348212 0
0.0074755792 -0.21753761 -0.045461457 0
0.0089843664 -0.21713585 -0.036087178 0
0.0079491334 -0.21736141 -0.034312002 0
0.0068445294 -0.21769074 -0.031650025 0
0.0061558471 -0.21732035 -0.029086111 0
0.006169558 -0.21799713 0.029522128 0
0.0066235201 -0.21742038 0.031275988 0
0.0081993882 -0.2173145 0.034668673 0
0.0089810751 -0.21804944 0.036005136 0
0.0072998074 -0.21738046 0.045508683 0
0.010485677 -0.21745196 -0.045481831 0
0.011306549 -0.21751019 -0.040044263 0
0.0098950872 -0.21747342 -0.037634026 0
0.0099319918 -0.21762416 0.037654247 0
0.011356262 -0.21728863 0.040121797 0
0.010655072 -0.21758455 0.045455147 0
0.013120301 -0.21713342 -0.0455174 0
0.013397499 -0.2177342 -0.043613914 0
0.012249184 -0.21724762 -0.041664373 0
0.012268424 -0.21772248 0.041695409 0
0.013371608 -0.21755296 0.04361758 0
0.013536107 -0.21731448 0.045452185 0
-0.0031305533 -0.21412349 -0.0036648018 0
-0.003476898 -0.21448724 -0.0015909215 0
-0.0035134412 -0.21424928 0.0015304305 0
-0.0031308241 -0.21429083 0.0036971422 0
-3.0268873e-06 -0.21302502 -0.021585539 0
-0.00027160477 -0.21437044 -0.019440953 0
-0.0008319302 -0.21462937 -0.016216962 0
-0.0013709738 -0.2146358 -0.013221465 0
-0.0018672143 -0.21435845 -0.010581425 0
-0.0024478689 -0.21451557 -0.0072923969 0
-0.0028491272 -0.21476935 -0.0049592745 0
-0.0028599319 -0.21478797 0.005031616 0
-0.0024789891 -0.21442282 0.0073622968 0
-0.0019453283 -0.21429226 0.010464828 0
-0.0013925737 -0.21444057 0.013557357 0
-0.00088423886 -0.21459904 0.016391948 0
-0.0003348974 -0.21461134 0.019523023 0
-5.8700916e-05 -0.21403673 0.021345098 0
0.0027177217 -0.21462119 -0.033892911 0
0.0020068747 -0.21438609 -0.031295162 0
0.0013414404 -0.21445948 -0.028414158 0
0.0008365672 -0.21466602 -0.025644328 0
0.00030160681 -0.21450436 -0.022681477 0
7.235568e-05 -0.21566199 -0.020809082 0
0.0027223339 -0.21453504 -0.016199922 0
0.002035714 -0.21470888 -0.013408668 0
0.00139686 -0.21477658 -0.010615386 0
0.0012240703 -0.21430121 -0.0074794721 0
0.0011900341 -0.21454239 -0.0044325357 0
0.0011349493 -0.21456698 -0.001765516 0
0.001156356 -0.21445312 0.0011535806 0
0.0011559285 -0.2141528 0.0045339358 0
0.0011185231 -0.21452421 0.0074762851 0
0.0013931127 -0.21457417 0.010461022 0
0.0020622106 -0.21459596 0.013370335 0
0.002675927 -0.21455888 0.015924506 0
6.6513689e-06 -0.21578997 0.020970061 0
0.00023092038 -0.21454647 0.022781083 0
0.00070910901 -0.21445294 0.025551103 0
0.0011769747 -0.21441847 0.028208928 0
0.0019013763 -0.21450007 0.031425729 0
0.0027028925 -0.21425967 0.034362309 0
0.0059035569 -0.21402916 -0.045293275 0
0.005418817 -0.21451238 -0.043557558 0
0.00455144 -0.21464242 -0.040456343 0
0.0037439484 -0.21467113 -0.037569046 0
0.0031693208 -0.21480347 -0.035515022 0
0.0057766456 -0.21473742 -0.027670272 0
0.0051711909 -0.21447952 -0.025476862 0
0.0043345154 -0.21435934 -0.022396564 0
0.0036840476 -0.21442917 -0.019929925 0
0.0030415 -0.214333 -0.017466314 0
0.0030972438 -0.21452166 0.017622914 0
0.0035507851 -0.21444209 0.019448048 0
0.0042962981 -0.21447317 0.022374937 0
0.0050854813 -0.21449746 0.025382815 0
0.0056917625 -0.2140687 0.027616356 0
0.0030825189 -0.21444704 0.035748426 0
0.0035870115 -0.2143591 0.037590172 0
0.0043619592 -0.21456128 0.040419564 0
0.0051558893 -0.2144396 0.043340329 0
0.0057803104 -0.21487433 0.045573778 0
0.0074881152 -0.21466248 -0.045965645 0
0.0089805331 -0.21583374 -0.036114249 0
0.0080693234 -0.2144592 -0.034588128 0
0.0068796063 -0.21456374 -0.031651035 0
0.0062594353 -0.21436775 -0.029397609 0
0.0061729709 -0.21432728 0.029430915 0
0.0067717219 -0.21444653 0.031650607 0
0.0081754606 -0.21459636 0.034675401 0
0.0076688617 -0.21462485 0.045988012 0
0.010298221 -0.21459877 -0.045987889 0
0.011340715 -0.21420106 -0.040191624 0
0.0098219924 -0.21456398 -0.037584398 0
0.0099593652 -0.21455345 0.037756532 0
0.011323707 -0.21447954 0.040123131 0
0.010836341 -0.21430556 0.045992091 0
0.013780136 -0.21461195 -0.045838777 0
0.013222162 -0.21476524 -0.043398928 0
0.012280615 -0.21486618 -0.041783385 0
0.012209224 -0.21381584 0.041676324 0
0.013362266 -0.21453372 0.043664951 0
0.013692426 -0.21436003 0.045827627 0
-0.0032412743 -0.21153642 -0.0041236435 0
-0.003701122 -0.21145768 -0.0016031964 0
-0.0037270519 -0.21149816 0.0014848184 0
-0.0032339683 -0.21141884 0.0043338221 0
-0.00012461176 -0.21113355 -0.021752631 0
-0.00044057387 -0.21163301 -0.019676169 0
-0.0010066505 -0.21131188 -0.016623573 0
-0.0015513834 -0.21153954 -0.013504699 0
-0.0021181719 -0.21132019 -0.010448903 0
-0.00262322 -0.21171729 -0.0074800588 0
-0.0029228968 -0.21239136 -0.0055365167 0
-0.0029434296 -0.21214467 0.0056828312 0
-0.0026782788 -0.2114443 0.007495496 0
-0.002201695 -0.21141835 0.010227529 0
-0.0016467398 -0.21153927 0.013344302 0
-0.0011330603 -0.2111278 0.01645259 0
-0.00060858432 -0.21138638 0.019336615 0
-0.0001705226 -0.21122508 0.021906469 0
0.0027217395 -0.21163353 -0.033896569 0
0.002019204 -0.21138282 -0.031377193 0
0.0012523216 -0.21153706 -0.028533829 0
0.00062596123 -0.21168564 -0.025631014 0
0.00020204038 -0.21197017 -0.023242602 0
0.0026662194 -0.21123695 -0.016280483 0
0.0019256624 -0.21165773 -0.013434285 0
0.001394375 -0.21161495 -0.010751739 0
0.0013361585 -0.21146083 -0.0074210647 0
0.0013094314 -0.21145064 -0.0043725804 0
0.0012520141 -0.21130775 -0.0014212549 0
0.0012793957 -0.21151559 0.0016479807 0
0.0012627264 -0.21136001 0.0045966464 0
0.0012402822 -0.21143389 0.0077059041 0
0.0013732309 -0.21135847 0.010671585 0
0.0019537355 -0.21155213 0.013348366 0
0.0026830649 -0.21146375 0.016232444 0
0.00010810838 -0.21186207 0.023225414 0
0.0004147641 -0.21122301 0.025248891 0
0.001126486 -0.2114055 0.028553253 0
0.0019252824 -0.21156901 0.031521093 0
0.0026630054 -0.21143764 0.034214288 0
0.005909069 -0.21194841 -0.045312468 0
0.0054172459 -0.21139315 -0.043545108 0
0.0045478418 -0.2113128 -0.040425457 0
0.0036705297 -0.21122262 -0.037286956 0
0.0031142391 -0.21137691 -0.035298627 0
0.0058071627 -0.21154679 -0.027632434 0
0.0051442883 -0.21155007 -0.025233526 0
0.0042956979 -0.21152654 -0.022172153 0
0.0035670216 -0.21139048 -0.019549936 0
0.0030581788 -0.21196407 -0.017747613 0
0.0030443736 -0.21134263 0.017578926 0
0.0035754826 -0.21143629 0.01957318 0
0.0043715965 -0.21124972 0.022518978 0
0.0050947387 -0.21165149 0.025244599 0
0.0057858522 -0.21182063 0.027839061 0
0.0030823986 -0.21132882 0.035745338 0
0.0035662297 -0.21154176 0.037511908 0
0.0043621063 -0.21146104 0.040417463 0
0.0051499759 -0.21156251 0.043308239 0
0.0057736407 -0.21166699 0.045536719 0
0.0073412973 -0.21161675 -0.04598508 0
0.0089502502 -0.21274441 -0.036142297 0
0.0079377722 -0.21146117 -0.034418963 0
0.0069633648 -0.21130663 -0.031806003 0
0.0062471298 -0.21151827 -0.029223453 0
0.0061937664 -0.21135141 0.029337687 0
0.0067204949 -0.21144232 0.031312864 0
0.0081792548 -0.21151371 0.034736425 0
0.0089664198 -0.21112512 0.036102198 0
0.0075547229 -0.21149726 0.046000794 0
0.010605477 -0.21152553 -0.045999199 0
0.011256815 -0.21161525 -0.040118676 0
0.0098515712 -0.21183273 -0.037706792 0
0.0097344294 -0.21128744 0.037430301 0
0.011264041 -0.21144512 0.040084533 0
0.010344389 -0.21138191 0.046000801 0
0.013659458 -0.21165633 -0.045854378 0
0.013258153 -0.21174808 -0.043543141 0
0.012136121 -0.21101521 -0.041641273 0
0.012172312 -0.21172607 0.041657005 0
0.01310071 -0.21155757 0.043274097 0
0.013582818 -0.2115932 0.045836519 0
-0.0031068954 -0.2080266 -0.0063262265 0
-0.003382456 -0.20846611 -0.0046139047 0
-0.0039347229 -0.20827083 -0.0016287382 0
-0.0039823186 -0.20865163 0.0012421133 0
-0.0034515215 -0.20844263 0.0043617403 0
-0.0031006453 -0.20819148 0.0064721466 0
-0.0002276107 -0.20846736 -0.022259681 0
-0.00068362377 -0.20844428 -0.019725325 0
-0.0012191943 -0.20851608 -0.016610201 0
-0.0017230265 -0.20859417 -0.01377399 0
-0.0023302853 -0.2085824 -0.010407356 0
-0.0027580636 -0.20859239 -0.0080281608 0
-0.0028479369 -0.20863374 0.0077262097 0
-0.0023328534 -0.20841353 0.010760918 0
-0.0018609579 -0.20864633 0.01335574 0
-0.001253158 -0.20854938 0.0168672 0
-0.00078854535 -0.20863031 0.019485241 0
-0.00029608142 -0.20827399 0.022448892 0
-5.223004e-05 -0.20714167 0.024252785 0
0.0027838785 -0.20898598 -0.034103762 0
0.0020302869 -0.20853159 -0.031406462 0
0.0011885252 -0.20854157 -0.028386991 0
0.00046110008 -0.20868252 -0.025620466 0
8.5988191e-05 -0.20948395 -0.023561344 0
0.0027156156 -0.20845187 -0.016326582 0
0.0019411616 -0.20823023 -0.013551373 0
0.0014500613 -0.20870203 -0.010540429 0
0.0014571622 -0.20841049 -0.0075772065 0
0.0014269142 -0.20835742 -0.0043218597 0
0.0013705123 -0.20836079 -0.0013764623 0
0.0014002897 -0.20837434 0.0015537532 0
0.0013606319 -0.20872781 0.0047277585 0
0.0013438301 -0.20881113 0.0075363424 0
0.0013888545 -0.2086388 0.010319931 0
0.002012386 -0.20853293 0.013578316 0
0.0027140763 -0.2083602 0.016162835 0
0.00029908077 -0.20853892 0.025466554 0
0.0011052073 -0.20846643 0.028524483 0
0.0019232825 -0.20849201 0.03151118 0
0.0027043677 -0.20865431 0.034362938 0
0.0059037572 -0.20770396 -0.045293391 0
0.0053957645 -0.20850039 -0.043467812 0
0.0045078858 -0.20825171 -0.040277094 0
0.0037768567 -0.20841672 -0.037653685 0
0.003101005 -0.20844865 -0.035234705 0
0.0058480995 -0.20858361 -0.027645804 0
0.0052432274 -0.20874178 -0.025463862 0
0.0044057979 -0.20858616 -0.022425985 0
0.0035592034 -0.20843904 -0.019356661 0
0.0031077666 -0.20902659 -0.017765593 0
0.0030667013 -0.20783892 0.017442837 0
0.0035960823 -0.20846821 0.019457299 0
0.0043937447 -0.20873909 0.022455541 0
0.0052140602 -0.20860688 0.025515892 0
0.0058256774 -0.20840648 0.027791815 0
0.0030737142 -0.20866546 0.03571137 0
0.0035255353 -0.20863122 0.037360873 0
0.0044165337 -0.20840389 0.040613573 0
0.0052231033 -0.20853986 0.043579195 0
0.0057633505 -0.20864862 0.045523081 0
0.0075834556 -0.20835783 -0.045990948 0
0.0088761179 -0.20820676 -0.036134224 0
0.0079281582 -0.20842434 -0.034407262 0
0.0069330349 -0.20853235 -0.03157004 0
0.0063361162 -0.2083637 -0.029402014 0
0.0062176171 -0.20868309 0.029273555 0
0.0068287482 -0.20835944 0.031540573 0
0.0082275923 -0.20844597 0.034870774 0
0.0089470018 -0.20897882 0.036110617 0
0.0077673439 -0.20858906 0.046000786 0
0.010786518 -0.20822136 -0.045999214 0
0.011228282 -0.20855249 -0.040153626 0
0.0096590826 -0.20849039 -0.037467435 0
0.0098060519 -0.20854913 0.037612796 0
0.011217957 -0.20849054 0.040067825 0
0.010410675 -0.2084676 0.046000797 0
0.013598509 -0.20840314 -0.045923818 0
0.013083696 -0.20857346 -0.043331206 0
0.012163266 -0.20795892 -0.041771408 0
0.01211645 -0.20836811 0.041631948 0
0.013198237 -0.20824656 0.043514606 0
0.013713057 -0.20861396 0.04581191 0
-0.0031896548 -0.20546171 -0.0069310958 0
-0.0036387984 -0.20545518 -0.00444014 0
-0.0041792886 -0.20537178 -0.0014739293 0
-0.0041322922 -0.20541769 0.0017658432 0
-0.0036167919 -0.20557815 0.0046404959 0
-0.0032002442 -0.20531462 0.0071311314 0
-0.0003626447 -0.20561147 -0.022499563 0
-0.0009879492 -0.20547639 -0.019283311 0
-0.001460313 -0.20549048 -0.016562374 0
-0.0020371883 -0.20536822 -0.013368461 0
-0.0025710792 -0.20528668 -0.010438089 0
-0.0029286589 -0.20562169 -0.0083137881 0
-0.0029062247 -0.20607898 0.0084835906 0
-0.0026145002 -0.20551462 0.010389933 0
-0.002002205 -0.2056101 0.013844942 0
-0.0015614675 -0.20535642 0.016469473 0
-0.0010027169 -0.20551512 0.019591792 0
-0.00044120557 -0.2056437 0.022666704 0
-0.00010004694 -0.20563221 0.024121879 0
0.0027580068 -0.20594655 -0.033995006 0
0.0020753827 -0.20558143 -0.031550989 0
0.0012506408 -0.20559387 -0.028601917 0
0.000408272 -0.20569398 -0.025573367 0
0.0026388085 -0.20557356 -0.015865246 0
0.0020151034 -0.20568651 -0.013643323 0
0.001545434 -0.20571832 -0.010399306 0
0.001574748 -0.20543557 -0.0073663015 0
0.0015332964 -0.20555675 -0.0042846715 0
0.0014756947 -0.20558064 -0.0013795315 0
0.001514448 -0.20538522 0.0015329791 0
0.0014916398 -0.20548727 0.0044875592 0
0.0014766661 -0.20546503 0.0073379679 0
0.0015114431 -0.20563002 0.01054565 0
0.0020463243 -0.20574781 0.013487089 0
0.0027378777 -0.20527171 0.016035547 0
0.00039268759 -0.20533225 0.025920527 0
0.001098181 -0.20534764 0.028496187 0
0.0019933926 -0.20547573 0.031764574 0
0.0026417177 -0.20531239 0.034131367 0
0.0059073516 -0.20512457 -0.045306318 0
0.0053897635 -0.20543511 -0.043446258 0
0.0045657801 -0.20564106 -0.04048511 0
0.0037173815 -0.20553461 -0.037436225 0
0.0032022856 -0.20503551 -0.035585362 0
0.0058921501 -0.20547114 -0.0276292 0
0.0053007463 -0.20559192 -0.025499629 0
0.0044786423 -0.20530441 -0.02249079 0
0.0035864005 -0.20524694 -0.019275883 0
0.0031262271 -0.20486656 -0.017568391 0
0.003139887 -0.20534845 0.017540587 0
0.0036554036 -0.20535755 0.019473771 0
0.0044465982 -0.20541286 0.022432201 0
0.0052659251 -0.20533396 0.02548733 0
0.0058362908 -0.20586631 0.027676133 0
0.0030759473 -0.20581317 0.0357171 0
0.0035803919 -0.20551546 0.037558489 0
0.0043953718 -0.20538795 0.040533748 0
0.0051173507 -0.205274 0.043179858 0
0.0057614795 -0.20553662 0.045506615 0
0.0075456058 -0.20552698 -0.045987777 0
0.0088776322 -0.20592424 -0.03617879 0
0.0079159066 -0.20551246 -0.034418982 0
0.0069378973 -0.20554267 -0.031414393 0
0.0062283976 -0.20563731 -0.028860066 0
0.0062090484 -0.20528953 0.028998289 0
0.0068179532 -0.2053095 0.031270906 0
0.0080935694 -0.20530525 0.034635976 0
0.008927796 -0.20544523 0.036113076 0
0.0074138111 -0.2053203 0.046000771 0
0.010571792 -0.20562795 -0.045999218 0
0.01124524 -0.20550664 -0.040188275 0
0.0097660003 -0.20552397 -0.037672319 0
0.0098251132 -0.20553285 0.037644584 0
0.011170239 -0.20580365 0.039980613 0
0.010585462 -0.2055376 0.046000782 0
0.013643971 -0.20526692 -0.045870122 0
0.013236847 -0.20555378 -0.043575101 0
0.012171472 -0.20522621 -0.041727394 0
0.012169358 -0.2053065 0.041707117 0
0.013299555 -0.20540448 0.043641951 0
0.013644014 -0.2054394 0.045828816 0
-0.0030374245 -0.20146428 -0.0094351424 0
-0.0032893671 -0.20242599 -0.0076372428 0
-0.0037975076 -0.2023301 -0.0048558097 0
-0.0043619275 -0.20266081 -0.0015848951 0
-0.0044140937 -0.20245886 0.0014195794 0
-0.0039019655 -0.20270731 0.0042374181 0
-0.0033504332 -0.20243575 0.0075021335 0
-0.0030806318 -0.20219845 0.0091437642 0
-0.00038675469 -0.20256531 -0.022698445 0
-0.0011220817 -0.20253655 -0.019665904 0
-0.0016934176 -0.20255129 -0.016558491 0
-0.0021780781 -0.20252784 -0.013773511 0
-0.002684955 -0.20269163 -0.010882738 0
-0.0027734574 -0.20289274 0.010601214 0
-0.002278843 -0.20227823 0.013687322 0
-0.0017271151 -0.20254202 0.016724709 0
-0.0012121156 -0.20257555 0.019618381 0
-0.00058026053 -0.20235404 0.022364287 0
-4.1593576e-05 -0.20236409 0.024332508 0
0.0027629042 -0.20264198 -0.034006126 0
0.0020884343 -0.20236456 -0.031583767 0
0.0012436092 -0.20266451 -0.028560208 0
0.00043356777 -0.20273197 -0.02566397 0
0.0027558166 -0.20267297 -0.015783286 0
0.0021754992 -0.20238468 -0.013604155 0
0.0016673197 -0.20257728 -0.010500642 0
0.0016912136 -0.20246579 -0.0073575224 0
0.0016560558 -0.20248751 -0.0045055165 0
0.0015906846 -0.20259356 -0.0015341634 0
0.0016289847 -0.20239778 0.0016493333 0
0.0016010532 -0.20263223 0.0045016287 0
0.0015873165 -0.20269109 0.0074088681 0
0.0016432416 -0.20246491 0.010293142 0
0.0022515873 -0.20245299 0.013672903 0
0.002797666 -0.20254681 0.01575128 0
0.00035668918 -0.20263027 0.025786802 0
0.0010722568 -0.20213412 0.028398806 0
0.0019049228 -0.20254003 0.031439085 0
0.002585426 -0.20269972 0.033923633 0
0.0058969636 -0.20231213 -0.04526899 0
0.005420167 -0.20261709 -0.043555532 0
0.0045649596 -0.20244487 -0.040482167 0
0.0037387565 -0.2024423 -0.037513047 0
0.0030758996 -0.20229031 -0.03513094 0
0.0058944626 -0.20286043 -0.027144065 0
0.0054930407 -0.20240569 -0.025595244 0
0.0046391119 -0.20268358 -0.022579495 0
0.0038203427 -0.2025682 -0.019602347 0
0.0031817416 -0.20249958 -0.017283348 0
0.0032034484 -0.20273703 0.017309561 0
0.0038224631 -0.20291492 0.019653697 0
0.0046733036 -0.20224062 0.02267262 0
0.0054154852 -0.20245972 0.025484443 0
0.0058839768 -0.20269069 0.027279858 0
0.0031255884 -0.20280811 0.035895776 0
0.003557859 -0.20231903 0.037473515 0
0.0043681371 -0.20241235 0.040431794 0
0.0051947315 -0.20228268 0.043458041 0
0.0058259219 -0.202225 0.045734204 0
0.0075979368 -0.20272851 -0.045991771 0
0.0089689549 -0.2035812 -0.036086809 0
0.0083090719 -0.20270734 -0.03477966 0
0.0071745343 -0.20232718 -0.031638645 0
0.006393285 -0.20247917 -0.028856661 0
0.0063314107 -0.20256399 0.028917793 0
0.0069705923 -0.20252679 0.031289473 0
0.0081554996 -0.20241362 0.03435808 0
0.0073302938 -0.20254619 0.046000764 0
0.010406204 -0.20254879 -0.045999233 0
0.011373801 -0.20244627 -0.03998873 0
0.009939177 -0.20249498 -0.03756503 0
0.0091219768 -0.20127635 -0.035993986 0
0.0090325307 -0.2026073 0.035897121 0
0.0099688331 -0.20248854 0.037491858 0
0.011409176 -0.2026142 0.039993353 0
0.010280723 -0.20236708 0.046000775 0
0.013814495 -0.20251502 -0.045832597 0
0.013374479 -0.20264511 -0.043409158 0
0.012308615 -0.20241252 -0.041567709 0
0.012315276 -0.20228909 0.041504357 0
0.013563809 -0.20253018 0.043693218 0
0.013988156 -0.2024423 0.045828775 0
-0.0031128938 -0.19933783 -0.0098985685 0
-0.0035369077 -0.19955148 -0.0074557355 0
-0.0040616952 -0.1993437 -0.004628323 0
-0.0046515702 -0.19929741 -0.0013724951 0
-0.0046295868 -0.19951203 0.0014467071 0
-0.0040585464 -0.19947755 0.0047216481 0
-0.003532964 -0.19962081 0.0076611941 0
-0.0031799295 -0.19938432 0.0097776847 0
-0.0004214498 -0.19971919 -0.022589287 0
-0.001317829 -0.19947433 -0.019323172 0
-0.0019307525 -0.19965553 -0.016416145 0
-0.002409643 -0.19965363 -0.013727052 0
-0.0028922423 -0.19977807 -0.010940933 0
-0.0029110243 -0.19956042 0.011237769 0
-0.0025469437 -0.19939324 0.013387738 0
-0.0020229425 -0.19927365 0.016430415 0
-0.0012704398 -0.19944088 0.019822497 0
-0.00051889365 -0.19963516 0.022587636 0
-7.0708651e-05 -0.19996385 0.024224173 0
0.0027664762 -0.19983274 -0.034018971 0
0.002097236 -0.19977276 -0.031613927 0
0.0012128975 -0.19950023 -0.028437179 0
0.00040815998 -0.19972456 -0.025556173 0
0.002838247 -0.19967383 -0.015349504 0
0.0024453104 -0.19953808 -0.013848944 0
0.0018043608 -0.19953689 -0.010530088 0
0.0018038268 -0.19959226 -0.0072758826 0
0.0017770558 -0.19951722 -0.0048179468 0
0.0017124218 -0.19949001 -0.0016030738 0
0.0017370409 -0.19953673 0.0015271017 0
0.0017229044 -0.19961485 0.0041330978 0
0.0017199522 -0.19935344 0.0076398109 0
0.0017980225 -0.19941013 0.010419761 0
0.0024479527 -0.19954368 0.013636263 0
0.0029099113 -0.20019361 0.015592744 0
0.00037076301 -0.19928858 0.025835343 0
0.00105806 -0.19941144 0.02834467 0
0.0019461188 -0.19935712 0.031586781 0
0.0027051126 -0.19968906 0.034358036 0
0.0058681117 -0.19911744 -0.045165319 0
0.0054241978 -0.19947259 -0.043570027 0
0.0045443568 -0.19952533 -0.040408146 0
0.003760241 -0.19951801 -0.037590269 0
0.0031402633 -0.19964057 -0.035362251 0
0.0055520125 -0.19958052 -0.025174845 0
0.0047885999 -0.19946229 -0.022395618 0
0.0040319087 -0.19925843 -0.019604072 0
0.0032750368 -0.19923016 -0.016832812 0
0.0032840325 -0.1993555 0.016796056 0
0.0039331308 -0.19968073 0.019336121 0
0.0048230854 -0.19940756 0.022603268 0
0.0055572726 -0.19935164 0.025325408 0
0.0059214002 -0.20095237 0.027034985 0
0.0030596487 -0.19947463 0.035652209 0
0.003589981 -0.19950941 0.037588399 0
0.004349397 -0.19931076 0.040360745 0
0.0052239895 -0.19949794 0.043563236 0
0.0057524 -0.19960786 0.045484718 0
0.0074213683 -0.19951032 -0.045980055 0
0.0082890959 -0.19948666 -0.034280524 0
0.0073175081 -0.19940878 -0.031500161 0
0.0064637423 -0.19934985 -0.028409516 0
0.0060735797 -0.19869895 -0.026857335 0
0.0060096453 -0.19884694 0.026898194 0
0.0064334571 -0.19950503 0.028621649 0
0.0072161821 -0.19971839 0.03158069 0
0.0082206056 -0.19952537 0.03405717 0
0.0072424412 -0.19937508 0.046000749 0
0.010387139 -0.19957954 -0.045999244 0
0.011507638 -0.19954416 -0.039772026 0
0.010155632 -0.19982894 -0.037524521 0
0.0091728587 -0.19931406 -0.035780411 0
0.0091508348 -0.19965015 0.035661437 0
0.010127435 -0.19964162 0.037329298 0
0.011511801 -0.1996299 0.039707627 0
0.010465558 -0.19929105 0.046000764 0
0.013784192 -0.19947514 -0.045954373 0
0.013639389 -0.19957121 -0.04338719 0
0.012369897 -0.19942886 -0.041215111 0
0.01247476 -0.19932939 0.041320425 0
0.013720826 -0.19971989 0.043528188 0
0.01377909 -0.19976902 0.045869045 0
0.015084408 -0.19887719 -0.045857482 0
0.015152276 -0.19882439 0.045903675 0
-0.0032514201 -0.19643001 -0.010343608 0
-0.0038065983 -0.19636504 -0.007280712 0
-0.0043273149 -0.19640581 -0.0043727285 0
-0.0048758644 -0.19630861 -0.001367487 0
-0.0048517506 -0.19655177 0.0014415252 0
-0.004307955 -0.19655988 0.0045427382 0
-0.0037393924 -0.19673581 0.0077137328 0
-0.0033123782 -0.19640408 0.010293194 0
-0.0030497753 -0.19565998 0.012109998 0
-2.6045811e-07 -0.19603002 -0.024076166 0
-0.00044805559 -0.19672976 -0.022477463 0
-0.0013054135 -0.19635519 -0.019408537 0
-0.0021170685 -0.19648038 -0.016332315 0
-0.0026779601 -0.1963768 -0.013627373 0
-0.0029286775 -0.19751908 -0.011685446 0
-0.0027693575 -0.19646484 0.013367547 0
-0.0021346449 -0.19637543 0.016575783 0
-0.0013765312 -0.19640686 0.01945379 0
-0.00056358776 -0.19669728 0.022421973 0
-4.852096e-05 -0.19677319 0.024302464 0
0.0027080751 -0.1968403 -0.033809107 0
0.0020864112 -0.19665654 -0.031575032 0
0.0012400851 -0.19648463 -0.028533595 0
0.00046170971 -0.19686221 -0.025737174 0
0.0029777917 -0.19725811 -0.015072136 0
0.0025864358 -0.19666786 -0.01339744 0
0.0019605942 -0.19635256 -0.010412404 0
0.0019257581 -0.19649638 -0.0073964875 0
0.0018778375 -0.19675648 -0.0046050171 0
0.0018325562 -0.19643679 -0.0016552816 0
0.0018576629 -0.19632584 0.0013203713 0
0.0018391602 -0.19635069 0.0049125655 0
0.0018320981 -0.19650686 0.007630914 0
0.0019678234 -0.19663335 0.010246895 0
0.0026847646 -0.19657999 0.013394837 0
0.0029743614 -0.19780391 0.015100583 0
0.00034131971 -0.19634832 0.025725352 0
0.0010667756 -0.19635741 0.028373888 0
0.0019045299 -0.19650902 0.031432528 0
0.0026130213 -0.19632967 0.034018967 0
0.0059605669 -0.19598359 -0.045497593 0
0.0054439479 -0.19651172 -0.043641012 0
0.0046024732 -0.19644304 -0.040617008 0
0.0037846593 -0.19662957 -0.037678029 0
0.0031587936 -0.19668692 -0.035428859 0
0.0057043433 -0.19667421 -0.025064271 0
0.0050541065 -0.19667533 -0.022692153 0
0.0042217467 -0.19649054 -0.019518455 0
0.003454058 -0.19612692 -0.016459947 0
0.0030524589 -0.19566631 -0.014774312 0
0.0030805829 -0.19644748 0.014941124 0
0.0034025018 -0.19634481 0.016193831 0
0.0042435485 -0.19659154 0.019652441 0
0.0050051524 -0.19655839 0.022597961 0
0.0056604543 -0.1965573 0.02508026 0
0.0031007482 -0.19700909 0.035800159 0
0.0035302802 -0.19668917 0.037368044 0
0.004376024 -0.19640185 0.040455468 0
0.0052216211 -0.19665515 0.043547422 0
0.0057911011 -0.19659573 0.045560792 0
0.0073992093 -0.19656707 -0.045990139 0
0.0083719585 -0.19675383 -0.034007799 0
0.007494363 -0.19671349 -0.031533759 0
0.006706465 -0.19653027 -0.028652657 0
0.0061542671 -0.19618663 -0.026580753 0
0.0061274562 -0.19651343 0.026821081 0
0.0066077695 -0.1965747 0.028623 0
0.0074109142 -0.19660962 0.031601895 0
0.0085492916 -0.19659595 0.034191452 0
0.0075456579 -0.1962418 0.046000741 0
0.010603205 -0.1963522 -0.045999251 0
0.011626668 -0.19678308 -0.03955102 0
0.01044177 -0.19629303 -0.03746881 0
0.0093310839 -0.19571224 -0.035498261 0
0.0093715535 -0.19586861 0.035486653 0
0.010408524 -0.19642247 0.03733439 0
0.011618963 -0.19655716 0.039419457 0
0.010243373 -0.19659312 0.046000753 0
0.013716329 -0.19657458 -0.045892388 0
0.013933527 -0.1963809 -0.043396764 0
0.012638757 -0.19671015 -0.041254126 0
0.012549274 -0.19636047 0.040988643 0
0.014018703 -0.19663261 0.043562964 0
0.013676744 -0.19663939 0.045925736 0
0.015276372 -0.19617891 -0.045719154 0
0.015291766 -0.19628741 0.045771383 0
-0.0031039743 -0.19324026 -0.0125262 0
-0.0034489282 -0.193766 -0.010388202 0
-0.0039542401 -0.19363353 -0.0075945235 0
-0.0045030029 -0.19344577 -0.004625652 0
-0.0049976315 -0.19355454 -0.0018343152 0
-0.0050381119 -0.1934862 0.0016856878 0
-0.0045321393 -0.19350813 0.0045650336 0
-0.004009794 -0.19349776 0.0075516715 0
-0.0034989016 -0.19338495 0.010516635 0
-0.0031007547 -0.19328152 0.012807216 0
-0.00046505907 -0.1934626 -0.022406161 0
-0.0012907601 -0.19329774 -0.019445065 0
-0.0020510203 -0.19336806 -0.016724519 0
-0.0026542579 -0.19374767 -0.014490969 0
-0.0027600329 -0.19350162 0.014310587 0
-0.0021989818 -0.19343406 0.016448626 0
-0.0013660599 -0.1935925 0.019489633 0
-0.00055985089 -0.19320145 0.022432642 0
-6.1115774e-05 -0.19300486 0.024253281 0
0.0027504782 -0.19355963 -0.033961501 0
0.0020520408 -0.19351688 -0.031451531 0
0.0012499886 -0.19366637 -0.028569194 0
0.00042423396 -0.19354279 -0.025601679 0
0.0027782768 -0.19364691 -0.012919571 0
0.0022443638 -0.19368222 -0.010532517 0
0.0020364192 -0.19367875 -0.0075766435 0
0.001998642 -0.19343221 -0.0043373178 0
0.0019367298 -0.19381668 -0.0012994108 0
0.0019692148 -0.19341378 0.0013952567 0
0.0019458577 -0.19375263 0.004497536 0
0.0019626454 -0.19346531 0.0074406639 0
0.0023163229 -0.19382918 0.010481006 0
0.0028860245 -0.19339964 0.012728566 0
0.00042701841 -0.19345793 0.026035769 0
0.0011515416 -0.19343618 0.028680874 0
0.0018748241 -0.19356515 0.031321574 0
0.0027127352 -0.19395763 0.034380991 0
0.005906417 -0.19306275 -0.045303002 0
0.005424811 -0.19354177 -0.043572258 0
0.004524935 -0.19347915 -0.040338378 0
0.003700417 -0.19372143 -0.037375301 0
0.0031704316 -0.19342947 -0.035470694 0
0.0058283522 -0.19362158 -0.024582326 0
0.0052585262 -0.19343409 -0.022327788 0
0.0044745952 -0.19341519 -0.0193193 0
0.0037021062 -0.19341691 -0.016408321 0
0.0031207686 -0.19339311 -0.014212411 0
0.0032368856 -0.19359897 0.014300971 0
0.0037909418 -0.19333515 0.01645075 0
0.0045795613 -0.19337182 0.019651931 0
0.0052164742 -0.19375217 0.022384575 0
0.005811641 -0.19353467 0.024685875 0
0.0030972317 -0.19420874 0.035784945 0
0.0035702577 -0.19363867 0.037511393 0
0.0043962197 -0.19351888 0.040526755 0
0.005212897 -0.19354454 0.043511383 0
0.0057561388 -0.19313474 0.045497697 0
0.0073686996 -0.19313507 -0.045977894 0
0.0085100476 -0.19376354 -0.033804558 0
0.0076400717 -0.19356999 -0.031345908 0
0.0068939375 -0.19356233 -0.028590016 0
0.0061900048 -0.19352201 -0.025927084 0
0.0062507065 -0.19286792 0.026171166 0
0.0067482293 -0.19348961 0.028382905 0
0.0075704088 -0.193634 0.031508856 0
0.0084869154 -0.19354604 0.033640862 0
0.0076626404 -0.19372703 0.046000727 0
0.010455128 -0.19337192 -0.045999266 0
0.0117511 -0.19378842 -0.039303124 0
0.010775734 -0.19365321 -0.037630338 0
0.0093563162 -0.19335838 -0.035180937 0
0.0094705708 -0.19384676 0.03536085 0
0.010804669 -0.19351882 0.037586432 0
0.011837019 -0.19349395 0.039341975 0
0.010521672 -0.19351617 0.046000738 0
0.01324806 -0.19330859 -0.045999255 0
0.014258629 -0.19356133 -0.043515593 0
0.012651369 -0.19346571 -0.040778566 0
0.012571893 -0.19352606 0.040599544 0
0.014268362 -0.19335258 0.043484781 0
0.013457238 -0.19332413 0.046000753 0
0.015353777 -0.19347717 -0.045802977 0
0.015100141 -0.19300577 -0.044855844 0
0.015100479 -0.19276634 0.044827811 0
0.015428714 -0.19336356 0.045854662 0
-0.0031458356 -0.19054608 -0.012781251 0
-0.0036593853 -0.19057801 -0.010521047 0
-0.0042260652 -0.19038072 -0.0074457494 0
-0.0047479169 -0.19040614 -0.0045272554 0
-0.0052781329 -0.1903327 -0.0016139636 0
-0.005303672 -0.1905328 0.0014297983 0
-0.0047618118 -0.19037411 0.004591139 0
-0.0042340597 -0.1905815 0.0075156987 0
-0.0037072434 -0.19057837 0.010482576 0
-0.0031597742 -0.19043091 0.012938368 0
-0.00044752468 -0.19038139 -0.022468852 0
-0.0012488518 -0.19052415 -0.019589256 0
-0.0021744906 -0.1904891 -0.01626919 0
-0.0027604625 -0.19076082 -0.014174098 0
-0.0027480314 -0.19074824 0.014441851 0
-0.0021556346 -0.19048893 0.016604375 0
-0.0014168024 -0.19037989 0.019301649 0
-0.00058914779 -0.19030374 0.022323221 0
-8.6564083e-05 -0.19045594 0.024158208 0
0.0027358702 -0.19052431 -0.033909019 0
0.002024156 -0.19046822 -0.031351332 0
0.0012478476 -0.19041245 -0.028561518 0
0.00043874435 -0.19065148 -0.025653841 0
0.0028768517 -0.19165029 -0.012096114 0
0.0025957895 -0.19064826 -0.0099594397 0
0.0022491692 -0.19044438 -0.0073388428 0
0.0021153763 -0.19042295 -0.0044225561 0
0.0020786521 -0.19026935 -0.0016057504 0
0.0020773488 -0.1905845 0.0014318395 0
0.0020724232 -0.19051549 0.0044549755 0
0.0022127209 -0.19042732 0.0073042009 0
0.0027129008 -0.19083227 0.010394861 0
0.0029864297 -0.19176534 0.01220063 0
0.00036241292 -0.19044772 0.025797347 0
0.0010540078 -0.19060735 0.028322386 0
0.001915468 -0.19049117 0.031467345 0
0.0026386364 -0.19042002 0.034107462 0
0.0058997469 -0.19046797 -0.045279041 0
0.0054084724 -0.19031823 -0.043513551 0
0.0045771366 -0.19051136 -0.040525973 0
0.0037667966 -0.1904614 -0.037613858 0
0.0031500317 -0.19051327 -0.035397392 0
0.0059251604 -0.19159158 -0.024168378 0
0.0055678901 -0.1907163 -0.022462051 0
0.004800118 -0.19033201 -0.019408545 0
0.0040618912 -0.19036408 -0.016519681 0
0.0033748369 -0.19022481 -0.013384792 0
0.0030966355 -0.1899067 -0.011846801 0
0.0030887285 -0.1900159 0.011576449 0
0.0034435231 -0.19037902 0.013399262 0
0.0041558337 -0.19055128 0.01665275 0
0.0048643155 -0.19038402 0.019501787 0
0.0055378852 -0.1907476 0.022378607 0
0.0059540085 -0.19144863 0.024360033 0
0.0030603306 -0.19035827 0.035646953 0
0.0035503022 -0.19047974 0.037435863 0
0.0043413211 -0.1906853 0.040323921 0
0.0052361991 -0.19050978 0.043592278 0
0.0057749366 -0.19050956 0.04553543 0
0.0073567722 -0.19064145 -0.045976203 0
0.0086350702 -0.1909194 -0.033451788 0
0.0079997908 -0.19047114 -0.031631 0
0.0071501662 -0.19040686 -0.028401433 0
0.006391264 -0.19061677 -0.025576457 0
0.0060321782 -0.18980923 -0.023889249 0
0.0060467175 -0.18939158 0.023842538 0
0.0064036669 -0.19029143 0.025671517 0
0.007058668 -0.19069679 0.028487943 0
0.0078207562 -0.19051604 0.031323098 0
0.0086039314 -0.19083366 0.033306733 0
0.0076038437 -0.19051126 0.046000715 0
0.010474587 -0.19049723 -0.045999277 0
0.011057951 -0.19054627 -0.037588131 0
0.0096000358 -0.19037811 -0.034985259 0
0.0095494837 -0.19068803 0.034934025 0
0.011089169 -0.19043814 0.037591394 0
0.01197101 -0.18958665 0.039001092 0
0.010619622 -0.19050924 0.046000727 0
0.013355839 -0.19048703 -0.045999266 0
0.014384385 -0.19059439 -0.043274179 0
0.012847416 -0.19033439 -0.040626369 0
0.01288658 -0.19037303 0.040674794 0
0.014407232 -0.19044176 0.043279495 0
0.013720113 -0.19043021 0.046000738 0
0.015707647 -0.1908811 -0.045741737 0
0.015155113 -0.19041897 -0.04455277 0
0.015157482 -0.19015667 0.04452211 0
0.01562125 -0.19048731 0.045817573 0
-0.003189187 -0.18718734 -0.012621842 0
-0.0038147271 -0.18758702 -0.010362461 0
-0.0044500027 -0.18742231 -0.0074472325 0
-0.004952135 -0.18748061 -0.004607453 0
-0.0054771723 -0.18745233 -0.0017041522 0
-0.0055366429 -0.18752301 0.00138405 0
-0.004946101 -0.18771246 0.0046747699 0
-0.0044856151 -0.18758345 0.0073575489 0
-0.0038256999 -0.1873817 0.010466886 0
-0.0032406757 -0.18745323 0.012640481 0
-0.00042235028 -0.18734908 -0.022559334 0
-0.0013183862 -0.18731979 -0.019339252 0
-0.0020609573 -0.18723769 -0.01667067 0
-0.0027604366 -0.18728864 -0.014158558 0
-0.0028230627 -0.18737055 0.014165054 0
-0.0021687632 -0.1875729 0.016553972 0
-0.0014294413 -0.18742111 0.019252989 0
-0.00057181431 -0.18766989 0.022384265 0
-5.0257771e-05 -0.18807811 0.024288736 0
0.0027314015 -0.18764243 -0.033892967 0
0.0020783767 -0.18772767 -0.031546198 0
0.0012536837 -0.18754996 -0.028582498 0
0.000413539 -0.18788207 -0.025563266 0
0.0028873754 -0.18827118 -0.0093555897 0
0.0026601597 -0.18768638 -0.0072415061 0
0.002387855 -0.18749332 -0.0047015846 0
0.0022381283 -0.18753394 -0.0015473395 0
0.00225528 -0.18749474 0.0017210714 0
0.0024065883 -0.18743531 0.0046604001 0
0.0026756113 -0.18762527 0.0071736104 0
0.0029403202 -0.18836197 0.0095832627 0
0.00036776994 -0.18743964 0.025814349 0
0.001069654 -0.18750055 0.028376872 0
0.001951044 -0.18753028 0.031594709 0
0.0026494018 -0.18765301 0.034144416 0
0.0059017623 -0.18725832 -0.045286298 0
0.005460334 -0.18756667 -0.043699939 0
0.0045968262 -0.18773217 -0.040596742 0
0.0036311008 -0.18753801 -0.037126221 0
0.0031535251 -0.18781559 -0.035409953 0
0.0057504275 -0.18739946 -0.021904513 0
0.0051197587 -0.18776654 -0.019536965 0
0.00448782 -0.187426 -0.016503258 0
0.003799188 -0.18738727 -0.013316131 0
0.003339617 -0.18719546 -0.010816839 0
0.0030975752 -0.18640639 -0.0086356578 0
0.0030197897 -0.187071 0.0086164465 0
0.0033182006 -0.18734212 0.010717658 0
0.0037846297 -0.18771785 0.013261294 0
0.0045731971 -0.18758951 0.016767479 0
0.0051356796 -0.18763497 0.019328702 0
0.005737653 -0.1878501 0.021925144 0
0.0030750015 -0.18814382 0.03569863 0
0.0035666439 -0.18766405 0.037493132 0
0.0043777437 -0.18757433 0.040454257 0
0.0052433521 -0.18741378 0.043614332 0
0.0057772943 -0.18754008 0.045549616 0
0.0074880798 -0.18743971 -0.045977984 0
0.008916202 -0.18893807 -0.033312555 0
0.0083517144 -0.18734786 -0.031546943 0
0.0074631157 -0.18727624 -0.028389735 0
0.0067172563 -0.1874536 -0.025602147 0
0.006139392 -0.18728834 -0.023331383 0
0.006101138 -0.18753329 0.023256298 0
0.0067147254 -0.18735266 0.025652325 0
0.0073798271 -0.18763286 0.028455235 0
0.0081747165 -0.18756719 0.031293157 0
0.0072645261 -0.18767324 0.046000708 0
0.010271768 -0.18741384 -0.045999289 0
0.011269324 -0.18737286 -0.036999237 0
0.0099164816 -0.18742083 -0.034599677 0
0.0091438442 -0.18655142 0.032844305 0
0.0099653136 -0.18722035 0.034565426 0
0.01144188 -0.1873779 0.037301898 0
0.01048178 -0.18758027 0.046000719 0
0.013499504 -0.18761604 -0.045999277 0
0.014513925 -0.1876266 -0.04290789 0
0.013265038 -0.1874896 -0.040629607 0
0.012260105 -0.18686998 -0.038609747 0
0.01221289 -0.18712598 0.038617346 0
0.013269664 -0.18754855 0.040678039 0
0.014525115 -0.18794863 0.043041632 0
0.01362421 -0.18767066 0.04600073 0
0.015738565 -0.18729834 -0.045804366 0
0.015362755 -0.1875587 -0.044385556 0
0.01532598 -0.18736221 0.04430379 0
0.015832333 -0.18749581 0.045687087 0
-0.0060673053 -0.18341891 -0.00010148475 0
-0.0060265232 -0.18354627 0.00028415711 0
-0.0031918499 -0.18446745 -0.012606595 0
-0.0037772111 -0.1844022 -0.010506041 0
-0.0045544165 -0.18483119 -0.0075872536 0
-0.0052235355 -0.1844404 -0.0043685194 0
-0.0057404819 -0.18432659 -0.0015393542 0
-0.0057342877 -0.18445781 0.0015636273 0
-0.0052276198 -0.18464845 0.0043749581 0
-0.004654225 -0.1847138 0.0073149162 0
-0.0037966615 -0.18417782 0.010607878 0
-0.0031951091 -0.18454482 0.012804367 0
-1.3699036e-05 -0.18529075 -0.024027912 0
-0.00039325646 -0.18431604 -0.022663899 0
-0.001308445 -0.18451422 -0.019374983 0
-0.0020521558 -0.18443078 -0.016702311 0
-0.0027682495 -0.18481483 -0.014128887 0
-0.0027296548 -0.18478781 0.014503872 0
-0.0021548267 -0.18468176 0.016602395 0
-0.001379376 -0.18449479 0.019433284 0
-0.00053215062 -0.18454455 0.022526417 0
-7.0322858e-05 -0.18402892 0.024212042 0
0.0027812636 -0.18444239 -0.034072168 0
0.0019651495 -0.18439142 -0.031139303 0
0.0012400161 -0.18466941 -0.02853339 0
0.00044147435 -0.1845278 -0.025663668 0
0.0029703933 -0.18573153 -0.0067143193 0
0.0027890592 -0.18522799 -0.004195828 0
0.0026961849 -0.18490836 -0.001478591 0
0.0027009095 -0.18502533 0.0015625014 0
0.0028170026 -0.18516554 0.0041869897 0
0.0029690014 -0.18583514 0.0069411555 0
0.00037071222 -0.18439226 0.0258225 0
0.0010777022 -0.18452679 0.028403731 0
0.0019397574 -0.1843484 0.031550806 0
0.0027117922 -0.18442604 0.03436945 0
0.0059042014 -0.18465213 -0.045295071 0
0.0053903158 -0.18452814 -0.043448318 0
0.0045271022 -0.18442105 -0.040346187 0
0.0037019432 -0.18457085 -0.037380815 0
0.0031535742 -0.18446986 -0.035410143 0
0.0059052273 -0.18517216 -0.021390107 0
0.005555009 -0.18439235 -0.019247491 0
0.0048816847 -0.18460922 -0.01636976 0
0.004283566 -0.18472043 -0.01356831 0
0.0037545862 -0.18446264 -0.010475623 0
0.0033444616 -0.18442114 -0.0076806769 0
0.0031489797 -0.18368997 -0.0045633195 0
0.0030618373 -0.18319768 -0.0015609299 0
0.0030898652 -0.18320058 0.0016715286 0
0.0031593069 -0.1836338 0.0045457464 0
0.0033759016 -0.1842714 0.0075814994 0
0.0037156355 -0.18476851 0.010321151 0
0.004241148 -0.18482853 0.013431039 0
0.0049487301 -0.18433581 0.016380528 0
0.0055350838 -0.18468368 0.019293053 0
0.0058642393 -0.18543454 0.02128893 0
0.0030769359 -0.18415692 0.035702303 0
0.0035973263 -0.18458992 0.037602533 0
0.0044032345 -0.1846386 0.040544827 0
0.0051806173 -0.18449913 0.043382805 0
0.0057762968 -0.18413815 0.045553155 0
0.0073227235 -0.18447535 -0.045971304 0
0.00857611 -0.18441415 -0.031174053 0
0.0077993539 -0.18413807 -0.028464317 0
0.0069415686 -0.18464707 -0.025379503 0
0.0063208779 -0.18437046 -0.022697736 0
0.0060060024 -0.18302718 -0.02034403 0
0.0060293642 -0.18300346 0.020469578 0
0.0062611564 -0.18446189 0.022431513 0
0.0069073727 -0.18467449 0.025267487 0
0.0077565606 -0.18459557 0.02865812 0
0.0085581271 -0.18467692 0.031096525 0
0.0074862163 -0.18424015 0.046000693 0
0.010471928 -0.18451329 -0.0459993 0
0.011570547 -0.18487641 -0.03671531 0
0.01040213 -0.18464659 -0.034564264 0
0.0093484623 -0.18413977 -0.032537013 0
0.0092359614 -0.18447967 0.032298259 0
0.010547363 -0.18434441 0.034646872 0
0.011667196 -0.18436575 0.036688924 0
0.010631501 -0.18443514 0.046000708 0
0.013615524 -0.18421815 -0.045999285 0
0.014835995 -0.1846409 -0.042495202 0
0.013743219 -0.18457624 -0.040505026 0
0.012494562 -0.18460171 -0.038273074 0
0.012494801 -0.18423885 0.038149651 0
0.013769655 -0.1846502 0.040605757 0
0.014667229 -0.18505812 0.042375147 0
0.01383106 -0.18443169 0.046000719 0
0.016039994 -0.1845293 -0.045917723 0
0.015631044 -0.18429914 -0.043811679 0
0.01572199 -0.18435159 0.044052433 0
0.016198184 -0.18450306 0.045790054 0
-0.0060831006 -0.18166587 -0.00074125984 0
-0.0061275014 -0.18099944 0.0007944259 0
-0.0031895777 -0.18121091 -0.012614772 0
-0.0037894722 -0.18137233 -0.010458931 0
-0.0045752414 -0.18136416 -0.0076365215 0
-0.0053743366 -0.18151532 -0.0045532258 0
-0.0058459728 -0.18196589 -0.001933301 0
-0.0058449479 -0.18154295 0.0021756634 0
-0.0054351967 -0.1814867 0.0043965844 0
-0.0046336795 -0.18141559 0.0075497101 0
-0.0037569823 -0.1814719 0.01075044 0
-0.0032529403 -0.18155141 0.012590689 0
-6.943978e-06 -0.18191151 -0.024052195 0
-0.00048552471 -0.18156084 -0.022332324 0
-0.0012654632 -0.18156955 -0.01952946 0
-0.0021031469 -0.18164112 -0.016519077 0
-0.0027533418 -0.18146831 -0.01418247 0
-0.0028040521 -0.18115638 0.014229177 0
-0.002159819 -0.18151662 0.016581478 0
-0.0013701447 -0.18185498 0.019464746 0
-0.00055026624 -0.18159169 0.022457769 0
-9.3743642e-05 -0.1814245 0.024124321 0
0.0027544957 -0.18141986 -0.033975989 0
0.0020969489 -0.181381 -0.031612955 0
