# .PCD v0.7 - Point Cloud Data file format
VERSION 0.7
FIELDS x y z rgb
SIZE 4 4 4 4
TYPE F F F F
COUNT 1 1 1 1
WIDTH 1187
HEIGHT 1
VIEWPOINT 0 0 0 1 0 0 0
POINTS 1187
DATA ascii
9.2393769e-08 -0.27120367 -0.025522228 0
8.1003328e-08 -0.2716122 -0.022375688 0
7.0251154e-08 -0.27118939 -0.019405467 0
6.1224327e-08 -0.27160162 -0.016911861 0
5.0002434e-08 -0.27153921 -0.013811883 0
3.8983e-08 -0.27146617 -0.010767831 0
2.7472579e-08 -0.27118874 -0.007588149 0
1.5426558e-08 -0.27136913 -0.0042605093 0
6.3263483e-09 -0.27145121 -0.0017466322 0
-5.4966334e-09 -0.27151471 0.001519394 0
-1.6361204e-08 -0.27130738 0.004520664 0
-2.5934114e-08 -0.27130833 0.0071651214 0
-3.8710528e-08 -0.27166474 0.010694529 0
-4.7563987e-08 -0.2715244 0.013140242 0
-6.0227379e-08 -0.27131966 0.016638424 0
-7.1038791e-08 -0.27118829 0.01962501 0
-8.0086579e-08 -0.27117583 0.022124406 0
-9.1846253e-08 -0.27139515 0.025372945 0
-1.0300545e-07 -0.2712509 0.028455602 0
-1.1454267e-07 -0.27154565 0.03164269 0
-1.252064e-07 -0.2714884 0.034588482 0
0.00098951161 -0.27160919 0.037833765 0
0.0014350002 -0.27140766 0.04500097 0
0.0041367253 -0.27150661 -0.044999011 0
0.0050001568 -0.2715444 -0.043462604 0
0.0050001466 -0.27134079 -0.04040188 0
0.004088236 -0.27169716 -0.038400497 0
0.0039299498 -0.27156344 0.038445152 0
0.0049998532 -0.27178058 0.040606689 0
0.004999843 -0.27136022 0.043555748 0
0.0039114929 -0.27144215 0.045000989 0
-0.0039917398 -0.26860103 -0.044999052 0
-0.004999843 -0.26870215 -0.043492049 0
-0.0049998527 -0.26884809 -0.040704757 0
-0.0049998644 -0.26838815 -0.037379183 0
-0.0049998751 -0.26868808 -0.034593686 0
-0.0049998853 -0.26871094 -0.031845581 0
-0.0049998965 -0.26887819 -0.028604897 0
-0.0049999082 -0.26834023 -0.025522325 0
-0.0049999184 -0.26854029 -0.022677567 0
-0.0049999305 -0.2685914 -0.019317662 0
-0.0049999403 -0.26847449 -0.016569814 0
-0.0049999524 -0.26845786 -0.013434064 0
-0.0049999631 -0.2683776 -0.010425703 0
-0.0049999733 -0.26824114 -0.0074515445 0
-0.0049999831 -0.26834834 -0.004585945 0
-0.0049999943 -0.26840466 -0.0017453957 0
-0.005000005 -0.26837382 0.0014724169 0
-0.005000018 -0.26842129 0.0048177289 0
-0.0050000264 -0.26842555 0.0071077459 0
-0.0050000385 -0.2683216 0.010376268 0
-0.0050000497 -0.26841801 0.013629021 0
-0.0050000586 -0.26868582 0.016249496 0
-0.0050000721 -0.2687566 0.019753464 0
-0.0050000818 -0.26849782 0.02249743 0
-0.0050000916 -0.26854819 0.025753418 0
-0.0050001033 -0.26840508 0.028387632 0
-0.005000114 -0.26860502 0.031251676 0
-0.0050001265 -0.26838067 0.034895096 0
-0.0050001359 -0.26854074 0.037348822 0
-0.005000147 -0.26858798 0.040381387 0
-0.0050001573 -0.26822528 0.043235105 0
-0.0039001787 -0.26845285 0.045000959 0
-0.0016250272 -0.26847604 -0.044999044 0
-0.0024067205 -0.26946181 -0.044999029 0
-0.0015166798 -0.2685709 0.045000955 0
0.0013335515 -0.2680209 -0.044999041 0
0.0011120291 -0.26866797 -0.038056921 0
1.2407139e-07 -0.26858464 -0.034272987 0
1.1350929e-07 -0.26832587 -0.031355269 0
1.0340796e-07 -0.26840466 -0.028564841 0
9.2746141e-08 -0.26857692 -0.025619579 0
8.2107107e-08 -0.26819304 -0.022680612 0
7.0576654e-08 -0.26821142 -0.019495396 0
5.9806609e-08 -0.26858878 -0.016520236 0
4.8914099e-08 -0.26853883 -0.013511247 0
3.6634958e-08 -0.26839337 -0.01011921 0
2.7153094e-08 -0.26835421 -0.0074999039 0
1.6383398e-08 -0.26859128 -0.0045248405 0
4.2989572e-09 -0.268738 -0.0011865876 0
-4.8768274e-09 -0.26851574 0.0013481656 0
-1.4808826e-08 -0.26855236 0.0040918193 0
-2.6905175e-08 -0.26883277 0.0074333623 0
-3.845819e-08 -0.26829275 0.010624809 0
-4.9594696e-08 -0.26842025 0.013701201 0
-5.9614905e-08 -0.26807475 0.016469222 0
-6.9882866e-08 -0.26846036 0.019305684 0
-8.2954912e-08 -0.26847583 0.022916757 0
-9.1952899e-08 -0.26859307 0.025402395 0
-1.0389753e-07 -0.26878589 0.028702024 0
-1.1486296e-07 -0.26863679 0.031731158 0
-1.2508221e-07 -0.26827806 0.034554165 0
0.00098596909 -0.26825061 0.038057003 0
0.0015857243 -0.26852539 0.045000982 0
0.0037927707 -0.26907715 -0.044999022 0
0.0050001568 -0.2681649 -0.043251418 0
0.005000148 -0.26847619 -0.040627658 0
0.004123149 -0.26842302 -0.038426954 0
0.004363819 -0.26810494 0.038445264 0
0.0049998518 -0.26828179 0.040978324 0
0.0049998425 -0.26824155 0.043688715 0
0.0041759247 -0.26865691 0.045000982 0
-0.0041998364 -0.26533809 -0.044999067 0
-0.0049998425 -0.26550949 -0.043704212 0
-0.0049998541 -0.2653718 -0.040495582 0
-0.0049998658 -0.26576829 -0.037315216 0
-0.004999876 -0.26544607 -0.034356683 0
-0.0049998863 -0.265524 -0.031400573 0
-0.0049998974 -0.26537418 -0.028440192 0
-0.0049999063 -0.26578471 -0.025808306 0
-0.0049999198 -0.2655918 -0.022319684 0
-0.0049999305 -0.26556733 -0.019246908 0
-0.0049999398 -0.265461 -0.016597683 0
-0.004999951 -0.26566941 -0.013791895 0
-0.0049999636 -0.26547644 -0.010290735 0
-0.0049999729 -0.26570365 -0.0074021271 0
-0.0049999841 -0.2655836 -0.004423127 0
-0.0049999957 -0.26539391 -0.0013723536 0
-0.0050000069 -0.26552105 0.0016947897 0
-0.0050000171 -0.26522997 0.0046227239 0
-0.0050000292 -0.26563823 0.0077893836 0
-0.005000039 -0.26543894 0.010559922 0
-0.0050000492 -0.26544395 0.013632258 0
-0.0050000604 -0.26512843 0.016405033 0
-0.0050000697 -0.26555282 0.019486502 0
-0.0050000818 -0.26554057 0.022575831 0
-0.0050000921 -0.26559222 0.025353985 0
-0.0050001037 -0.26566958 0.028524345 0
-0.0050001135 -0.26552421 0.031707779 0
-0.0050001252 -0.2653687 0.034309074 0
-0.0050001363 -0.26568097 0.037460033 0
-0.0050001475 -0.26548567 0.040582884 0
-0.0050001577 -0.26565751 0.043491319 0
-0.0038268489 -0.26564407 0.045000959 0
-0.0014462093 -0.26554853 -0.044999037 0
-0.0024114838 -0.26655164 -0.044999041 0
-0.0011624084 -0.26555955 0.045000944 0
0.0015342752 -0.26558548 -0.044999048 0
0.00097484072 -0.26538625 -0.037892923 0
1.2470933e-07 -0.26551351 -0.034449223 0
1.1506867e-07 -0.26548001 -0.031786051 0
1.026763e-07 -0.26570794 -0.028362736 0
9.1327955e-08 -0.26559281 -0.025227824 0
8.1446238e-08 -0.26547125 -0.02249806 0
7.0447093e-08 -0.26519623 -0.019459616 0
5.9714317e-08 -0.26529798 -0.016494751 0
4.922947e-08 -0.26552984 -0.013598377 0
3.7227515e-08 -0.26601967 -0.010282909 0
2.6962436e-08 -0.26574302 -0.0074472451 0
1.6290116e-08 -0.2654621 -0.0044990834 0
4.8926618e-09 -0.26542434 -0.0013506069 0
-5.7418541e-09 -0.26578885 0.0015871141 0
-1.5821929e-08 -0.26559857 0.0043716719 0
-2.7653375e-08 -0.26552182 0.0076400358 0
-3.7196216e-08 -0.26556754 0.010276187 0
-4.9391382e-08 -0.2657513 0.013645028 0
-5.9457964e-08 -0.26556307 0.016425857 0
-6.9966809e-08 -0.26558095 0.019328862 0
-8.0690995e-08 -0.26515624 0.022291349 0
-9.2383118e-08 -0.26519811 0.025521228 0
-1.0328202e-07 -0.26544097 0.028531983 0
-1.1460821e-07 -0.2657468 0.031660773 0
-1.2540448e-07 -0.26538679 0.034643177 0
0.00062079122 -0.26539916 0.037797559 0
0.0014920465 -0.26575017 0.045000952 0
0.0041132774 -0.26565722 -0.044999033 0
0.0050001577 -0.265264 -0.043303553 0
0.005000148 -0.26551041 -0.04065945 0
0.0041322596 -0.26545826 -0.038469207 0
0.0040559112 -0.26551431 0.038472503 0
0.0049998527 -0.26565397 0.040636629 0
0.004999843 -0.26540399 0.043505147 0
0.0041535171 -0.26541945 0.045000985 0
-0.0042294217 -0.26244795 -0.044999074 0
-0.0049998439 -0.26248798 -0.043200061 0
-0.0049998523 -0.26243427 -0.040917035 0
-0.0049998648 -0.2627812 -0.037577715 0
-0.004999876 -0.26230448 -0.034477919 0
-0.0049998872 -0.26228893 -0.031411961 0
-0.0049998974 -0.26260483 -0.028394174 0
-0.0049999077 -0.26258367 -0.02560159 0
-0.0049999189 -0.26233792 -0.022374187 0
-0.0049999291 -0.26224607 -0.019544486 0
-0.0049999403 -0.26248664 -0.01641842 0
-0.0049999519 -0.2628718 -0.013518626 0
-0.0049999617 -0.26230147 -0.010648554 0
-0.0049999729 -0.2624132 -0.0076025547 0
-0.0049999845 -0.26273593 -0.0044085523 0
-0.0049999938 -0.26216549 -0.001679549 0
-0.005000005 -0.26268157 0.0013911934 0
-0.0050000157 -0.26254517 0.004478896 0
-0.0050000283 -0.26244685 0.0077491668 0
-0.0050000385 -0.26245585 0.010572241 0
-0.0050000488 -0.26230851 0.013406985 0
-0.00500006 -0.26218542 0.016500251 0
-0.0050000707 -0.26244456 0.019370312 0
-0.0050000823 -0.26248658 0.022553327 0
-0.0050000935 -0.26279366 0.025574731 0
-0.0050001037 -0.26290661 0.02849956 0
-0.005000113 -0.26265067 0.031360436 0
-0.0050001261 -0.26239905 0.034671951 0
-0.0050001354 -0.26217473 0.037322737 0
-0.0050001461 -0.26259407 0.040368062 0
-0.0050001568 -0.26246774 0.043550096 0
-0.0037903998 -0.26277339 0.045000929 0
-0.00160794 -0.26262686 -0.04499907 0
-0.00057702867 -0.26297808 -0.044999048 0
-0.0017299218 -0.2625415 0.045000944 0
0.0012236669 -0.26255795 -0.044999056 0
0.001048143 -0.26261333 -0.038142249 0
1.2434589e-07 -0.26256439 -0.034348838 0
1.1418268e-07 -0.26248193 -0.031541314 0
1.0331949e-07 -0.26236746 -0.028540423 0
9.1611724e-08 -0.26256979 -0.025306225 0
8.1525513e-08 -0.26240453 -0.022519972 0
6.9626886e-08 -0.2621817 -0.019233048 0
6.076057e-08 -0.26244721 -0.016783783 0
5.0442228e-08 -0.26276201 -0.013933404 0
3.8362206e-08 -0.26243031 -0.010596373 0
2.7821178e-08 -0.26260838 -0.007684479 0
1.6404403e-08 -0.26252165 -0.004530665 0
7.2093322e-09 -0.26275253 -0.0019905826 0
-6.3752705e-09 -0.26242816 0.0017620792 0
-1.6543417e-08 -0.26284364 0.0045709684 0
-2.7296572e-08 -0.26254517 0.0075414605 0
-3.8045272e-08 -0.26245698 0.010510722 0
-4.9431758e-08 -0.26231921 0.013656169 0
-6.006092e-08 -0.26210135 0.016592408 0
-7.0252348e-08 -0.2625266 0.019407729 0
-8.1771418e-08 -0.26265144 0.022589801 0
-9.1321418e-08 -0.26259896 0.02522793 0
-1.011135e-07 -0.26224029 0.027932933 0
-1.1424995e-07 -0.26227811 0.031561796 0
-1.2569386e-07 -0.26238135 0.034723107 0
0.00083092775 -0.26244888 0.037806578 0
0.001427538 -0.26264557 0.045000944 0
0.0037253541 -0.26263919 -0.044999044 0
0.0050001577 -0.26254541 -0.043505576 0
0.0050001456 -0.26266277 -0.040381525 0
0.0041166996 -0.26265883 -0.038445979 0
0.0043861023 -0.26247531 0.038501952 0
0.0049998518 -0.26266974 0.040739227 0
0.0049998444 -0.2627306 0.043268479 0
0.0042317179 -0.26256517 0.045000963 0
-0.0042873644 -0.2595396 -0.044999085 0
-0.004999842 -0.25949541 -0.043813352 0
-0.0049998532 -0.25975588 -0.040755771 0
-0.0049998648 -0.25979507 -0.037398618 0
-0.0049998751 -0.25935847 -0.034494054 0
-0.0049998872 -0.25953615 -0.031318799 0
-0.004999897 -0.25932306 -0.028680218 0
-0.0049999082 -0.25963879 -0.025566269 0
-0.0049999179 -0.25987893 -0.022713223 0
-0.0049999291 -0.25948453 -0.019562233 0
-0.0049999389 -0.25952572 -0.01681575 0
-0.0049999519 -0.25953332 -0.013270559 0
-0.0049999612 -0.25926515 -0.010619946 0
-0.0049999719 -0.25946653 -0.007791901 0
-0.0049999831 -0.25966913 -0.0046126074 0
-0.0049999948 -0.2592245 -0.0013595436 0
-0.005000005 -0.25922811 0.0012945774 0
-0.0050000176 -0.25935858 0.0048231967 0
-0.0050000274 -0.25962126 0.0075231674 0
-0.0050000385 -0.25954685 0.01039982 0
-0.0050000488 -0.25952029 0.013501082 0
-0.00500006 -0.25962836 0.016370574 0
-0.0050000716 -0.2598556 0.019828143 0
-0.0050000818 -0.25952545 0.022346046 0
-0.005000094 -0.25934854 0.02569952 0
-0.0050001037 -0.25965762 0.028474627 0
-0.005000114 -0.25968719 0.031586189 0
-0.0050001247 -0.25961941 0.034495912 0
-0.0050001354 -0.25938973 0.037445247 0
-0.0050001461 -0.2594384 0.040205315 0
-0.0050001577 -0.25929716 0.043379173 0
-0.0040005497 -0.25952184 0.045000911 0
-0.0010802535 -0.25951171 -0.044999074 0
-0.0028119178 -0.26040018 -0.044999067 0
-0.0015063725 -0.25946772 0.045000926 0
0.0014905742 -0.25947839 -0.044999048 0
0.00097867416 -0.25940675 -0.03803229 0
1.2468556e-07 -0.25955164 -0.034442678 0
1.1443091e-07 -0.2596122 -0.031609897 0
1.027502e-07 -0.25946581 -0.028383171 0
9.3968104e-08 -0.25932914 -0.025957171 0
8.2240007e-08 -0.25967816 -0.022717355 0
6.9505901e-08 -0.25997028 -0.019199638 0
5.9842634e-08 -0.25947154 -0.016530221 0
4.8981001e-08 -0.25993496 -0.013529759 0
3.8164398e-08 -0.2595613 -0.01054174 0
2.7430174e-08 -0.25953284 -0.0075764768 0
1.6552724e-08 -0.25963053 -0.0045716483 0
4.3751083e-09 -0.25931111 -0.0012076581 0
-5.7689604e-09 -0.25936759 0.0015945787 0
-1.583826e-08 -0.25940493 0.0043761614 0
-2.636569e-08 -0.25960386 0.0072842995 0
-3.7063607e-08 -0.25965157 0.010239533 0
-4.8542354e-08 -0.2590194 0.013410465 0
-5.9969793e-08 -0.25950888 0.016567225 0
-7.2259816e-08 -0.25976476 0.01996227 0
-8.275093e-08 -0.25923449 0.022860374 0
-9.2137071e-08 -0.25942415 0.025453238 0
-1.0334244e-07 -0.25975218 0.028548652 0
-1.1405265e-07 -0.2594814 0.03150728 0
-1.242242e-07 -0.25930497 0.03431711 0
0.00096485519 -0.25958213 0.037947781 0
0.0012936231 -0.25937459 0.045000933 0
0.0039429744 -0.25938329 -0.044999056 0
0.0050001573 -0.25907481 -0.043452282 0
0.0050001461 -0.25914621 -0.040275935 0
0.0040370892 -0.25923821 -0.038422499 0
0.0044912365 -0.25940967 0.03851106 0
0.0049998551 -0.2594454 0.040320158 0
0.004999843 -0.25942633 0.043398079 0
0.0039781472 -0.25948426 0.045000952 0
-0.0039676125 -0.25621486 -0.044999097 0
-0.0049998411 -0.25653008 -0.043614034 0
-0.0049998523 -0.25635451 -0.040643897 0
-0.0049998644 -0.25644082 -0.037612095 0
-0.0049998756 -0.25654629 -0.034504108 0
-0.0049998872 -0.25653642 -0.031356215 0
-0.0049998965 -0.25682861 -0.028516307 0
-0.0049999072 -0.25659439 -0.025735166 0
-0.0049999203 -0.25645277 -0.022236178 0
-0.0049999296 -0.25600597 -0.019488191 0
-0.0049999412 -0.25682032 -0.016434481 0
-0.004999951 -0.2566461 -0.013589802 0
-0.0049999622 -0.25639889 -0.010347126 0
-0.0049999733 -0.25624698 -0.0076337815 0
-0.004999985 -0.2562291 -0.0043616183 0
-0.0049999952 -0.25599959 -0.0014785012 0
-0.0050000059 -0.25651738 0.001504887 0
-0.0050000162 -0.25626582 0.0043926691 0
-0.0050000274 -0.256596 0.007530937 0
-0.0050000385 -0.2564126 0.010549735 0
-0.0050000488 -0.25654063 0.0134707 0
-0.0050000604 -0.25658986 0.016608853 0
-0.0050000707 -0.25656748 0.019552942 0
-0.0050000814 -0.25642961 0.022515908 0
-0.0050000921 -0.25658631 0.025519751 0
-0.0050001037 -0.2567279 0.028412292 0
-0.0050001149 -0.25642535 0.031614043 0
-0.0050001256 -0.25646204 0.034442272 0
-0.0050001359 -0.25634062 0.037385937 0
-0.0050001466 -0.25667492 0.040378619 0
-0.0050001587 -0.25648379 0.043691054 0
-0.0041078702 -0.25651625 0.045000907 0
-0.0020821036 -0.25647634 -0.044999089 0
-0.0015729932 -0.25748327 -0.044999074 0
-0.0012857527 -0.25659123 0.045000926 0
0.0015348484 -0.25670153 -0.044999078 0
0.00088408386 -0.25637069 -0.038107276 0
1.259931e-07 -0.25649413 -0.03480389 0
1.1476588e-07 -0.25665623 -0.03170244 0
1.041739e-07 -0.25658122 -0.028776469 0
9.3047639e-08 -0.25648171 -0.02570291 0
8.0584854e-08 -0.25641882 -0.022260142 0
7.1565509e-08 -0.25659475 -0.019768601 0
5.9617911e-08 -0.25631952 -0.016468152 0
4.8153399e-08 -0.2565181 -0.013301152 0
3.7238017e-08 -0.25663254 -0.010285844 0
2.7757842e-08 -0.25690717 -0.0076670032 0
1.608046e-08 -0.2564992 -0.0044411994 0
6.4132522e-09 -0.25687677 -0.0017706915 0
-6.5604131e-09 -0.25664729 0.0018132029 0
-1.533672e-08 -0.2565248 0.0042376029 0
-2.6745223e-08 -0.25665772 0.0073891324 0
-3.7911764e-08 -0.25639191 0.01047382 0
-4.9486736e-08 -0.25650352 0.013671335 0
-5.9350832e-08 -0.25658596 0.016396232 0
-7.1417681e-08 -0.2566503 0.019729624 0
-8.0886529e-08 -0.2561245 0.022345334 0
-9.2149129e-08 -0.2564891 0.025456557 0
-1.0251828e-07 -0.25656092 0.028320974 0
-1.1429442e-07 -0.2565437 0.031574059 0
-1.250983e-07 -0.25625655 0.034558561 0
0.00075685687 -0.25645632 0.037856098 0
0.0016671623 -0.2563628 0.045000937 0
0.0038555707 -0.25660589 -0.044999067 0
0.0050001573 -0.25624695 -0.043380234 0
0.005000148 -0.25639087 -0.040769026 0
0.0040620985 -0.25648639 -0.038413856 0
0.0041559604 -0.25661045 0.038426548 0
0.0049998541 -0.2565051 0.040445905 0
0.004999842 -0.25638285 0.043692108 0
0.0040283548 -0.25658843 0.045000933 0
-0.0040047551 -0.25344145 -0.044999108 0
-0.0049998434 -0.25346205 -0.043260328 0
-0.0049998513 -0.25341731 -0.04108379 0
-0.0049998658 -0.25352833 -0.037279997 0
-0.004999877 -0.25374076 -0.034277987 0
-0.0049998863 -0.25326902 -0.031466722 0
-0.0049998974 -0.25355545 -0.028480779 0
-0.00499991 -0.25336614 -0.024955943 0
-0.0049999198 -0.25364867 -0.022308461 0
-0.0049999286 -0.253416 -0.019919572 0
-0.0049999426 -0.25353083 -0.016052812 0
-0.004999951 -0.25357264 -0.013640484 0
-0.0049999636 -0.25357994 -0.010200541 0
-0.0049999747 -0.25329405 -0.0072002495 0
-0.0049999831 -0.25349888 -0.0044480977 0
-0.0049999948 -0.2538279 -0.0015206985 0
-0.0050000055 -0.25331959 0.0013121725 0
-0.0050000153 -0.25369149 0.0042450204 0
-0.0050000283 -0.25360009 0.0077100783 0
-0.0050000381 -0.25356588 0.010664949 0
-0.0050000479 -0.25359479 0.013122763 0
-0.0050000595 -0.25335151 0.016262183 0
-0.0050000716 -0.25325903 0.019640522 0
-0.0050000809 -0.25341409 0.02230062 0
-0.0050000935 -0.25345626 0.025665082 0
-0.0050001028 -0.25351152 0.028381126 0
-0.0050001149 -0.25308689 0.031558979 0
-0.0050001247 -0.25363049 0.034236688 0
-0.0050001359 -0.25322604 0.037615627 0
-0.0050001452 -0.25305185 0.040127125 0
-0.0050001573 -0.25339711 0.043452859 0
-0.0038815138 -0.25336403 0.045000911 0
-0.0014887757 -0.25356433 -0.0449991 0
-0.0011988039 -0.25311178 -0.044999085 0
-0.0012887362 -0.25337619 0.045000896 0
0.0014599268 -0.25325191 -0.044999082 0
0.00098343834 -0.25354245 -0.038075294 0
1.2578359e-07 -0.25353742 -0.034746025 0
1.1271626e-07 -0.25358447 -0.031136256 0
1.0381763e-07 -0.25363237 -0.028678061 0
9.2991726e-08 -0.25343534 -0.025687475 0
8.0935337e-08 -0.2536245 -0.02235697 0
7.0371719e-08 -0.25363904 -0.019438837 0
5.9565981e-08 -0.25369608 -0.016453817 0
4.8363798e-08 -0.25331894 -0.013359284 0
3.9458044e-08 -0.25338677 -0.010899125 0
2.811945e-08 -0.25327817 -0.007766908 0
1.6325684e-08 -0.25341156 -0.0045089526 0
5.9805489e-09 -0.25363237 -0.0016511717 0
-5.6704348e-09 -0.25359511 0.0015673408 0
-1.6113633e-08 -0.25371489 0.0044522104 0
-2.6658249e-08 -0.25334632 0.007365094 0
-3.835164e-08 -0.25368413 0.010595323 0
-4.9045585e-08 -0.2533724 0.013549458 0
-5.9226107e-08 -0.25347531 0.016361766 0
-7.2077647e-08 -0.25363338 0.019911924 0
-8.2184272e-08 -0.25372362 0.022703817 0
-9.3139718e-08 -0.25363246 0.025730193 0
-1.0313473e-07 -0.25344774 0.028491253 0
-1.1519797e-07 -0.25318837 0.031823646 0
-1.2555708e-07 -0.25371918 0.034685291 0
0.00076468213 -0.25339842 0.037844718 0
0.001507225 -0.25385785 0.045000911 0
0.0040096142 -0.25339082 -0.044999078 0
0.0050001568 -0.25351822 -0.043285158 0
0.0050001466 -0.25367987 -0.040474806 0
0.0039466969 -0.25328296 -0.038403049 0
0.0042784447 -0.25353909 0.038427595 0
0.0049998555 -0.25314626 0.040176008 0
0.0049998439 -0.2536225 0.043223161 0
0.0040707998 -0.25340188 0.045000914 0
-0.0038823981 -0.25032356 -0.044999119 0
-0.004999843 -0.25039381 -0.043503176 0
-0.0049998527 -0.25051084 -0.040541943 0
-0.0049998653 -0.25036636 -0.037609793 0
-0.004999876 -0.25042441 -0.034641266 0
-0.0049998867 -0.25029209 -0.03134004 0
-0.0049998979 -0.25046921 -0.028393904 0
-0.0049999077 -0.25073949 -0.025706625 0
-0.0049999193 -0.2504651 -0.022573732 0
-0.0049999286 -0.25060856 -0.01978894 0
-0.0049999412 -0.2504409 -0.016451743 0
-0.004999951 -0.25050798 -0.013514184 0
-0.0049999636 -0.25031322 -0.010343609 0
-0.0049999743 -0.25061017 -0.0073677646 0
-0.0049999831 -0.25039786 -0.0047703739 0
-0.0049999952 -0.25027379 -0.0015011305 0
-0.0050000069 -0.25028837 0.001655841 0
-0.0050000167 -0.25055897 0.0045960476 0
-0.0050000269 -0.25036746 0.0074840812 0
-0.0050000381 -0.25066018 0.010609196 0
-0.0050000488 -0.25064698 0.013353005 0
-0.0050000586 -0.25044942 0.016271738 0
-0.0050000711 -0.25045612 0.019403992 0
-0.0050000814 -0.25047544 0.022445181 0
-0.0050000921 -0.25035357 0.025441492 0
-0.0050001047 -0.25056371 0.028777329 0
-0.0050001126 -0.2504952 0.031264897 0
-0.0050001247 -0.2503722 0.034296766 0
-0.0050001345 -0.25037262 0.037237022 0
-0.0050001484 -0.25056186 0.040772188 0
-0.0050001568 -0.25074267 0.043215919 0
-0.0039202212 -0.25045672 0.045000881 0
-0.0014313669 -0.25038797 -0.044999089 0
-0.0022216984 -0.25083905 -0.044999097 0
-0.0015078814 -0.25063676 0.045000892 0
0.0012843475 -0.25025138 -0.0449991 0
0.0011848764 -0.25036162 -0.0381204 0
1.2560464e-07 -0.25065917 -0.034696601 0
1.1400594e-07 -0.25027868 -0.031492535 0
1.0277336e-07 -0.25027788 -0.028389601 0
9.2166395e-08 -0.25080028 -0.025459493 0
8.1357328e-08 -0.25076523 -0.022473555 0
7.0790051e-08 -0.25016725 -0.01955441 0
5.9969047e-08 -0.25073534 -0.016565174 0
4.7480931e-08 -0.25039387 -0.013115409 0
3.7541554e-08 -0.25031754 -0.010369717 0
2.6985008e-08 -0.25087434 -0.0074535343 0
1.5479353e-08 -0.25068781 -0.0042751683 0
5.9727281e-09 -0.25042665 -0.0016490228 0
-5.7071738e-09 -0.25055715 0.0015774786 0
-1.7557722e-08 -0.25042576 0.0048511196 0
-2.781146e-08 -0.25045329 0.0076836511 0
-3.8569286e-08 -0.25066862 0.010655435 0
-4.9213124e-08 -0.25041115 0.013595729 0
-6.0257754e-08 -0.25049347 0.016646741 0
-7.047813e-08 -0.25057471 0.019470057 0
-8.1227896e-08 -0.25022298 0.022439612 0
-9.2912821e-08 -0.25083607 0.025667502 0
-1.0299132e-07 -0.25047058 0.028451625 0
-1.1386769e-07 -0.25039881 0.031456154 0
-1.2530762e-07 -0.25065652 0.03461637 0
0.00077358435 -0.2504639 0.037476555 0
0.0014441056 -0.25042307 0.045000907 0
0.0040279031 -0.25069046 -0.044999085 0
0.0050001591 -0.25044468 -0.043839067 0
0.0050001461 -0.25076991 -0.040323786 0
0.0039133262 -0.25038472 -0.038399078 0
0.0041735764 -0.2504454 0.038447998 0
0.0049998532 -0.25068074 0.040634174 0
0.0049998425 -0.25046021 0.043657035 0
0.0040574372 -0.25079688 0.045000914 0
-0.0041028392 -0.24717323 -0.04499913 0
-0.0049596112 -0.2474867 -0.043552797 0
-0.0049998537 -0.24743621 -0.04051372 0
-0.0049998658 -0.24753411 -0.037133038 0
-0.0049998732 -0.24792159 -0.034871511 0
-0.0049998867 -0.24759705 -0.031560577 0
-0.004999896 -0.24718891 -0.02882242 0
-0.0049999072 -0.24751431 -0.025365898 0
-0.0049999189 -0.24754985 -0.022528574 0
-0.00499993 -0.24701582 -0.019457236 0
-0.0049999407 -0.24728219 -0.016478108 0
-0.0049999529 -0.24768126 -0.013216924 0
-0.0049999631 -0.24747504 -0.010298918 0
-0.0049999719 -0.2474547 -0.0075414917 0
-0.0049999831 -0.24744111 -0.0047003874 0
-0.0049999934 -0.24743143 -0.0018690596 0
-0.0050000073 -0.24763569 0.0017450391 0
-0.005000018 -0.24762264 0.0047734859 0
-0.0050000274 -0.24755111 0.0074971132 0
-0.0050000385 -0.24753456 0.010358004 0
-0.0050000488 -0.24734223 0.013331968 0
-0.0050000614 -0.2476166 0.016709657 0
-0.0050000711 -0.24744862 0.019478815 0
-0.0050000818 -0.24736084 0.022329355 0
-0.0050000926 -0.24745564 0.025304008 0
-0.0050001028 -0.24761459 0.028305136 0
-0.0050001149 -0.24749029 0.031572931 0
-0.0050001242 -0.24740589 0.034146119 0
-0.0050001363 -0.24741901 0.037520491 0
-0.0050001484 -0.2478043 0.040780425 0
-0.0050001591 -0.24756491 0.043692674 0
-0.0040928358 -0.24755307 0.045000885 0
-0.0015811896 -0.24702144 -0.044999123 0
-0.0013641245 -0.24729282 0.045000877 0
0.0014243424 -0.24772863 -0.044999111 0
0.0013958905 -0.24739912 -0.037744951 0
0.00080519856 -0.24701807 -0.03450641 0
0.00076245167 -0.2471129 -0.031221021 0
0.0010093218 -0.24702282 -0.028652601 0
0.00087341596 -0.24699032 -0.025437016 0
0.00083456334 -0.24728236 -0.022387914 0
0.00099031604 -0.24712098 -0.019435212 0
0.00065161573 -0.24723805 -0.016490435 0
0.00084148702 -0.24706553 -0.013472136 0
0.0010936306 -0.24691488 -0.010441455 0
0.00076348259 -0.24717747 -0.0075033642 0
0.00067840941 -0.2471946 -0.0045972858 0
0.00066418829 -0.24737717 -0.0014349101 0
0.001122431 -0.24709317 0.0014012418 0
0.00079855684 -0.24710219 0.0044492581 0
0.00087962276 -0.24700724 0.0073729502 0
0.00083033455 -0.24703462 0.010414747 0
0.00055444241 -0.24713743 0.013701531 0
0.00078179972 -0.24708453 0.016544621 0
0.00097132241 -0.2472111 0.019558342 0
0.00080951164 -0.24704413 0.022570329 0
0.00065919629 -0.24728103 0.025479497 0
0.00086181046 -0.24720149 0.028614793 0
0.0006333816 -0.24728996 0.031361338 0
0.00086963776 -0.24721391 0.03447536 0
0.001002627 -0.2472823 0.037668746 0
0.0015252578 -0.24743274 0.045000881 0
0.0042979661 -0.24741542 -0.044999097 0
0.0050001591 -0.24753548 -0.0437968 0
0.0050001466 -0.2475487 -0.040674277 0
0.0041455845 -0.2473308 -0.037969932 0
0.0041399323 -0.24653368 -0.034501415 0
0.004310722 -0.24654607 -0.031675257 0
0.0043045776 -0.2464502 -0.028532635 0
0.0043268502 -0.24652016 -0.025679788 0
0.0042336383 -0.24651602 -0.022296667 0
0.0040860185 -0.24657096 -0.019368233 0
0.0043575647 -0.24648552 -0.016327534 0
0.0041808272 -0.24654661 -0.013312139 0
0.0043027578 -0.24652874 -0.010431742 0
0.0040387423 -0.24658582 -0.0079478817 0
0.0041026939 -0.24655379 -0.0042751846 0
0.0041788104 -0.2465539 -0.0013413324 0
0.0042646313 -0.24653089 0.0019120694 0
0.0043208967 -0.24654461 0.0042728498 0
0.0041888119 -0.24654965 0.0070371926 0
0.0041884123 -0.24652806 0.010796031 0
0.0041100495 -0.24648726 0.013880831 0
0.0042430381 -0.24648231 0.016490929 0
0.0044012708 -0.246527 0.019450739 0
0.0040350133 -0.24648699 0.022453787 0
0.0041506658 -0.24653752 0.025650382 0
0.0043640435 -0.2464941 0.028308652 0
0.0041172309 -0.24650374 0.031153219 0
0.0040127574 -0.24656008 0.034699384 0
0.0044002449 -0.24710394 0.037905429 0
0.0049998532 -0.24722224 0.040537093 0
0.004999843 -0.24781914 0.04342987 0
0.003828187 -0.24742234 0.045000907 0
-0.0038036869 -0.24430901 -0.044999138 0
-0.00493972 -0.24462995 -0.043836262 0
-0.0049998555 -0.24442776 -0.040114023 0
-0.0049998658 -0.24436629 -0.037323825 0
-0.0049998737 -0.24458267 -0.034674827 0
-0.0049998867 -0.2445876 -0.031487312 0
-0.0049998979 -0.24431217 -0.02828142 0
-0.0049999091 -0.24457647 -0.025396554 0
-0.0049999203 -0.24453218 -0.02224016 0
-0.00499993 -0.24424084 -0.019382913 0
-0.0049999407 -0.24460979 -0.016442336 0
-0.0049999519 -0.24449679 -0.01354506 0
-0.0049999626 -0.24472408 -0.010596629 0
-0.0049999733 -0.24446686 -0.0074557499 0
-0.0049999841 -0.24446627 -0.0045506181 0
-0.0049999957 -0.24442367 -0.0014240973 0
-0.0050000064 -0.24429813 0.0014855328 0
-0.0050000167 -0.24492167 0.0044708783 0
-0.0050000278 -0.24441816 0.0075688967 0
-0.0050000395 -0.2445129 0.010667889 0
-0.0050000497 -0.24447966 0.013509226 0
-0.0050000595 -0.24460235 0.016319321 0
-0.0050000693 -0.24437495 0.019221943 0
-0.0050000828 -0.24460168 0.022614019 0
-0.0050000907 -0.24448159 0.025109809 0
-0.0050001047 -0.24455471 0.028637271 0
-0.005000114 -0.24455787 0.031364542 0
-0.0050001256 -0.24447562 0.034517862 0
-0.0050001359 -0.24482836 0.037271727 0
-0.0050001452 -0.2445758 0.040203691 0
-0.0050001573 -0.2444137 0.043353703 0
-0.0040981108 -0.24449007 0.045000874 0
-0.0013773491 -0.24431148 -0.04499913 0
-0.0026216861 -0.24538013 -0.044999123 0
-0.0015421245 -0.24474035 0.045000888 0
0.0013977648 -0.24452846 -0.044999119 0
0.001556323 -0.24442133 0.045000907 0
0.0040624514 -0.24436332 -0.044999104 0
0.0050001564 -0.24481769 -0.043303072 0
0.005000148 -0.24458662 -0.040668149 0
0.0050001354 -0.24467669 -0.037304476 0
0.0050001247 -0.24441271 -0.034661803 0
0.0050001154 -0.24470538 -0.031756524 0
0.0050001033 -0.24443027 -0.028548364 0
0.0050000921 -0.24478172 -0.025165068 0
0.0050000828 -0.24457991 -0.022604797 0
0.0050000716 -0.24447933 -0.019526666 0
0.0050000595 -0.24450621 -0.016258569 0
0.0050000488 -0.24417539 -0.013455354 0
0.0050000381 -0.24478321 -0.010238511 0
0.0050000283 -0.24450606 -0.0077443677 0
0.0050000171 -0.24453059 -0.0045661125 0
0.0050000041 -0.24480532 -0.0011969806 0
0.0049999952 -0.24437453 0.0014303249 0
0.0049999841 -0.24454823 0.0045379018 0
0.0049999738 -0.24467617 0.007452534 0
0.0049999622 -0.24455158 0.010484884 0
0.0049999519 -0.24470584 0.013358284 0
0.0049999421 -0.24438865 0.016103314 0
0.0049999305 -0.2443157 0.019386668 0
0.0049999189 -0.24443525 0.022525774 0
0.0049999077 -0.24453764 0.025578707 0
0.004999896 -0.24446611 0.028558983 0
0.0049998853 -0.24453947 0.031595942 0
0.0049998751 -0.24483058 0.034558591 0
0.0049998639 -0.24409649 0.037819222 0
0.0049998546 -0.24468672 0.04041094 0
0.0049998416 -0.24480037 0.043708388 0
0.004000416 -0.24438323 0.045000892 0
-0.0037257758 -0.24114931 -0.044999152 0
-0.0049853357 -0.24144939 -0.043672081 0
-0.004918904 -0.24137591 -0.040524568 0
-0.0048251534 -0.24133004 -0.037405714 0
-0.0049298359 -0.24134517 -0.034638248 0
-0.0048467149 -0.24142256 -0.031704858 0
-0.0047158962 -0.24126999 -0.028606841 0
-0.0045668459 -0.24135582 -0.02544046 0
-0.0049003288 -0.24144986 -0.022424906 0
-0.0048298719 -0.24148546 -0.019433688 0
-0.0049085473 -0.24128766 -0.016717948 0
-0.0048959451 -0.24136655 -0.013628423 0
-0.0048813457 -0.24129032 -0.010617331 0
-0.004891702 -0.24110967 -0.0075206356 0
-0.0049999836 -0.24164633 -0.0047505139 0
-0.0049999948 -0.24147552 -0.0016961009 0
-0.0050000059 -0.24141645 0.0015424306 0
-0.004936825 -0.24127783 0.0044386969 0
-0.0048822258 -0.2410503 0.0075102355 0
-0.0049608531 -0.24150105 0.010534048 0
-0.0048590559 -0.24126567 0.013408937 0
-0.0049538314 -0.24124113 0.016912648 0
-0.0049042786 -0.24144073 0.019534247 0
-0.0048941853 -0.24127032 0.022471281 0
-0.0047788275 -0.24100325 0.025448892 0
-0.0048433836 -0.24149752 0.028549619 0
-0.0048252847 -0.24107595 0.031643633 0
-0.0049220538 -0.24123569 0.034363762 0
-0.0048335115 -0.24128142 0.037357144 0
-0.0047339322 -0.24127516 0.040398963 0
-0.00479978 -0.24170741 0.043559346 0
-0.0040579429 -0.24145778 0.045000866 0
-0.0014214565 -0.24151959 -0.044999138 0
-0.0019404703 -0.24144645 -0.044276785 0
-0.0010057501 -0.24000016 -0.040595956 0
-0.0011091754 -0.24000014 -0.037681166 0
-0.0012731912 -0.24000013 -0.03451822 0
-0.0012638296 -0.24000013 -0.03180458 0
-0.0014771144 -0.24000011 -0.028424827 0
-0.0017101147 -0.2400001 -0.02526518 0
-0.0019043621 -0.2400001 -0.022423252 0
-0.00030816652 -0.24000008 -0.018900394 0
-0.0011228846 -0.24000008 -0.016909696 0
-0.0016564247 -0.24000005 -0.013400429 0
-0.0014209527 -0.24000004 -0.010183263 0
-0.0010924609 -0.24000004 -0.0076939939 0
-0.0012635288 -0.24000002 -0.0054864823 0
-1.7244332e-05 -0.23999999 0.0057149245 0
-0.0020105189 -0.23999998 0.0080666151 0
-0.0017317282 -0.23999996 0.010558995 0
-0.0006780487 -0.23999996 0.013279142 0
-0.0013983792 -0.23999995 0.016935689 0
-0.0015734036 -0.23999994 0.019195626 0
-0.0017583766 -0.23999994 0.021989493 0
-0.0016348158 -0.23999992 0.025518615 0
-0.0011379255 -0.23999991 0.028404607 0
-0.0013403578 -0.23999989 0.031475797 0
-0.00111021 -0.23999989 0.034087546 0
-0.00097763236 -0.23999988 0.037660509 0
-0.0010093797 -0.23999986 0.04082071 0
-0.0010156366 -0.23999986 0.043072544 0
-0.0015456891 -0.24150938 0.045000859 0
0.0016322058 -0.24147739 -0.044999111 0
0.0015553308 -0.24000017 -0.043986935 0
0.0020781956 -0.24000016 -0.040112633 0
0.0015040486 -0.24000014 -0.037266616 0
0.0018383813 -0.24000013 -0.034333233 0
0.0014160842 -0.24000013 -0.031640094 0
0.0017352076 -0.24000011 -0.028833766 0
0.0020069187 -0.2400001 -0.025409602 0
0.0019250743 -0.2400001 -0.022816226 0
0.0014076952 -0.24000008 -0.019351242 0
0.0009008646 -0.24000007 -0.016437154 0
0.0013483033 -0.24000005 -0.01347035 0
0.0016057275 -0.24000007 -0.010681902 0
0.0013057139 -0.24000004 -0.0084148347 0
0.0015044161 -0.24000002 -0.0055353139 0
0.0016972164 -0.23999999 0.0054100729 0
0.0008963123 -0.23999998 0.0075213262 0
0.0016746678 -0.23999996 0.010589804 0
0.00070908992 -0.23999996 0.013290589 0
0.0018286931 -0.23999995 0.016560975 0
0.0014053015 -0.23999994 0.019540103 0
0.0018294882 -0.23999994 0.022724776 0
0.0012889457 -0.23999994 0.025618946 0
0.0022005725 -0.23999991 0.02881629 0
0.0017229153 -0.23999989 0.031162228 0
0.0019973905 -0.23999989 0.034611303 0
0.0011518595 -0.23999988 0.03751282 0
0.0011864291 -0.23999988 0.041140016 0
0.001550943 -0.23999985 0.04337623 0
0.0013975501 -0.24147718 0.045000866 0
0.0038471317 -0.24166307 -0.044999123 0
0.0049402746 -0.24140067 -0.043402601 0
0.0048013148 -0.2411093 -0.040506139 0
0.0048133256 -0.24125867 -0.037386108 0
0.0047682091 -0.24095812 -0.0347334 0
0.0048307138 -0.24152219 -0.031427283 0
0.0046711308 -0.24126047 -0.028494243 0
0.0049519865 -0.24153589 -0.025803542 0
0.0048422096 -0.24127769 -0.022637732 0
0.0047582351 -0.24098706 -0.019648887 0
0.0049423776 -0.24144816 -0.016523508 0
0.0048016883 -0.24124631 -0.013754492 0
0.0050000376 -0.24152032 -0.010308776 0
0.0049006515 -0.24125779 -0.0071941172 0
0.0050000167 -0.24153543 -0.0044247857 0
0.0050000069 -0.24169235 -0.0016307563 0
0.0049999952 -0.24161328 0.0013633028 0
0.0049999841 -0.24156465 0.0045357798 0
0.0049764016 -0.2416096 0.0074010948 0
0.0049251132 -0.24136078 0.01037977 0
0.0048954077 -0.24133433 0.013180843 0
0.0048598615 -0.2413318 0.016665876 0
0.0049318359 -0.24153654 0.01983517 0
0.0047241957 -0.24113889 0.022283887 0
0.0047090328 -0.24112082 0.02548999 0
0.0047782497 -0.24101084 0.028504832 0
0.0048238263 -0.24146537 0.031328954 0
0.0047760392 -0.24138062 0.034487959 0
0.004829573 -0.24146333 0.037299175 0
0.0048755063 -0.24151845 0.040428095 0
0.0049367305 -0.24146836 0.043499984 0
0.004045926 -0.24169476 0.045000888 0
-0.0040921918 -0.24000016 -0.043851279 0
-0.0039877445 -0.24000014 -0.041003529 0
-0.0038991712 -0.24000013 -0.037553966 0
-0.0038644699 -0.24000011 -0.034619231 0
-0.0037008533 -0.24000011 -0.031276356 0
-0.0037709272 -0.2400001 -0.028253162 0
-0.0042048888 -0.24000007 -0.02614565 0
-0.0039394074 -0.24000005 -0.022276867 0
-0.0039634332 -0.24000007 -0.019583568 0
-0.0041140881 -0.24000007 -0.016296057 0
-0.0037914207 -0.24000004 -0.013125638 0
-0.0041111764 -0.24000004 -0.010713425 0
-0.0038252992 -0.24000002 -0.0074090487 0
-0.0044308105 -0.23870932 -0.0046289582 0
-0.0049999957 -0.23846582 -0.0012701233 0
-0.0050000064 -0.23844297 0.0017275582 0
-0.0044309068 -0.23876743 0.0046717157 0
-0.0041950587 -0.23999996 0.0075169071 0
-0.0041210172 -0.23999994 0.01038956 0
-0.0036661655 -0.23999995 0.01378361 0
-0.0044292812 -0.23999995 0.016619669 0
-0.0042458903 -0.23999992 0.019222919 0
-0.003569959 -0.23999992 0.022585895 0
-0.0039958097 -0.23999991 0.025003487 0
-0.0038865246 -0.23999988 0.028488662 0
-0.0039954623 -0.23999989 0.031287778 0
-0.0040101958 -0.23999989 0.034427676 0
-0.0038526412 -0.23999986 0.037425891 0
-0.0043055709 -0.23999985 0.041017979 0
-0.0036801645 -0.23999983 0.043703243 0
-0.0018898344 -0.24000017 -0.043490637 0
-0.0012059722 -0.24000013 -0.04052214 0
-0.0017092234 -0.24000007 -0.037515026 0
-0.0016825814 -0.24000011 -0.03448258 0
-0.0015614092 -0.24000011 -0.031519219 0
-0.0018956524 -0.24000007 -0.028581602 0
-0.0016495698 -0.24000008 -0.025471389 0
-0.0014135449 -0.24000002 -0.02245748 0
-0.0015392 -0.24000008 -0.019626377 0
-0.0018916045 -0.24000005 -0.016050056 0
-0.0016483122 -0.24000002 -0.013341169 0
-0.001813997 -0.23999998 -0.010257013 0
-0.0011757738 -0.24000002 -0.007430457 0
-0.001535909 -0.23879218 -0.0051668789 0
-0.0016696029 -0.23911841 0.0050513963 0
-0.0021574616 -0.23999996 0.0076450906 0
-0.0017403612 -0.23999994 0.010730625 0
-0.0015936901 -0.23999995 0.01362833 0
-0.0013381555 -0.23999994 0.015890418 0
-0.0017739002 -0.23999992 0.019316567 0
-0.0017137602 -0.23999989 0.023037676 0
-0.0014774346 -0.23999992 0.025409373 0
-0.0015793589 -0.23999991 0.028390689 0
-0.0016320663 -0.23999985 0.031643957 0
-0.0013636122 -0.23999985 0.034588777 0
-0.0019251215 -0.23999988 0.037659463 0
-0.0014634808 -0.23999985 0.040509861 0
-0.0015841695 -0.23999982 0.043305386 0
0.0016087169 -0.24000016 -0.043650016 0
0.0015050278 -0.24000013 -0.040400829 0
0.00099935965 -0.24000011 -0.0372301 0
0.0014524331 -0.2400001 -0.034487259 0
0.0012183555 -0.24000011 -0.031409886 0
0.0013992107 -0.2400001 -0.02840752 0
0.0019314748 -0.2400001 -0.024967611 0
0.0013051361 -0.24000001 -0.022429511 0
0.0015509311 -0.24000008 -0.019620283 0
0.0018504447 -0.24000001 -0.016888944 0
0.0010348059 -0.24000004 -0.013690113 0
0.0016860407 -0.24000004 -0.010854493 0
0.0014546219 -0.24000002 -0.0071863555 0
0.0015706313 -0.23866051 -0.0051157279 0
0.0015176438 -0.23897986 0.0050726351 0
0.001779999 -0.23999996 0.0073155155 0
0.0014240714 -0.23999996 0.010973593 0
0.0014340989 -0.23999995 0.013579098 0
0.0014984136 -0.23999994 0.016673008 0
0.0016144229 -0.23999992 0.019836912 0
0.0016387574 -0.23999991 0.022905862 0
0.0014971256 -0.23999991 0.024780732 0
0.0012201333 -0.23999991 0.028025208 0
0.001522364 -0.23999988 0.031558018 0
0.0013944121 -0.23999989 0.034645177 0
0.0012317509 -0.23999986 0.037375275 0
0.0016945159 -0.23999986 0.040591046 0
0.0015261035 -0.2399998 0.043584038 0
0.0039033936 -0.24000017 -0.043710418 0
0.0039666886 -0.24000016 -0.040677212 0
0.0039855321 -0.24000011 -0.037650961 0
0.00395014 -0.24000013 -0.034772959 0
0.0038352141 -0.24000013 -0.031500988 0
0.0041987831 -0.2400001 -0.028792927 0
0.0040570879 -0.24000008 -0.025029972 0
0.0042176903 -0.24000007 -0.02241938 0
0.0038109075 -0.24000005 -0.019653335 0
0.0037353535 -0.24000005 -0.016939426 0
0.0042336057 -0.24000004 -0.013721724 0
0.0041704918 -0.24000005 -0.010719057 0
0.0038445445 -0.24000002 -0.007323035 0
0.0045135738 -0.23861593 -0.0045923227 0
0.0050000055 -0.23832016 -0.0014633305 0
0.0049999943 -0.23848504 0.0014385505 0
0.0045161308 -0.23853152 0.0045068259 0
0.0040410529 -0.23999998 0.0074911416 0
0.0040067765 -0.23999996 0.010160943 0
0.0041706362 -0.23999995 0.013457574 0
0.0041077128 -0.23999995 0.016618066 0
0.0038854384 -0.23999991 0.01990068 0
0.0042025819 -0.23999991 0.022895511 0
0.0037478122 -0.23999991 0.025401652 0
0.0040661227 -0.23999989 0.028646642 0
0.0040831766 -0.23999986 0.031468585 0
0.0037777866 -0.23999988 0.034735523 0
0.0040113833 -0.23999988 0.037295304 0
0.0039101662 -0.23999986 0.040498167 0
0.0044074478 -0.23999983 0.043467723 0
-0.0043419236 -0.23551722 -0.0045859464 0
-0.0049999948 -0.23555434 -0.0015296044 0
-0.0050000055 -0.23529276 0.0013747802 0
-0.0046527092 -0.23539317 0.0045419084 0
-0.0017439501 -0.23556425 -0.0049991542 0
-0.0013911299 -0.2352879 0.0049647572 0
0.0016818065 -0.23551649 -0.0049991412 0
0.0014047849 -0.23549132 0.0049368097 0
0.0046395608 -0.23557772 -0.0042397953 0
0.0050000055 -0.23550752 -0.0013888564 0
0.0049999948 -0.2355924 0.0015890208 0
0.0043782168 -0.23551139 0.0044731814 0
-0.0043736151 -0.23232952 -0.0046349396 0
-0.0049999957 -0.23259217 -0.0013850075 0
-0.0050000069 -0.2326899 0.0016809549 0
-0.0045256349 -0.23280264 0.0045831976 0
-0.0013571865 -0.2326331 -0.0049991631 0
-0.0018793823 -0.23227981 0.0049696271 0
0.0013978786 -0.23286504 -0.0049991524 0
0.0017111007 -0.23234287 0.0049337358 0
0.004379977 -0.23249497 -0.0044403863 0
0.0050000055 -0.23244143 -0.0013290917 0
0.0049999943 -0.23254201 0.0016938477 0
0.0042740866 -0.23259442 0.004393721 0
-0.0045482395 -0.22933714 -0.0046202098 0
-0.0049999948 -0.22946312 -0.001301317 0
-0.0050000059 -0.22944698 0.0013975822 0
-0.0043171314 -0.22947623 0.004686988 0
-0.0013803303 -0.22949518 -0.0049991752 0
-0.0013411273 -0.22953089 0.0049642371 0
0.0013829198 -0.2296333 -0.004999164 0
0.0014785554 -0.22937776 0.0049360492 0
0.0046373117 -0.22992322 -0.004467329 0
0.005000005 -0.2293061 -0.0011955509 0
0.0049999952 -0.22950085 0.0014469081 0
0.0047364132 -0.22940336 0.0042798067 0
-0.0045075836 -0.22630501 -0.0044298447 0
-0.0049999948 -0.22619142 -0.0015629395 0
-0.0050000064 -0.22668269 0.0016243485 0
-0.0047422685 -0.22657409 0.0043716603 0
-0.0012710614 -0.2263806 -0.0049991845 0
-0.0016096672 -0.22630562 0.0049669091 0
0.0016528304 -0.22615843 -0.0049991761 0
0.0016003127 -0.22642075 0.0049348217 0
0.0047259219 -0.22661375 -0.0044936314 0
0.0050000069 -0.22663331 -0.0016192663 0
0.0049999962 -0.22669117 0.00119598 0
0.0043965573 -0.22662871 0.0045749038 0
-0.0046614055 -0.22349222 -0.0044322931 0
-0.0049999948 -0.22348894 -0.0015008252 0
-0.0050000069 -0.22319193 0.0017644955 0
-0.0043599526 -0.22355205 0.0045686238 0
-0.0016835995 -0.22346589 -0.0049991976 0
-0.0016761664 -0.22347845 0.0049675643 0
0.0015106921 -0.2234107 -0.0049991859 0
0.0016344631 -0.22353519 0.0049344706 0
0.004493936 -0.22337146 -0.0045046108 0
0.0050000045 -0.22310086 -0.0013486255 0
0.0049999943 -0.2235138 0.0016985396 0
0.0045516361 -0.22356506 0.0043830038 0
-0.0044837468 -0.22045548 -0.0044821431 0
-0.0049999952 -0.22071698 -0.001368781 0
-0.0050000055 -0.22053893 0.0014094763 0
-0.0045577739 -0.22025843 0.0043515307 0
-0.0013533885 -0.22065516 -0.0049992069 0
-0.0013651469 -0.22058727 0.0049644443 0
0.002138901 -0.22058122 -0.0049991929 0
0.0018429521 -0.22077371 0.0049323766 0
0.0044069309 -0.22067876 -0.0046232436 0
0.0050000064 -0.22055253 -0.0015516693 0
0.0049999938 -0.22031993 0.0017520156 0
0.0044651832 -0.22006817 0.0043923231 0
-0.00441691 -0.21766981 -0.004690168 0
-0.0049999948 -0.21737854 -0.0015622883 0
-0.0050000073 -0.2177268 0.0019327855 0
-0.004674694 -0.21773556 0.0042419685 0
-0.0018136781 -0.21742973 -0.0049992199 0
-0.0015971956 -0.21747196 0.0049667535 0
0.0010989528 -0.2174225 -0.0049992092 0
0.0013107585 -0.21737821 0.0049376837 0
0.0046436996 -0.2172697 -0.0043385429 0
0.0050000059 -0.21761037 -0.0016455962 0
0.0049999943 -0.21772423 0.0013848387 0
0.0046097436 -0.2173626 0.0045913705 0
-0.0046602478 -0.21468368 -0.0044177724 0
-0.0049999948 -0.21428593 -0.0015678301 0
-0.0050000059 -0.21441993 0.0015084704 0
-0.0045119817 -0.21436231 0.0044512134 0
-0.0015175336 -0.2148046 -0.0049992283 0
-0.0014158555 -0.21487668 0.0049649314 0
0.0016485532 -0.2146742 -0.0049992171 0
0.0014250923 -0.21423849 0.0049365293 0
0.0046810275 -0.21464349 -0.0044866418 0
0.0050000055 -0.21460387 -0.0014551756 0
0.0049999957 -0.21463759 0.0013911375 0
0.004451599 -0.21450685 0.0043732733 0
-0.0046794978 -0.21161059 -0.0043562734 0
-0.0049999938 -0.21154435 -0.0018184179 0
-0.0050000055 -0.21174869 0.0014422463 0
-0.0044738078 -0.21168849 0.0045163725 0
-0.0011984817 -0.21139267 -0.0049992399 0
-0.0016396258 -0.21154842 0.0049671563 0
0.0013752171 -0.21153133 -0.0049992302 0
0.0014784661 -0.21174911 0.0049359873 0
0.0045003239 -0.21173622 -0.0045475443 0
0.0050000055 -0.21139739 -0.001601812 0
0.0049999943 -0.21114247 0.0012690788 0
0.0045519499 -0.21135007 0.004335043 0
-0.0045659789 -0.20857954 -0.0044791377 0
-0.0049999957 -0.20846 -0.0014054609 0
-0.0050000059 -0.20881532 0.0015031286 0
-0.0044857194 -0.20841479 0.0045913351 0
-0.0014007469 -0.20838346 -0.0049992511 0
-0.0012607244 -0.20868132 0.0049633579 0
0.0015072448 -0.20864083 -0.0049992399 0
0.0014308242 -0.20871259 0.0049364525 0
0.004927747 -0.20844454 -0.0041565401 0
0.0050000059 -0.20834085 -0.0015963451 0
0.0049999934 -0.20874113 0.0015028776 0
0.0045724995 -0.20838462 0.0043149823 0
-0.0044478187 -0.20566234 -0.0044422173 0
-0.0049999952 -0.20518175 -0.0013934632 0
-0.0050000045 -0.20563896 0.0015375149 0
-0.0047286651 -0.20574035 0.0044096923 0
-0.0016298594 -0.20556644 -0.0049992623 0
-0.0017159773 -0.20550634 0.0049678977 0
0.0012256904 -0.20547251 -0.0049992516 0
0.0015935539 -0.20531166 0.0049348134 0
0.0045936364 -0.2054735 -0.0045589781 0
0.0050000055 -0.20548956 -0.0013065389 0
0.0049999962 -0.20513853 0.0012312699 0
0.0044713174 -0.20544074 0.0044691795 0
-0.0043503535 -0.20256183 -0.0047207037 0
-0.0049999962 -0.20246303 -0.0012739197 0
-0.0050000064 -0.20235726 0.0015910853 0
-0.0044344775 -0.20242506 0.0046396158 0
-0.0013448893 -0.2024214 -0.0049992721 0
-0.001425079 -0.20240732 0.0049649784 0
0.0016473262 -0.2023246 -0.0049992618 0
0.0015179594 -0.20258075 0.0049355589 0
0.0046414048 -0.20253927 -0.0044355337 0
0.0050000059 -0.20237534 -0.0015220534 0
0.0049999943 -0.20226571 0.0016559474 0
0.0045370362 -0.20244478 0.0044308878 0
-0.0045651519 -0.1996377 -0.0044390745 0
-0.0049999948 -0.19938096 -0.0015148568 0
-0.0050000055 -0.19952264 0.0014317975 0
-0.0045248866 -0.19929908 0.0045173098 0
-0.0017553595 -0.19973449 -0.0049992846 0
-0.0014599041 -0.19961877 0.0049653165 0
0.0015638958 -0.19907609 -0.0049992744 0
0.0016558629 -0.19972497 0.0049341703 0
0.0046054283 -0.19943729 -0.0045465189 0
0.0050000055 -0.19990298 -0.0014036559 0
0.0049999962 -0.19964272 0.0013042281 0
0.0045913262 -0.19949019 0.0042469031 0
-0.0043297387 -0.19671758 -0.0044988999 0
-0.0049999952 -0.19642885 -0.0014313343 0
-0.0050000069 -0.19639221 0.0017608608 0
-0.0046930416 -0.19638292 0.0043882905 0
-0.0016231796 -0.19656241 -0.0049992949 0
-0.0011662395 -0.19659138 0.0049623693 0
0.0014757412 -0.19680478 -0.0049992823 0
0.0017323648 -0.19656584 0.0049333931 0
0.004431176 -0.19631965 -0.004588448 0
0.0050000069 -0.19642887 -0.0015843987 0
0.0049999938 -0.19630118 0.0018229142 0
0.0043852609 -0.1962516 0.004553542 0
-0.0044490141 -0.19339369 -0.0046678646 0
-0.0049999962 -0.19337109 -0.0013166257 0
-0.0050000055 -0.1933334 0.0013461201 0
-0.0047536711 -0.19357921 0.0042185746 0
-0.0017095816 -0.19328749 -0.0049993056 0
-0.0013120002 -0.19304697 0.0049638147 0
0.001323487 -0.19337857 -0.0049992963 0
0.001108964 -0.19329742 0.0049396143 0
0.0044077556 -0.19358906 -0.0046335892 0
0.0050000064 -0.19363451 -0.001546898 0
0.0049999948 -0.19333041 0.0013357126 0
0.0046281591 -0.19347973 0.0044611888 0
-0.0045869756 -0.19051737 -0.0044081602 0
-0.0049999952 -0.19072843 -0.0015747858 0
-0.0050000069 -0.19064337 0.0016798732 0
-0.0044964538 -0.19054474 0.0044770907 0
-0.0015765859 -0.1904186 -0.0049993168 0
-0.0016014692 -0.19081208 0.0049667 0
0.0015255517 -0.19071747 -0.0049993047 0
0.001633937 -0.19037588 0.0049343556 0
0.0047479416 -0.1903943 -0.00448883 0
0.0050000041 -0.19061722 -0.0011807934 0
0.0049999952 -0.19049719 0.0012409136 0
0.0045516863 -0.19026017 0.0044238963 0
-0.0046048737 -0.18743761 -0.0044400739 0
-0.0049999948 -0.18740705 -0.0013642096 0
-0.0050000064 -0.18744265 0.0016681342 0
-0.0044656903 -0.18748634 0.0047330768 0
-0.0014859749 -0.18746477 -0.0049993279 0
-0.0012267529 -0.18745275 0.0049629412 0
0.0015264127 -0.18732074 -0.0049993158 0
0.0012638001 -0.18760392 0.0049380455 0
0.0044907508 -0.18725035 -0.0045879902 0
0.0050000055 -0.18779916 -0.0012258098 0
0.0049999943 -0.1875772 0.0017289275 0
0.0043834159 -0.18726613 0.0044907304 0
-0.0043725348 -0.18449716 -0.0045625009 0
-0.0049999962 -0.18471254 -0.0013375654 0
-0.0050000064 -0.18470454 0.0014840626 0
-0.0044327523 -0.18448591 0.004434092 0
-0.0016666441 -0.18437512 -0.0049993386 0
-0.001494056 -0.18461087 0.0049656034 0
0.0013690899 -0.18446083 -0.0049993275 0
0.0015353286 -0.18435685 0.00493532 0
0.0044865264 -0.18458833 -0.0044444334 0
0.0050000055 -0.18451649 -0.0014507712 0
0.0049999957 -0.18473901 0.0012244516 0
0.0045126067 -0.18451501 0.0044867853 0
-0.0044062245 -0.18159868 -0.0044799135 0
-0.0049999948 -0.18153189 -0.0017123962 0
-0.0050000059 -0.18167199 0.0014370742 0
-0.0045717917 -0.18135551 0.0046284823 0
-0.0014968783 -0.18167473 -0.004999348 0
-0.0014647633 -0.18135376 0.0049652988 0
0.0012370633 -0.18144612 -0.0049993382 0
0.001788046 -0.18085733 0.0049327803 0
0.0043830154 -0.18107206 -0.0046787253 0
0.0050000055 -0.18128127 -0.0012563858 0
0.0049999938 -0.18135777 0.0015384211 0
0.0044009448 -0.18163499 0.0045669894 0
-0.0045549879 -0.17845565 -0.0047004051 0
-0.0049999934 -0.17845018 -0.0015466287 0
-0.0050000059 -0.17848729 0.001613919 0
-0.0043323771 -0.17843765 0.0046437024 0
-0.0017249529 -0.17867954 -0.0049993591 0
-0.0016560223 -0.17855009 0.0049672001 0
0.0015036362 -0.17826456 -0.0049993484 0
0.0015668654 -0.17848186 0.0049349829 0
0.0044079898 -0.17861143 -0.0045689815 0
0.005000005 -0.17813323 -0.0013322345 0
0.0049999948 -0.17842922 0.0015336456 0
0.0044616754 -0.17842323 0.0045564654 0
-0.0043719555 -0.17522965 -0.0046563414 0
-0.0049999943 -0.17554033 -0.0017519412 0
-0.005000005 -0.17536466 0.0015454919 0
-0.0043691369 -0.17534339 0.0046062432 0
-0.0015355631 -0.17549521 -0.0049993708 0
-0.0012615587 -0.17560092 0.0049632462 0
0.0015563137 -0.17554609 -0.0049993591 0
0.001566337 -0.17555103 0.0049349777 0
0.0046680751 -0.17511885 -0.0044956584 0
0.0050000069 -0.17546907 -0.0016858581 0
0.0049999957 -0.17539351 0.0014081618 0
0.0043793931 -0.17541689 0.0044639842 0
-0.0043089124 -0.17250049 -0.0046409308 0
-0.0049999962 -0.17267759 -0.0012776309 0
-0.005000005 -0.17235324 0.0011540321 0
-0.0045694322 -0.17241418 0.0043486664 0
