# .PCD v0.7 - Point Cloud Data file format
VERSION 0.7
FIELDS x y z rgb
SIZE 4 4 4 4
TYPE F F F F
COUNT 1 1 1 1
WIDTH 1206
HEIGHT 1
VIEWPOINT 0 0 0 1 0 0 0
POINTS 1206
DATA ascii
0.010407365 -0.19941713 0.046000764 0
0.013945431 -0.19948097 -0.045863286 0
0.013641147 -0.19980879 -0.043354288 0
0.012317403 -0.19964023 -0.041092586 0
0.012440461 -0.19965608 0.041272298 0
0.013705743 -0.19932535 0.043382309 0
0.013660533 -0.19936995 0.045930807 0
0.015120724 -0.19896282 -0.045775279 0
0.015144948 -0.19899066 0.045942456 0
-0.0031657573 -0.196583 -0.0098191956 0
-0.0037287965 -0.19647488 -0.007458006 0
-0.0043132138 -0.19648439 -0.0044261399 0
-0.0048094052 -0.19654329 -0.0016419629 0
-0.0048651644 -0.19645697 0.001403091 0
-0.0043833032 -0.19665572 0.0040649339 0
-0.0037623059 -0.19624484 0.0075264354 0
-0.003185736 -0.19630338 0.0099791475 0
-0.0002308064 -0.1963422 -0.021957587 0
-0.00086179015 -0.19650434 -0.01932352 0
-0.0015656552 -0.19653037 -0.016419496 0
-0.002272523 -0.19652529 -0.013509993 0
-0.0028150536 -0.19666451 -0.011245233 0
-0.0028924698 -0.19671373 0.011116281 0
-0.002319464 -0.19647592 0.013572387 0
-0.00164089 -0.19666393 0.016375169 0
-0.00090554869 -0.19655009 0.019483997 0
-0.00030724521 -0.19644433 0.022016408 0
0.0027521681 -0.19645345 -0.033955924 0
0.002121028 -0.19648375 -0.03156165 0
0.0013211108 -0.19636872 -0.028341955 0
0.00070360868 -0.19669679 -0.025726689 0
0.00014791561 -0.19687219 -0.023399716 0
0.0029422708 -0.19744503 -0.015008371 0
0.0025793673 -0.19650215 -0.013314588 0
0.0019668795 -0.19636628 -0.010500984 0
0.0019329967 -0.19635184 -0.0076660179 0
0.0018785418 -0.19670987 -0.0045531266 0
0.0018310816 -0.19643058 -0.0012656022 0
0.0018488818 -0.19660538 0.0015493074 0
0.0018507731 -0.19616883 0.0045505525 0
0.0018368175 -0.19643246 0.0078681614 0
0.0020456018 -0.19634776 0.010417063 0
0.0025802501 -0.19677815 0.013057874 0
5.8873105e-05 -0.19636354 0.02356969 0
0.00055857608 -0.19671154 0.025586426 0
0.0013149447 -0.19651039 0.028803097 0
0.0018920861 -0.1965487 0.03118673 0
0.0026767566 -0.19661729 0.034220777 0
0.0059367744 -0.19634962 -0.045412086 0
0.0054075816 -0.19650424 -0.043510329 0
0.00451642 -0.19645156 -0.04030776 0
0.0037380676 -0.19654746 -0.037510596 0
0.003185438 -0.1968561 -0.03552461 0
0.0057357713 -0.19656913 -0.02515181 0
0.0049788468 -0.19634156 -0.022310169 0
0.0041777114 -0.19658762 -0.019386228 0
0.003448755 -0.19659145 -0.016618418 0
0.0030143217 -0.19632508 -0.01485859 0
0.0030740767 -0.19611913 0.014772627 0
0.0034311793 -0.19628468 0.016284084 0
0.0041715913 -0.19664092 0.019387471 0
0.0049545285 -0.19649471 0.022382846 0
0.0056613288 -0.19626576 0.025014959 0
0.0030913991 -0.19648628 0.035747573 0
0.0036020649 -0.19649555 0.037611935 0
0.0044352356 -0.19653186 0.040653713 0
0.0051813717 -0.19638446 0.043377738 0
0.0057750754 -0.19612058 0.045545265 0
0.0074527408 -0.19630297 -0.04599436 0
0.0084344121 -0.19642755 -0.034070555 0
0.0074579427 -0.19669774 -0.031398956 0
0.0066365851 -0.19642681 -0.028377635 0
0.0060987836 -0.19672348 -0.026501196 0
0.0060670376 -0.19645663 0.026583096 0
0.0066217692 -0.19639029 0.028634336 0
0.0074827988 -0.19647062 0.03183876 0
0.0083958032 -0.19647501 0.033912275 0
0.007519512 -0.19642352 0.046000738 0
0.010541102 -0.19659062 -0.045999251 0
0.011671164 -0.19644098 -0.039531182 0
0.010406847 -0.19661604 -0.037423197 0
0.0092872838 -0.19644339 -0.035514511 0
0.0094293812 -0.19611242 0.035620719 0
0.010565514 -0.19634449 0.037590556 0
0.011618363 -0.19660972 0.039423615 0
0.01048432 -0.19634165 0.046000753 0
0.013752439 -0.19655183 -0.045958292 0
0.01406199 -0.19671044 -0.043611221 0
0.012589068 -0.19633514 -0.04106693 0
0.012548054 -0.19661491 0.041010022 0
0.014038072 -0.19680159 0.043579247 0
0.013363961 -0.19656837 0.04600076 0
0.015292014 -0.19642159 -0.045734379 0
0.015253642 -0.19642137 0.04574462 0
-0.0033216795 -0.1932663 -0.0099112866 0
-0.0039017855 -0.19363081 -0.0074412045 0
-0.0045435852 -0.19346569 -0.0043981648 0
-0.0050165588 -0.19346599 -0.0017690613 0
-0.0050595175 -0.19360945 0.0015083933 0
-0.0045202337 -0.19355625 0.0046048672 0
-0.003959103 -0.19334507 0.0074009337 0
-0.0032409348 -0.19343992 0.01039306 0
-0.00035410209 -0.19373767 -0.022026382 0
-0.00096306915 -0.19365357 -0.019537488 0
-0.0016673073 -0.19340481 -0.016692745 0
-0.0024506121 -0.19345444 -0.013456382 0
-0.0028847472 -0.19342673 -0.011674912 0
-0.0029234081 -0.19299442 0.011824804 0
-0.0025269696 -0.1937034 0.013327213 0
-0.0017621459 -0.1933784 0.016607245 0
-0.00098861766 -0.19348378 0.019826761 0
-0.00034968002 -0.19356593 0.022487219 0
-4.1412724e-05 -0.19211331 0.024107108 0
0.0027278434 -0.19357972 -0.033880163 0
0.0020540189 -0.19399248 -0.031458639 0
0.0012455418 -0.19342098 -0.028525079 0
0.0004760809 -0.19348867 -0.025490457 0
6.0490616e-05 -0.19356312 -0.023772161 0
0.0027759538 -0.19377279 -0.012986958 0
0.0022632661 -0.19359423 -0.010499815 0
0.0020430409 -0.19354631 -0.0076236986 0
0.0019997356 -0.19338085 -0.0043006674 0
0.0019481119 -0.19350456 -0.0012785827 0
0.0019685179 -0.19342215 0.0013500596 0
0.0019526131 -0.19360375 0.0043968749 0
0.0019642822 -0.19343092 0.0074367155 0
0.002382681 -0.19360645 0.01063323 0
0.0028466783 -0.19384664 0.012800717 0
0.00040049874 -0.19344807 0.025654407 0
0.0011937509 -0.19334219 0.028789559 0
0.0018661184 -0.19352864 0.031274248 0
0.0026704362 -0.19344702 0.034210697 0
0.0058985041 -0.19381212 -0.045274563 0
0.0053752307 -0.19329941 -0.043394078 0
0.0045659761 -0.19382241 -0.040485855 0
0.0037208528 -0.1934756 -0.037448741 0
0.0031569107 -0.19338316 -0.035422102 0
0.0057994714 -0.19401364 -0.024623275 0
0.0052971612 -0.19368571 -0.022572996 0
0.0044638664 -0.19344351 -0.019288752 0
0.0037310482 -0.19359793 -0.016579136 0
0.003210709 -0.19290301 -0.014373137 0
0.0032231905 -0.19351049 0.014200038 0
0.00385838 -0.19320445 0.016665736 0
0.0045111929 -0.19327936 0.019336233 0
0.0053298441 -0.19338354 0.022681938 0
0.0058287992 -0.19355088 0.024763089 0
0.0030670718 -0.19352444 0.035658747 0
0.0035562436 -0.19367464 0.037444644 0
0.0043545151 -0.19364646 0.040358998 0
0.00518787 -0.19353475 0.043401454 0
0.0057817753 -0.19375962 0.045569718 0
0.007174578 -0.19316731 -0.045969296 0
0.0086109433 -0.19356258 -0.033936527 0
0.0076383599 -0.19340958 -0.031295512 0
0.0069057024 -0.19379662 -0.028706221 0
0.0061928732 -0.19334677 -0.02586771 0
0.0061998912 -0.19338636 0.026177082 0
0.006781152 -0.19360065 0.028542621 0
0.0075145867 -0.19355376 0.03130335 0
0.0085984981 -0.19366942 0.033848971 0
0.0073843617 -0.19349942 0.046000727 0
0.010700122 -0.19353688 -0.045999259 0
0.01175091 -0.19349304 -0.039233703 0
0.010780464 -0.19334292 -0.037571635 0
0.009394262 -0.19325273 -0.035215974 0
0.0093839737 -0.19344895 0.035155337 0
0.010689732 -0.19355856 0.03739636 0
0.011861188 -0.19317022 0.039336003 0
0.01047095 -0.19344695 0.046000741 0
0.013527432 -0.19349764 -0.045999248 0
0.014270115 -0.19338793 -0.043475758 0
0.012633804 -0.19344443 -0.040718682 0
0.012642198 -0.19358864 0.040727928 0
0.014239999 -0.19367586 0.043465491 0
0.013559622 -0.19355769 0.046000753 0
0.015436298 -0.19328542 -0.045730211 0
0.01507266 -0.19307378 -0.044786006 0
0.015078903 -0.19227774 0.044691652 0
0.015407864 -0.19363217 0.045652255 0
-0.0030035621 -0.18941329 -0.012074016 0
-0.0033804444 -0.19037512 -0.010309258 0
-0.0040825359 -0.19048169 -0.007394704 0
-0.0047439788 -0.19052586 -0.004453456 0
-0.0052877255 -0.19053909 -0.0014776165 0
-0.0052346801 -0.19071244 0.0017441572 0
-0.0047886409 -0.19032618 0.0043924237 0
-0.0040828539 -0.19059964 0.007503171 0
-0.0033940331 -0.19031534 0.010455347 0
-0.00037721169 -0.19059967 -0.02259302 0
-0.0011614551 -0.19052123 -0.019413928 0
-0.0018385397 -0.19054975 -0.016619619 0
-0.0026287255 -0.19060594 -0.013353474 0
-0.0029340687 -0.19139637 -0.011921228 0
-0.0029839298 -0.19113834 0.011989354 0
-0.0026012897 -0.19065201 0.013703311 0
-0.0019447705 -0.19064172 0.016458305 0
-0.0012453017 -0.19031441 0.01946483 0
-0.00053073652 -0.19064869 0.0223461 0
-4.1918443e-05 -0.19007102 0.024308288 0
0.002709555 -0.19041428 -0.033814445 0
0.0020702493 -0.19065583 -0.031516977 0
0.0012659577 -0.19063017 -0.028626595 0
0.00037025628 -0.19032475 -0.025406053 0
0.0029339085 -0.19169645 -0.012433633 0
0.0026342301 -0.19063736 -0.010153872 0
0.0022640603 -0.19042574 -0.0076113967 0
0.0021109802 -0.19061866 -0.0045580775 0
0.0020613151 -0.1906911 -0.0012237709 0
0.0020868913 -0.19037169 0.0016096671 0
0.0020708148 -0.19058442 0.0043424345 0
0.0022251587 -0.19062555 0.0075290077 0
0.0027307635 -0.19064143 0.010331142 0
0.00040850294 -0.19059344 0.025949771 0
0.0010140882 -0.19036384 0.028163603 0
0.0019174729 -0.19045892 0.031461727 0
0.0026963167 -0.19044527 0.034305174 0
0.0059168874 -0.19103776 -0.045340635 0
0.0053547667 -0.19058973 -0.04332054 0
0.0045412919 -0.19041575 -0.040397163 0
0.0038240072 -0.19048347 -0.037819464 0
0.0031601009 -0.19081324 -0.035433579 0
0.0059610186 -0.19140631 -0.024234079 0
0.0056378739 -0.19044922 -0.022626828 0
0.0048337528 -0.19057983 -0.019624924 0
0.0040497533 -0.19039649 -0.016446013 0
0.0034039458 -0.19030575 -0.01358786 0
0.0030779119 -0.18950428 -0.011502007 0
0.0030546 -0.19034132 0.011574312 0
0.0034565697 -0.19028147 0.013359914 0
0.0041599004 -0.19044396 0.016618602 0
0.0048578917 -0.19034898 0.019460136 0
0.0056135426 -0.19056219 0.022603314 0
0.0058847335 -0.19141169 0.024064733 0
0.0030627022 -0.19064958 0.035642784 0
0.003584024 -0.19047014 0.037546042 0
0.0044405567 -0.19057727 0.040673118 0
0.0052112308 -0.19043508 0.043486729 0
0.005786031 -0.19060439 0.045574058 0
0.0075407564 -0.19055811 -0.0459687 0
0.0087179421 -0.19084474 -0.033567548 0
0.007934005 -0.19057557 -0.031456623 0
0.0072027054 -0.19054088 -0.028654428 0
0.0064194929 -0.19026534 -0.025548726 0
0.0060877604 -0.18919925 -0.023866316 0
0.0060774339 -0.18917452 0.023872329 0
0.0063040354 -0.19039717 0.025315655 0
0.0070662126 -0.19055256 0.028455859 0
0.0078998646 -0.1903652 0.031551208 0
0.0086769974 -0.19095704 0.033475328 0
0.0072739059 -0.19064966 0.046000715 0
0.010473409 -0.19058158 -0.045999274 0
0.011941794 -0.19169632 -0.03929285 0
0.01100453 -0.19049673 -0.037480645 0
0.0095749795 -0.19048196 -0.034968741 0
0.009621582 -0.19032386 0.034968063 0
0.010969474 -0.19072916 0.037430491 0
0.011962619 -0.19111733 0.039209783 0
0.010391233 -0.19062385 0.046000727 0
0.013319314 -0.19052559 -0.045999262 0
0.014506068 -0.19071949 -0.043483261 0
0.012743476 -0.19074589 -0.040506031 0
0.012760416 -0.19043042 0.040467847 0
0.014360979 -0.19052537 0.043210726 0
0.013548934 -0.1905777 0.046000738 0
0.015579427 -0.19036193 -0.045748405 0
0.015289334 -0.18987218 -0.044682737 0
0.015208998 -0.18942572 0.044495523 0
0.015603931 -0.19050108 0.045741234 0
-0.003076565 -0.18706325 -0.012293574 0
-0.0035448826 -0.18732505 -0.01030727 0
-0.0042466191 -0.18744622 -0.0073909443 0
-0.0048686643 -0.18770793 -0.004723045 0
-0.0054828208 -0.18734357 -0.0017209265 0
-0.005570502 -0.1872312 0.001313084 0
-0.0049162684 -0.18743844 0.0046662581 0
-0.0043087187 -0.18767282 0.0072157746 0
-0.0035060628 -0.18758596 0.010600762 0
-0.0030658543 -0.18764722 0.012432673 0
-1.6815166e-05 -0.18853298 -0.024016701 0
-0.00043470098 -0.18752176 -0.022514945 0
-0.0013055139 -0.18765052 -0.019329678 0
-0.0020738996 -0.18753485 -0.016309157 0
-0.0026508602 -0.18760613 -0.013926315 0
-0.0027066525 -0.18747564 0.013977421 0
-0.0021687932 -0.18747085 0.016233651 0
-0.0013863534 -0.18753193 0.019354928 0
-0.00052430283 -0.18714826 0.022547169 0
-4.5488967e-05 -0.18730594 0.024295246 0
0.0027447336 -0.18764627 -0.033940881 0
0.002122629 -0.18780585 -0.031705219 0
0.0012544027 -0.1873422 -0.028585082 0
0.00044853377 -0.18748043 -0.025689036 0
0.0029100277 -0.18825777 -0.0094661154 0
0.0026789398 -0.18762346 -0.007298802 0
0.002372107 -0.18747661 -0.0043467758 0
0.0022580656 -0.18723024 -0.0013786256 0
0.0022750837 -0.18729275 0.0014781852 0
0.0023715401 -0.18756215 0.0045438465 0
0.0026954163 -0.1876962 0.0073565869 0
0.0029201277 -0.18867055 0.0097862529 0
0.00038867292 -0.1872388 0.025880303 0
0.0011132241 -0.18742515 0.028525524 0
0.001956376 -0.18767145 0.031603746 0
0.0026799487 -0.18751816 0.034245402 0
0.0059164609 -0.1872167 -0.045339119 0
0.0054584076 -0.18776377 -0.043693021 0
0.0045581916 -0.18724555 -0.040457901 0
0.0037283082 -0.18761012 -0.037475556 0
0.0032326956 -0.1876329 -0.035694469 0
0.0057129418 -0.18783489 -0.021924473 0
0.0051444462 -0.18759577 -0.019517194 0
0.0045389789 -0.18737224 -0.016687268 0
0.0038307661 -0.187353 -0.013512045 0
0.0033144464 -0.18729842 -0.01080994 0
0.0030563402 -0.18641114 -0.0083887633 0
0.0030958063 -0.18648642 0.0084391162 0
0.0032982463 -0.18763103 0.010829252 0
0.0039018549 -0.18748967 0.013570696 0
0.0045160209 -0.18753737 0.016434379 0
0.0052175187 -0.1875812 0.019624943 0
0.0057938234 -0.18765187 0.022066804 0
0.0030737005 -0.18739679 0.035682924 0
0.0035318621 -0.18749987 0.037355602 0
0.0043954859 -0.18752788 0.040508557 0
0.0051898016 -0.18762353 0.043408476 0
0.0057473513 -0.18776853 0.045444008 0
0.0074443505 -0.18739149 -0.045968007 0
0.0089521436 -0.18814148 -0.033090405 0
0.0083838943 -0.18754523 -0.031700045 0
0.0074666739 -0.1874968 -0.02848863 0
0.0066679963 -0.18750042 -0.025431603 0
0.0062034898 -0.18679194 -0.023390787 0
0.0061278646 -0.18724051 0.023236834 0
0.006676733 -0.18735932 0.025502017 0
0.007407655 -0.18757714 0.028543273 0
0.0083700111 -0.18741059 0.031609919 0
0.0089761922 -0.18854463 0.033211313 0
0.0075816112 -0.18754892 0.046000704 0
0.010232023 -0.18760669 -0.045999285 0
0.011298851 -0.18800151 -0.037267011 0
0.0097733159 -0.18750229 -0.034353673 0
0.0091445278 -0.18642271 -0.032859392 0
0.0091079604 -0.18637125 0.032700833 0
0.0098075522 -0.18737508 0.034329299 0
0.011184706 -0.18784186 0.037006609 0
0.010761635 -0.18757595 0.046000715 0
0.0134362 -0.18768218 -0.045999281 0
0.014458733 -0.18763001 -0.042819556 0
0.013035026 -0.18768002 -0.040282704 0
0.012179912 -0.18755011 -0.038701143 0
0.012225166 -0.18716022 0.038668707 0
0.013103951 -0.1874682 0.040362392 0
0.014432802 -0.18759246 0.042781331 0
0.013305929 -0.18751945 0.04600073 0
0.015722558 -0.18732888 -0.045773707 0
0.015316398 -0.18710001 -0.044160023 0
0.015312702 -0.18718114 0.044223979 0
0.015822472 -0.18734634 0.045880832 0
-0.0060764495 -0.18332636 9.2787835e-05 0
-0.0031162698 -0.18468426 -0.012652664 0
-0.0036077164 -0.18478419 -0.010610934 0
-0.0043539619 -0.18404396 -0.0077020084 0
-0.0050562578 -0.18454489 -0.0046969517 0
-0.0056953277 -0.18447225 -0.0017307138 0
-0.005726092 -0.18448184 0.0015960716 0
-0.0050988318 -0.18462564 0.0045856568 0
-0.0043964246 -0.18476143 0.0075041982 0
-0.0037482386 -0.18449667 0.010281603 0
-0.0031766393 -0.18439899 0.012685694 0
-1.0111885e-05 -0.18431908 -0.024040805 0
-0.00041273897 -0.18451695 -0.022593882 0
-0.0013103496 -0.18430269 -0.019368144 0
-0.0020805472 -0.18464848 -0.016595729 0
-0.0027508917 -0.18463123 -0.014088483 0
-0.0027869788 -0.18447645 0.014203572 0
-0.0021058167 -0.18435055 0.016773298 0
-0.0013980285 -0.18422876 0.01935732 0
-0.00056141178 -0.18448743 0.02241168 0
-6.6344495e-05 -0.18445225 0.024219096 0
0.002708181 -0.18465222 -0.033809528 0
0.0021000376 -0.18466865 -0.031624049 0
0.0012780546 -0.18441585 -0.028670089 0
0.00038612357 -0.18437548 -0.025464755 0
0.0029794932 -0.18567666 -0.0066948477 0
0.0027936832 -0.1852193 -0.0042133215 0
0.0027199092 -0.1847914 -0.0014165284 0
0.0027136391 -0.18501687 0.0015372058 0
0.0028722761 -0.18504237 0.0045193983 0
0.0028875275 -0.1857888 0.0062097833 0
0.00036219315 -0.18443058 0.025783617 0
0.0011293555 -0.18438251 0.028584415 0
0.0018979746 -0.18468851 0.031390522 0
0.0026697605 -0.18470132 0.034208197 0
0.0058910972 -0.18431716 -0.045247979 0
0.0053525474 -0.18452419 -0.043312598 0
0.0046348195 -0.18482628 -0.040733285 0
0.0037452832 -0.1845911 -0.037536561 0
0.0031328693 -0.1847835 -0.035335734 0
0.0058826371 -0.18535614 -0.021272168 0
0.0055527044 -0.18449931 -0.019283174 0
0.0049526738 -0.18442672 -0.01661313 0
0.0042827576 -0.18463597 -0.013596749 0
0.0037167692 -0.18466619 -0.010479274 0
0.0032940151 -0.1845805 -0.0075515192 0
0.0031549525 -0.18369529 -0.0046836655 0
0.0030444853 -0.18343867 -0.0024023664 0
0.0030896445 -0.18326166 0.0017792803 0
0.0031366646 -0.183679 0.0044310396 0
0.00337237 -0.18427356 0.0075677624 0
0.0038466316 -0.18417363 0.010424818 0
0.0043050786 -0.18476945 0.013598139 0
0.0049886866 -0.18452255 0.016607288 0
0.0055895415 -0.1847875 0.019572318 0
0.0058814296 -0.18523706 0.021227706 0
0.0030779392 -0.18455295 0.035698388 0
0.00362624 -0.18450129 0.037700158 0
0.0044117323 -0.18466739 0.040567864 0
0.0052684885 -0.18440361 0.043695744 0
0.0057678567 -0.18440102 0.045517225 0
0.0070806388 -0.18492194 -0.045970432 0
0.0086539192 -0.18444739 -0.031289108 0
0.0077906912 -0.18429165 -0.028490512 0
0.0069869687 -0.18451864 -0.025492171 0
0.0063623972 -0.18420275 -0.022650598 0
0.0060414169 -0.18320478 0.020608298 0
0.0063340645 -0.18446715 0.022745047 0
0.0069922325 -0.18449651 0.025528992 0
0.0077062398 -0.18462399 0.028467534 0
0.0084378403 -0.18474866 0.030889926 0
0.0076793851 -0.18437067 0.046000693 0
0.010600432 -0.18462254 -0.0459993 0
0.011611059 -0.18469781 -0.036719352 0
0.010451612 -0.18465674 -0.034618784 0
0.0092747454 -0.18431768 -0.032386769 0
0.0092375288 -0.18457046 0.032315206 0
0.010409848 -0.18457572 0.03446411 0
0.01153666 -0.18498702 0.036670115 0
0.010856137 -0.18470731 0.046000712 0
0.013666889 -0.18436761 -0.045999289 0
0.014678375 -0.18498893 -0.042344261 0
0.013757476 -0.1844182 -0.040494204 0
0.012459703 -0.1844058 -0.038148753 0
0.012406169 -0.18395369 0.03790516 0
0.013683762 -0.18464674 0.040476177 0
0.014805213 -0.18436602 0.04241854 0
0.013427109 -0.1844124 0.046000715 0
0.016154146 -0.18460457 -0.045790117 0
0.015639974 -0.18430597 -0.043864254 0
0.015587215 -0.18436724 0.043836284 0
0.01621444 -0.18420494 0.045780882 0
-0.0061253388 -0.1810648 -0.00075750519 0
-0.0061554951 -0.18092765 0.0006641401 0
-0.0032176869 -0.18141875 -0.012513756 0
-0.0038054797 -0.18143067 -0.010346587 0
-0.0045017987 -0.18132089 -0.0076857563 0
-0.0052598859 -0.18162329 -0.0045075286 0
-0.0058263377 -0.1815816 -0.0020923882 0
-0.0058004698 -0.18172611 0.0022324612 0
-0.0053025838 -0.18179986 0.0043723076 0
-0.0045441422 -0.1817386 0.0075581963 0
-0.0038067149 -0.18143335 0.01052417 0
-0.0032565147 -0.18134752 0.012572262 0
-1.0969643e-05 -0.18220697 -0.024037732 0
-0.00049875519 -0.1814099 -0.022284782 0
-0.0012949927 -0.18145719 -0.019423341 0
-0.0021125646 -0.18160182 -0.016485229 0
-0.0027136635 -0.18141818 -0.014325065 0
-0.0027660108 -0.18168069 0.01436302 0
-0.0021580823 -0.1813072 0.01658247 0
-0.0013628637 -0.1815078 0.019485692 0
-0.00056535908 -0.18121229 0.022397254 0
-6.9957539e-05 -0.18230751 0.024205895 0
0.002703225 -0.18146355 -0.033791728 0
0.0020381699 -0.18149136 -0.031401727 0
0.0013064842 -0.1812267 -0.028772268 0
0.00041821532 -0.1813878 -0.025580099 0
0.00031201506 -0.18141882 0.02560042 0
0.0011074601 -0.18126923 0.028504463 0
0.0019826125 -0.18172565 0.031699508 0
0.0026532239 -0.18156834 0.03414781 0
0.005905346 -0.18160202 -0.045299198 0
0.0054852967 -0.18135528 -0.043789662 0
0.0045064152 -0.18162143 -0.04027186 0
0.003735991 -0.18151814 -0.037503187 0
0.0031862007 -0.18145107 -0.035527404 0
0.0058172345 -0.18187125 -0.018761236 0
0.0052671903 -0.18152985 -0.016062699 0
0.0047949231 -0.18156491 -0.01352553 0
0.0042831367 -0.18162382 -0.010659923 0
0.0038836072 -0.18161729 -0.0075588315 0
0.0036013322 -0.1814878 -0.004544402 0
0.0034054769 -0.18159258 -0.0016011746 0
0.0034854813 -0.18134323 0.0015083211 0
0.0035931231 -0.18142708 0.0043508634 0
0.0039487756 -0.18140638 0.0076992218 0
0.0043840283 -0.18136485 0.010572145 0
0.0047807028 -0.18161547 0.013285507 0
0.0054219342 -0.18153013 0.016608613 0
0.0058026128 -0.1819402 0.018653149 0
0.0030823536 -0.18174429 0.0357145 0
0.0035654057 -0.18129021 0.037478045 0
0.0044284514 -0.18144122 0.040628888 0
0.0051987106 -0.18162674 0.04344099 0
0.0057573672 -0.1814597 0.045480557 0
0.0075249048 -0.18148662 -0.045971781 0
0.0087646889 -0.18179652 -0.030678516 0
0.0080593033 -0.18163389 -0.028459268 0
0.0073411614 -0.18164808 -0.025315141 0
0.0066900901 -0.18146491 -0.022316443 0
0.0062556588 -0.18114328 -0.020212486 0
0.0061960858 -0.18137404 0.020099238 0
0.0066972929 -0.18146649 0.022486415 0
0.007412788 -0.18140317 0.025729379 0
0.0080538597 -0.18162847 0.028513975 0
0.0087747145 -0.18140109 0.030371828 0
0.0073347632 -0.18158613 0.046000686 0
0.010532993 -0.18124323 -0.045999311 0
0.011896801 -0.18175982 -0.036250249 0
0.011010299 -0.18156542 -0.034589019 0
0.0095028896 -0.1813111 -0.031787593 0
0.0096902428 -0.18110047 0.031944007 0
0.01089257 -0.18143584 0.034262054 0
0.011773772 -0.18220733 0.036142826 0
0.010553323 -0.18175989 0.046000697 0
0.01356532 -0.18147875 -0.0459993 0
0.014098792 -0.18168747 -0.040220462 0
0.012613229 -0.18143736 -0.037445284 0
0.012772405 -0.18137209 0.03768288 0
0.014164666 -0.18159771 0.040310811 0
0.014923745 -0.1828407 0.042127658 0
0.01361766 -0.18148108 0.046000708 0
0.01635813 -0.18150747 -0.045847394 0
0.015927823 -0.18136756 -0.04343459 0
0.015111399 -0.18075895 -0.041756514 0
0.015120117 -0.18069483 0.04174839 0
0.015835518 -0.18136683 0.043285862 0
0.016348047 -0.18151617 0.045820996 0
-0.0062594651 -0.17856041 -0.0009794865 0
-0.0062886821 -0.17827079 0.00096304686 0
-0.0031554562 -0.17849405 -0.012737402 0
-0.0037537452 -0.17844868 -0.010587332 0
-0.0045389212 -0.17845374 -0.0077656447 0
-0.0053634699 -0.17839099 -0.0047205617 0
-0.005908086 -0.17837773 -0.002556849 0
-0.0058973855 -0.17879461 0.0025556972 0
-0.005457744 -0.17869547 0.0043694028 0
-0.0046609291 -0.17846665 0.0074446904 0
-0.003799407 -0.17858732 0.010590238 0
-0.0031690265 -0.17852989 0.012891662 0
-6.4908545e-06 -0.17897481 -0.024053838 0
-0.00039950822 -0.17849325 -0.022641452 0
-0.0012281353 -0.17865434 -0.019663615 0
-0.0021106496 -0.17865717 -0.016492125 0
-0.0027884757 -0.17827356 -0.014056222 0
-0.0028098479 -0.17825556 0.014202965 0
-0.0021533202 -0.17843974 0.016599851 0
-0.0013571768 -0.17862853 0.019506447 0
-0.00056617579 -0.17831258 0.022394264 0
-6.8962865e-05 -0.17871584 0.024209516 0
0.0027332683 -0.17876765 -0.033899706 0
0.0020406637 -0.17878233 -0.031410698 0
0.001237896 -0.17851232 -0.028525792 0
0.00039665116 -0.1786309 -0.025502611 0
0.00038077211 -0.17851466 0.025851425 0
0.0010369818 -0.17866322 0.028247146 0
0.0018995957 -0.1784796 0.031396419 0
0.0027057284 -0.17845745 0.034339484 0
0.0059137843 -0.17855625 -0.045329534 0
0.0053753811 -0.1783639 -0.043394677 0
0.0045588403 -0.17856167 -0.040460274 0
0.0036858439 -0.17839701 -0.037322979 0
0.003199128 -0.17817768 -0.035573874 0
0.0059821014 -0.17983013 -0.01817853 0
0.0057473099 -0.17908475 -0.016348409 0
0.0053932192 -0.17865339 -0.013534144 0
0.0050074183 -0.1785287 -0.010560413 0
0.004736321 -0.1784272 -0.0074715996 0
0.0046010101 -0.17856418 -0.0045080427 0
0.0044191731 -0.17851861 -0.0015180201 0
0.0044587729 -0.17862889 0.0013754256 0
0.0045748251 -0.17861554 0.0047361185 0
0.0046966034 -0.1786902 0.0075421464 0
0.0050141164 -0.17860453 0.010738214 0
0.0054012933 -0.17864442 0.013580769 0
0.0057012667 -0.17890771 0.016352514 0
0.0057850825 -0.17879994 0.019554945 0
0.0059030298 -0.17879994 0.022319572 0
0.0030922878 -0.1788111 0.035750754 0
0.0035767276 -0.17856738 0.037519358 0
0.0043890001 -0.17837563 0.040484846 0
0.0052640233 -0.17860986 0.043679427 0
0.0057844743 -0.17860384 0.045574192 0
0.0073965718 -0.1785578 -0.045965862 0
0.0089738891 -0.17921998 -0.030195681 0
0.0084715132 -0.17916566 -0.028309079 0
0.0079039307 -0.17924021 -0.025622319 0
0.0074701952 -0.17910157 -0.022410415 0
0.0073412047 -0.17882954 -0.019201556 0
0.0073704547 -0.17848721 -0.01680758 0
0.0074478355 -0.17880012 -0.013582078 0
0.0072829006 -0.17880011 -0.010383774 0
0.0073869508 -0.17880011 -0.0072839265 0
0.0076622022 -0.17880009 -0.00447251 0
0.0074662622 -0.17880008 -0.0015534968 0
0.0074778455 -0.17880008 0.0014733245 0
0.0076523628 -0.17880005 0.0046081292 0
0.0073476215 -0.17880005 0.0074804085 0
0.0076044262 -0.17880003 0.010405581 0
0.0076234536 -0.17880003 0.013480611 0
0.0072988267 -0.17859718 0.016479287 0
0.0073602377 -0.17884842 0.019545708 0
0.0072677489 -0.17890278 0.022635315 0
0.0074463529 -0.17898667 0.02548443 0
0.0076092342 -0.17892094 0.028597729 0
0.0078548603 -0.17881869 0.031356882 0
0.0079970211 -0.17879987 0.0345653 0
0.0080438508 -0.17879993 0.037563577 0
0.0082054269 -0.17879988 0.040665288 0
0.0084745185 -0.17879991 0.043542791 0
0.0079410551 -0.17848055 0.04588389 0
0.010679227 -0.17850241 -0.045999318 0
0.01134574 -0.17931399 -0.034095462 0
0.010265827 -0.17906855 -0.031432915 0
0.010301805 -0.17880018 -0.028629322 0
0.010546618 -0.17880012 -0.025460482 0
0.010375419 -0.17880014 -0.022278763 0
0.010496264 -0.17880015 -0.01946811 0
0.010373039 -0.17880014 -0.016383663 0
0.010481021 -0.17880011 -0.013503688 0
0.010547497 -0.17880009 -0.010481981 0
0.010397496 -0.17880009 -0.0073985914 0
0.010766755 -0.17870553 -0.0042947037 0
0.011170208 -0.17835154 -0.0015622436 0
0.011056936 -0.17848952 0.001521844 0
0.010183029 -0.17880005 0.0042992281 0
0.010357239 -0.17880005 0.0073410054 0
0.010560028 -0.17880003 0.010735413 0
0.010573754 -0.17880003 0.013522957 0
0.010579207 -0.1788 0.01649653 0
0.010453944 -0.1788 0.019637892 0
0.010595711 -0.1788 0.022545502 0
0.01046 -0.17879997 0.02558849 0
0.010583051 -0.17879997 0.02852568 0
0.0099346852 -0.17898631 0.031566128 0
0.010541079 -0.17889479 0.034593269 0
0.010408714 -0.17879978 0.037405059 0
0.010405336 -0.17879979 0.040598627 0
0.010607442 -0.1787997 0.043439806 0
0.01056689 -0.17865035 0.045828328 0
0.013609159 -0.17855093 -0.045999307 0
0.014504913 -0.17909874 -0.039669719 0
0.013555704 -0.17904609 -0.037354313 0
0.013480158 -0.17880018 -0.034626171 0
0.013469132 -0.17880014 -0.031371903 0
0.013519026 -0.17880018 -0.028581869 0
0.013807486 -0.1786931 -0.025478091 0
0.013765189 -0.17853077 -0.022546148 0
0.013583408 -0.17841102 -0.019506583 0
0.013443739 -0.17822143 -0.016556505 0
0.012955947 -0.17842332 -0.013433378 0
0.012809996 -0.17827858 -0.010472152 0
0.01249297 -0.17820226 -0.0077279471 0
0.012141185 -0.17817645 -0.0045388821 0
0.012011332 -0.1778461 0.0028519742 0
0.012191773 -0.17795862 0.0043335622 0
0.012528582 -0.17811921 0.0072638812 0
0.012869399 -0.17801933 0.010507466 0
0.01322521 -0.17843886 0.013536006 0
0.013457485 -0.17829531 0.016415074 0
0.013642825 -0.17835672 0.019451398 0
0.013680287 -0.17860262 0.022380896 0
0.013794138 -0.17867605 0.025488935 0
0.013421944 -0.17879997 0.028676026 0
0.013678259 -0.17879996 0.031694118 0
0.013566276 -0.17880802 0.034473695 0
0.013355576 -0.1789286 0.037708387 0
0.013609728 -0.17888142 0.040391285 0
0.013618232 -0.17879973 0.043342911 0
0.013480728 -0.17855485 0.045748021 0
0.016732369 -0.17864338 -0.04583941 0
0.017027771 -0.17860676 -0.043546237 0
0.01645308 -0.17850715 -0.040574498 0
0.016190808 -0.17840846 -0.037541211 0
0.016110605 -0.17817999 -0.034594681 0
0.015715916 -0.17825824 -0.031537049 0
0.015392372 -0.1780944 -0.028392982 0
0.015070427 -0.17805067 -0.026018012 0
0.015107929 -0.17812213 0.025994083 0
0.01543685 -0.17807701 0.028711788 0
0.015773963 -0.17811711 0.031628355 0
0.016070528 -0.1783123 0.034611523 0
0.016413735 -0.17831811 0.037419815 0
0.016409729 -0.1784303 0.040687762 0
0.016461784 -0.17875291 0.043328818 0
0.016613787 -0.17859173 0.045804899 0
0.018038334 -0.17750065 -0.045938361 0
0.018076023 -0.17718837 0.045753028 0
-0.006276493 -0.17586082 -0.001413819 0
-0.0063339067 -0.1761678 0.0011603748 0
-0.003125181 -0.17592898 -0.012736133 0
-0.0037203268 -0.17599314 -0.010427223 0
-0.0041003907 -0.17555197 -0.0075423308 0
-0.0045073251 -0.17534456 -0.0043342011 0
-0.004421649 -0.17508531 -0.0014029179 0
-0.0043012602 -0.17515108 0.001518968 0
-0.0045347339 -0.17529742 0.0042595142 0
-0.0043503908 -0.17574444 0.0073495922 0
-0.003773958 -0.17600276 0.010388956 0
-0.0032178897 -0.17607817 0.012575228 0
-7.3982073e-06 -0.17561582 -0.024050588 0
-0.00045460681 -0.17603928 -0.022307482 0
-0.00092682883 -0.17574476 -0.019514099 0
-0.0017508919 -0.17575441 -0.016464977 0
-0.0018987487 -0.17547898 -0.013712528 0
-0.0014180301 -0.17520003 -0.010620406 0
-0.0014508308 -0.17520002 -0.0075407876 0
-0.0014948141 -0.17508306 -0.0043251053 0
-0.0014228872 -0.17520013 -0.0014872191 0
-0.001486667 -0.17520012 0.0014755825 0
-0.001493806 -0.17503059 0.0044155964 0
-0.0012270431 -0.17519996 0.0073287403 0
-0.0013992954 -0.17519997 0.010519485 0
-0.0016720894 -0.17543854 0.013805405 0
-0.0016065949 -0.17554168 0.016500048 0
-0.0010692644 -0.17573918 0.019705303 0
-0.00055023981 -0.17608882 0.022300255 0
-5.2500283e-05 -0.17588583 0.024269607 0
0.0028309172 -0.17617188 -0.034085188 0
0.0021692938 -0.17581512 -0.031420205 0
0.0015809912 -0.17582411 -0.028453672 0
0.0011056088 -0.17559755 -0.02574978 0
0.0017073911 -0.17520007 -0.022718936 0
0.0016055726 -0.17520006 -0.019702878 0
0.0017583759 -0.17520006 -0.016395247 0
0.0013822778 -0.17520003 -0.013471738 0
0.0013067772 -0.17520006 -0.010446005 0
0.0013291186 -0.17520002 -0.0075174235 0
0.0014030393 -0.1750655 -0.0044690645 0
0.001572951 -0.17520018 -0.0016556989 0
0.0016328664 -0.17520012 0.0014579801 0
0.0013913728 -0.17506926 0.0043947063 0
0.0015996201 -0.17519997 0.0073807328 0
0.0014043623 -0.17519994 0.010701329 0
0.0014038718 -0.17519996 0.013580776 0
0.0013225285 -0.17519994 0.016449174 0
0.0014280117 -0.17519991 0.019697053 0
0.0014924664 -0.17519991 0.022363128 0
0.0010479618 -0.17550199 0.025630033 0
0.0014854533 -0.17572315 0.02834267 0
0.0020540173 -0.17576717 0.031414349 0
0.0027093138 -0.17573388 0.034246035 0
0.0059152143 -0.1761959 -0.045334678 0
0.0055094617 -0.1759384 -0.043655045 0
0.0048899064 -0.17564151 -0.040560085 0
0.0045737731 -0.17550075 -0.037513301 0
0.0043080831 -0.1753833 -0.034725983 0
0.0043710838 -0.1752001 -0.031472113 0
0.0043822378 -0.17520009 -0.028404139 0
0.004552281 -0.17520009 -0.025607178 0
0.0045371656 -0.17520007 -0.022680078 0
0.0042782011 -0.17520007 -0.019541617 0
0.0046117855 -0.1752955 -0.01642694 0
0.0049699894 -0.1755702 -0.013495356 0
0.0046784664 -0.17550078 -0.010529104 0
0.0047880942 -0.1755278 -0.0074878759 0
0.0044388212 -0.17542616 -0.0044180588 0
0.0045282529 -0.17529069 -0.0014690157 0
0.004265307 -0.17528088 0.0015458826 0
0.004322899 -0.17528924 0.0042648921 0
0.0046653068 -0.17569396 0.0073889326 0
0.0048382035 -0.17552416 0.010544734 0
0.004843838 -0.17549469 0.013385006 0
0.0046674567 -0.175281 0.016411934 0
0.0043069194 -0.17519994 0.019901028 0
0.0044284584 -0.17519993 0.022484051 0
0.004403865 -0.17519991 0.02569893 0
0.0045247599 -0.17519991 0.028570179 0
0.0044832076 -0.17519987 0.031358812 0
0.0041201357 -0.17538193 0.034848981 0
0.0038505273 -0.1758559 0.037626676 0
0.0048352093 -0.17571326 0.040685043 0
0.0051951711 -0.17599434 0.04335675 0
0.0058384072 -0.17600121 0.045650121 0
0.0077616475 -0.17582321 -0.045862269 0
0.0073593492 -0.17520016 -0.043687128 0
0.0075589437 -0.17520015 -0.040380698 0
0.007715492 -0.17520015 -0.037619736 0
0.0072534182 -0.17520012 -0.034525819 0
0.007489291 -0.17520013 -0.031502806 0
0.0074049756 -0.17520009 -0.028561695 0
0.0075554298 -0.17520007 -0.025651071 0
0.0074337805 -0.17520007 -0.022802982 0
0.0073120371 -0.17536294 -0.019332096 0
0.0068019251 -0.17562285 -0.016551955 0
0.0075417534 -0.17522784 -0.013627889 0
0.0072915051 -0.17520003 -0.01017188 0
0.0073754583 -0.17520003 -0.0075975563 0
0.0074501974 -0.1752 -0.0045214007 0
0.0073296442 -0.1752 -0.0014007267 0
0.007446798 -0.1752 0.0013768035 0
0.0074992897 -0.17519999 0.0046665831 0
0.0076453597 -0.17519996 0.0076011303 0
0.0075150062 -0.17519994 0.010387206 0
0.0071094767 -0.17524095 0.013565068 0
0.0071579944 -0.17545281 0.016511776 0
0.0073734247 -0.17528492 0.019271778 0
0.0076383068 -0.17519991 0.022368593 0
0.007582813 -0.1751999 0.025669821 0
0.007590075 -0.17519988 0.028356927 0
0.0075654541 -0.17519987 0.031155467 0
0.00754521 -0.17519988 0.034601226 0
0.0072516999 -0.17519987 0.037517674 0
0.0074860896 -0.17519985 0.040463179 0
0.0076783542 -0.17519984 0.043442409 0
0.0073814881 -0.17588773 0.045858197 0
0.010640834 -0.17567055 -0.045737877 0
0.010562728 -0.17520018 -0.043546673 0
0.010736853 -0.17520013 -0.040470958 0
0.010333385 -0.17520012 -0.037491579 0
0.010484587 -0.17520012 -0.034315027 0
0.010488905 -0.1752001 -0.031577129 0
0.010517782 -0.1752001 -0.028306933 0
0.010292112 -0.1752001 -0.025575688 0
0.01051294 -0.17520006 -0.022590259 0
0.010459956 -0.17520007 -0.019519258 0
0.010167556 -0.17520006 -0.016480202 0
0.010559875 -0.17520003 -0.013472305 0
0.010723476 -0.17520005 -0.010361707 0
0.010358982 -0.17520003 -0.0075328746 0
0.010340174 -0.17520003 -0.0045161289 0
0.01093215 -0.1755866 -0.0015590645 0
0.011047466 -0.175585 0.0015411748 0
0.010565724 -0.17519999 0.0045555369 0
0.010181068 -0.17520002 0.0072833565 0
0.010587609 -0.17519996 0.010663526 0
0.01040085 -0.17519994 0.013747128 0
0.010567583 -0.17519993 0.016528405 0
0.010616409 -0.17519991 0.019727845 0
0.010543962 -0.1751999 0.022659555 0
0.010536896 -0.1751999 0.025600048 0
0.010404887 -0.17519988 0.02842599 0
0.010500708 -0.17519988 0.031689622 0
0.010766232 -0.17519987 0.034555458 0
0.010537744 -0.17519988 0.037362445 0
0.010697634 -0.17519984 0.040528398 0
0.010663119 -0.17519982 0.043591369 0
0.01051257 -0.17575406 0.045802243 0
0.013747573 -0.17586055 -0.045797464 0
0.013314129 -0.17520016 -0.043410145 0
0.01354752 -0.17520015 -0.040607769 0
0.013432981 -0.17520013 -0.037473012 0
0.01363533 -0.17520012 -0.034744192 0
0.013487424 -0.1752001 -0.031647261 0
0.013645402 -0.1752001 -0.028619682 0
0.013373434 -0.17524177 -0.025514495 0
0.014078331 -0.17555523 -0.022502847 0
0.013943802 -0.17571223 -0.019474056 0
0.013468347 -0.1756482 -0.016448596 0
0.013208874 -0.17570856 -0.01352391 0
0.012879034 -0.17568764 -0.010419304 0
0.012573075 -0.17592263 -0.007656958 0
0.012209474 -0.17603083 -0.0047392542 0
0.01200291 -0.17606013 0.0029379115 0
0.012213614 -0.17607459 0.004489108 0
0.012524323 -0.17572661 0.0076724598 0
0.012809394 -0.17568442 0.010539492 0
0.013178336 -0.17577578 0.013461873 0
0.013646205 -0.17576724 0.016425561 0
0.013524794 -0.17547269 0.019489722 0
0.013888117 -0.17547426 0.022737576 0
0.013628543 -0.17527546 0.025496213 0
0.013561011 -0.1751999 0.028289506 0
0.013628935 -0.1751999 0.031274311 0
0.013209734 -0.17519988 0.034410164 0
0.013533425 -0.17519987 0.037585866 0
0.013730545 -0.17519984 0.040218286 0
0.013603419 -0.17519985 0.043463659 0
0.013353716 -0.17571118 0.045770146 0
0.016670827 -0.17575319 -0.045787975 0
0.016845746 -0.17556188 -0.043026999 0
0.016947182 -0.17566212 -0.040586103 0
0.016503826 -0.17563781 -0.037501022 0
0.016267976 -0.17570916 -0.034514211 0
0.015945895 -0.17565364 -0.031636167 0
0.015688956 -0.17589921 -0.028688578 0
0.015302557 -0.17590509 -0.025709122 0
0.015045478 -0.17552221 -0.023482382 0
0.015069307 -0.17526451 0.023399491 0
0.015271078 -0.1759477 0.025515838 0
0.015601074 -0.17568514 0.028535543 0
0.016027911 -0.17583847 0.031553354 0
0.016317064 -0.17561921 0.034503993 0
0.016619133 -0.17555372 0.037337393 0
0.016729504 -0.17542538 0.040539231 0
0.016790526 -0.1753801 0.043306671 0
0.016554344 -0.17577516 0.045838363 0
0.01821626 -0.17588837 -0.045674551 0
0.01811075 -0.17563325 -0.044084124 0
0.018151343 -0.17558645 0.044326935 0
0.018246192 -0.17601979 0.045699418 0
-0.0042475234 -0.1724087 -0.0042025167 0
-0.0046999934 -0.17259628 -0.0016186419 0
-0.0047000069 -0.1724833 0.0016858415 0
-0.0041844449 -0.17265487 0.004381008 0
-0.0014068772 -0.17240392 -0.004699382 0
-0.0012569299 -0.17243691 0.0047006202 0
0.0016473997 -0.17254739 -0.0046993699 0
0.0013753828 -0.17259656 0.0047006304 0
0.0042025102 -0.17252406 -0.0043479959 0
0.0047000069 -0.17248294 -0.0014793959 0
0.0046999957 -0.17245148 0.0013404147 0
0.0043562171 -0.17259869 0.0043341308 0
-0.0043142866 -0.16933583 -0.004173792 0
-0.0046999957 -0.16949496 -0.0014796545 0
-0.0047000055 -0.16936785 0.0014595025 0
-0.0042593195 -0.16960074 0.0041483166 0
-0.0012349258 -0.16952172 -0.0046993913 0
-0.0013344025 -0.16942939 0.0047006095 0
0.001496472 -0.16937302 -0.0046993829 0
0.0014770101 -0.16953467 0.0047006197 0
0.0043957662 -0.16968451 -0.0042280746 0
0.0047000069 -0.16947231 -0.0018451909 0
0.0046999962 -0.16947131 0.0015530679 0
0.0044146203 -0.16949266 0.0041071661 0
-0.0041987845 -0.16643149 -0.0043690302 0
-0.0046999953 -0.16651759 -0.0015883088 0
-0.0047000046 -0.16668776 0.0014443757 0
-0.0043745814 -0.16657668 0.0041666282 0
-0.0015315196 -0.16657926 -0.0046994034 0
-0.0014379871 -0.16655073 0.0047006002 0
0.001612835 -0.16653056 -0.0046993927 0
0.0016144494 -0.16645466 0.004700609 0
0.0044064363 -0.16628869 -0.0041620303 0
0.004700006 -0.16651911 -0.0015497825 0
0.0046999948 -0.16637668 0.0015496211 0
0.0042245695 -0.16644163 0.0042207283 0
-0.0042781639 -0.16351381 -0.0042500589 0
-0.0046999939 -0.16365613 -0.0017796428 0
-0.0047000065 -0.16344818 0.0015997723 0
-0.004245331 -0.16353722 0.0042807842 0
-0.0013439785 -0.16347148 -0.0046994141 0
-0.001573005 -0.16331798 0.0047005867 0
0.0014904197 -0.16312023 -0.0046994053 0
0.001348479 -0.16350697 0.0047005974 0
0.0044487235 -0.16362013 -0.0041739796 0
0.0047000083 -0.16340195 -0.0018260593 0
0.0046999929 -0.16346416 0.0017869249 0
0.0042896429 -0.16320413 0.004179962 0
-0.0043522925 -0.16051711 -0.0041556875 0
-0.0046999939 -0.16053742 -0.0015199601 0
-0.004700006 -0.1606898 0.0014130629 0
-0.004256906 -0.16045432 0.00420408 0
-0.0014550793 -0.16053317 -0.0046994253 0
-0.0015838521 -0.16043158 0.0047005755 0
0.00131577 -0.16039838 -0.0046994141 0
0.0014377316 -0.16038226 0.0047005857 0
0.0043307943 -0.16069445 -0.0042446982 0
0.0047000074 -0.16029416 -0.0017847688 0
0.0046999953 -0.16047449 0.0015328724 0
0.0042437436 -0.16063595 0.0042628101 0
-0.004271287 -0.15740728 -0.00422221 0
-0.0046999957 -0.1575014 -0.0014367227 0
-0.0047000074 -0.1574637 0.0015912352 0
-0.0042587714 -0.15755947 0.0042226855 0
-0.0015358226 -0.15743677 -0.0046994351 0
-0.0015836488 -0.15746418 0.0047005657 0
0.0015526472 -0.15769893 -0.0046994248 0
0.0016430012 -0.15740445 0.0047005755 0
0.0041166022 -0.15768832 -0.0043939454 0
0.0047000055 -0.15742368 -0.0017224851 0
0.0046999957 -0.15742238 0.0012336475 0
0.0042383536 -0.15755059 0.0043352069 0
-0.0045135012 -0.15456055 -0.0042379512 0
-0.0046999939 -0.15439194 -0.0016794198 0
-0.0047000055 -0.15434271 0.0016325841 0
-0.0041780793 -0.15447597 0.0044061099 0
-0.0017047053 -0.15442567 -0.0046994481 0
-0.0011540606 -0.15463723 0.0047005559 0
0.0016425278 -0.15445969 -0.0046994342 0
0.0015438227 -0.15444848 0.0047005657 0
0.0042232177 -0.15440799 -0.0042898371 0
0.004700006 -0.15439199 -0.0015501851 0
0.0046999948 -0.15440612 0.0014932778 0
0.0043077664 -0.15456308 0.0043077748 0
-0.004313251 -0.15140943 -0.0042262264 0
-0.0046999948 -0.15130821 -0.0016469674 0
-0.0047000065 -0.15141663 0.0015235002 0
-0.0042937105 -0.15153444 0.0041598123 0
-0.0014594015 -0.15150669 -0.004699457 0
-0.0015575062 -0.1514919 0.0047005438 0
0.0013816896 -0.15153009 -0.0046994458 0
0.0015598568 -0.151503 0.0047005555 0
0.0042029237 -0.15136707 -0.0042101424 0
0.004700006 -0.151489 -0.001528344 0
0.0046999967 -0.1511889 0.0013410288 0
0.0042607747 -0.15140812 0.0042486112 0
-0.0042452761 -0.14854887 -0.0043900921 0
-0.0046999971 -0.14834279 -0.0010829683 0
-0.004700006 -0.14840427 0.001479446 0
-0.0043932628 -0.14861791 0.0041735829 0
-0.0015608303 -0.14846168 -0.0046994691 0
-0.0016526249 -0.14831169 0.0047005303 0
0.0015729403 -0.1487644 -0.004699457 0
0.0018420336 -0.14840186 0.0047005443 0
0.0040890444 -0.14839607 -0.0044325218 0
0.0047000046 -0.1488087 -0.0012109532 0
0.0046999948 -0.14843175 0.0016398866 0
0.0044538751 -0.14884727 0.004004241 0
-0.0043221428 -0.14543685 -0.004232246 0
-0.0046999943 -0.14546326 -0.0017561171 0
-0.0047000074 -0.14519462 0.0016531058 0
-0.0042970893 -0.14541246 0.0043300358 0
-0.001443625 -0.14546658 -0.0046994798 0
-0.0012791979 -0.14576207 0.0047005224 0
0.0017179574 -0.14556144 -0.0046994677 0
0.0012882309 -0.14550576 0.0047005326 0
0.0043197377 -0.1455103 -0.0042997971 0
0.0047000055 -0.14552847 -0.0013886529 0
0.0046999943 -0.14526238 0.0014206726 0
0.0042219334 -0.14568909 0.0043726405 0
-0.0042169718 -0.14251681 -0.0042870096 0
-0.0046999953 -0.14241639 -0.0014427339 0
-0.004700006 -0.14262596 0.0015515136 0
-0.0040871236 -0.14252341 0.0044045527 0
-0.0018214766 -0.14260787 -0.004699491 0
-0.0013731263 -0.14251563 0.0047005117 0
0.0014518877 -0.14252844 -0.0046994803 0
0.0016553974 -0.14257507 0.0047005229 0
0.004315014 -0.14257391 -0.0042502484 0
0.0047000078 -0.14245135 -0.0015463664 0
0.0046999962 -0.14235982 0.0013917738 0
0.0042084674 -0.14269236 0.0042648925 0
-0.0043135872 -0.13964754 -0.0042354055 0
-0.0046999943 -0.13955024 -0.0016580774 0
-0.0047000055 -0.13971788 0.0014302663 0
-0.0042990679 -0.13952655 0.0044380734 0
-0.0014395533 -0.13979957 -0.0046995007 0
-0.001460308 -0.13948944 0.0047005005 0
0.0015719789 -0.13936304 -0.0046994914 0
0.0013881177 -0.13935299 0.0047005108 0
0.0042519202 -0.13962552 -0.0041483096 0
0.0047000069 -0.13947254 -0.00148717 0
0.0046999953 -0.13962816 0.0016302679 0
0.0042455173 -0.13952407 0.0043018786 0
-0.0043750666 -0.13661827 -0.0041497317 0
-0.0046999962 -0.13641746 -0.0013834835 0
-0.0047000051 -0.13649257 0.0013437208 0
-0.004162949 -0.13642801 0.0042667794 0
-0.0014853701 -0.13659903 -0.004699511 0
-0.0016724379 -0.1362001 0.0047004884 0
0.0017880608 -0.1364661 -0.0046994989 0
0.0014959087 -0.13671646 0.0047005019 0
0.0044088284 -0.13654235 -0.0042708041 0
0.0047000051 -0.13621841 -0.0013207622 0
0.0046999943 -0.13672656 0.0017462263 0
0.0042347438 -0.13645123 0.0043705082 0
-0.0042261067 -0.13343352 -0.0044754078 0
-0.0046999971 -0.133673 -0.001191893 0
-0.0047000074 -0.13350821 0.0017625151 0
-0.0043752696 -0.13346009 0.0042819581 0
-0.0014886758 -0.13318981 -0.0046995245 0
-0.0012309034 -0.13334772 0.0047004786 0
0.0013208496 -0.13359191 -0.0046995115 0
0.0016994866 -0.13351002 0.0047004898 0
0.0043807146 -0.1335433 -0.0041481522 0
0.0047000069 -0.1335116 -0.0016074278 0
0.0046999967 -0.13323224 0.0013327128 0
0.0043069045 -0.1335403 0.0042906855 0
-0.0042865467 -0.13066205 -0.0042454274 0
-0.0046999962 -0.13060947 -0.0014751209 0
-0.0047000065 -0.13051547 0.0017241897 0
-0.0043511079 -0.13023381 0.0041780327 0
-0.0011667608 -0.13041693 -0.0046995329 0
-0.0016440478 -0.13035676 0.0047004656 0
0.0013830465 -0.13068175 -0.0046995226 0
0.0016083862 -0.13054009 0.004700481 0
0.0042840987 -0.1304957 -0.0042725434 0
0.0047000078 -0.13041981 -0.0017639833 0
0.0046999948 -0.13055602 0.0016507054 0
0.0043316879 -0.13045359 0.0043157446 0
-0.0043145525 -0.12720138 -0.0041203573 0
-0.0046999934 -0.12768355 -0.0015550107 0
-0.0047000069 -0.12754209 0.0016420084 0
-0.0041932403 -0.1276506 0.0042003123 0
-0.0016622389 -0.12753214 -0.004699544 0
-0.0013873765 -0.127628 0.0047004591 0
0.0016112116 -0.12753296 -0.0046995343 0
0.0015748024 -0.12713297 0.0047004665 0
0.004120328 -0.12770832 -0.0044352282 0
0.0047000055 -0.12785721 -0.0014263156 0
0.0046999967 -0.12749818 0.0014536312 0
0.0042196256 -0.12750536 0.0043089991 0
-0.0041535236 -0.12445437 -0.0044141947 0
-0.0046999939 -0.12442752 -0.0016045787 0
-0.0047000069 -0.12445803 0.0015170244 0
-0.0043152962 -0.12465973 0.004284584 0
-0.0014987318 -0.12481617 -0.0046995543 0
-0.0015158608 -0.12424023 0.0047004437 0
0.0014951355 -0.12447347 -0.004699544 0
0.001512491 -0.12451474 0.0047004558 0
0.0040232856 -0.12470207 -0.0045548608 0
0.0047000055 -0.1244005 -0.0013594527 0
0.0046999953 -0.12430941 0.0013825762 0
0.0043117711 -0.12467197 0.0041540363 0
-0.0044092713 -0.12148804 -0.0042413133 0
-0.0046999948 -0.12168499 -0.0014840955 0
-0.004700006 -0.1213541 0.0014327262 0
-0.0042695245 -0.12153278 0.0043645711 0
-0.0014837923 -0.1212457 -0.0046995659 0
-0.0016002732 -0.12126099 0.0047004353 0
0.0015966018 -0.12130667 -0.0046995562 0
0.0013934735 -0.12125293 0.0047004442 0
0.0042492128 -0.12123416 -0.0044085807 0
0.0047000046 -0.12150425 -0.0015940495 0
0.0046999971 -0.12140302 0.0012213548 0
0.004359873 -0.12159096 0.0043147504 0
-0.0042842166 -0.11851673 -0.0039577927 0
-0.0046999943 -0.11845952 -0.0017539315 0
-0.0047000051 -0.11886852 0.0015832648 0
-0.0041906903 -0.11847152 0.004306349 0
-0.001715851 -0.11842436 -0.0046995776 0
-0.0016470673 -0.118449 0.0047004241 0
0.0014057338 -0.11859669 -0.0046995664 0
0.0013831657 -0.11829296 0.0047004335 0
0.0043544685 -0.11864386 -0.0042698709 0
0.0047000051 -0.11864985 -0.0012759094 0
0.0046999967 -0.11869302 0.0015192815 0
0.0043874555 -0.11829443 0.0042409836 0
-0.0042627631 -0.1157096 -0.0042084795 0
-0.0046999962 -0.11540969 -0.0015225259 0
-0.0047000074 -0.11557856 0.0016645502 0
-0.0043575666 -0.11564671 0.0042323009 0
-0.0014151523 -0.11561202 -0.0046995874 0
-0.001214981 -0.11562353 0.0047004153 0
0.0015965475 -0.11540007 -0.0046995762 0
0.0014854647 -0.11520669 0.0047004237 0
0.0041899225 -0.11571403 -0.0044324477 0
0.0047000074 -0.11584501 -0.0017461354 0
0.0046999934 -0.11550158 0.0017638225 0
0.0041669281 -0.11541565 0.0041994168 0
-0.0042562769 -0.11258882 -0.0042309198 0
-0.0046999953 -0.11271342 -0.0014319828 0
-0.0047000065 -0.11268187 0.0016328685 0
-0.0041743377 -0.11236505 0.0043231305 0
-0.0014901073 -0.11240101 -0.0046995995 0
-0.0016653058 -0.11263476 0.0047004027 0
0.0014494798 -0.11265177 -0.0046995869 0
0.0015646092 -0.11249001 0.0047004148 0
0.0043576709 -0.11265621 -0.0041929013 0
0.0047000074 -0.1126186 -0.0016514317 0
0.0046999953 -0.11250452 0.0016027726 0
0.0044144662 -0.11259829 0.0042869677 0
-0.0041832007 -0.10946172 -0.0043488233 0
-0.0046999962 -0.10944898 -0.0014168707 0
-0.0047000051 -0.1095065 0.0013094542 0
-0.0043105008 -0.10985517 0.0041871346 0
-0.0016183206 -0.10968349 -0.0046996092 0
-0.0012221592 -0.10954294 0.004700392 0
0.0013029053 -0.10941512 -0.0046996009 0
0.0012770901 -0.10949302 0.0047004009 0
0.004254262 -0.10934757 -0.0040979395 0
0.0047000046 -0.10994162 -0.001531221 0
0.0046999962 -0.10929205 0.0015077902 0
0.0042086905 -0.10953992 0.0044122273 0
-0.0042618113 -0.10645793 -0.0042581996 0
-0.0046999967 -0.10662163 -0.0014328907 0
-0.0047000046 -0.10663352 0.0013896722 0
-0.0042263605 -0.10640358 0.0043548383 0
-0.0014038153 -0.10649431 -0.0046996204 0
-0.0014863764 -0.10647192 0.0047003813 0
0.0011628381 -0.10672057 -0.0046996092 0
0.0017678884 -0.10652994 0.0047003934 0
0.0042996057 -0.10633361 -0.0041826181 0
0.0047000074 -0.10668094 -0.0014729432 0
0.0046999953 -0.10665988 0.0014830789 0
0.0043079494 -0.10645612 0.004316485 0
-0.0043018544 -0.10347272 -0.0042467811 0
-0.0046999953 -0.10350272 -0.0017321222 0
-0.0047000037 -0.10346875 0.0011214516 0
-0.0042359065 -0.10364015 0.0042972961 0
-0.0016672008 -0.10323018 -0.0046996335 0
-0.0017533327 -0.10359461 0.0047003687 0
0.0016259265 -0.10340256 -0.0046996204 0
0.0015627382 -0.10350393 0.0047003804 0
0.0043128594 -0.10359056 -0.0043684081 0
0.0047000074 -0.10337847 -0.0014906825 0
0.0046999925 -0.10350892 0.0018012516 0
0.0043217279 -0.10348984 0.0042705876 0
-0.0042029992 -0.10046951 -0.0043929927 0
-0.0046999953 -0.10064184 -0.0014686231 0
-0.0047000065 -0.100229 0.0015945451 0
-0.00444376 -0.10073256 0.0042709513 0
-0.00172007 -0.10046619 -0.0046996428 0
-0.0014598801 -0.10064106 0.0047003594 0
0.0012768642 -0.10052992 -0.0046996316 0
0.0016170323 -0.10036529 0.0047003692 0
0.0042074448 -0.10060658 -0.0043116519 0
0.0047000069 -0.10063086 -0.0015477145 0
0.0046999943 -0.10038804 0.0016928165 0
0.0043117399 -0.10066632 0.0043380149 0
-0.0042488053 -0.097647116 -0.0042033624 0
-0.0046999957 -0.097651742 -0.0014720326 0
-0.0047000065 -0.097486593 0.0016217971 0
-0.0044573452 -0.097472481 0.0040924903 0
-0.0016601167 -0.097338721 -0.004699653 0
