# .PCD v0.7 - Point Cloud Data file format
VERSION 0.7
FIELDS x y z rgb
SIZE 4 4 4 4
TYPE F F F F
COUNT 1 1 1 1
WIDTH 1185
HEIGHT 1
VIEWPOINT 0 0 0 1 0 0 0
POINTS 1185
DATA ascii
0.0011433652 -0.19069716 0.028635576 0
0.001958966 -0.19055176 0.031613216 0
0.0026772437 -0.19072539 0.034235533 0
0.0059035816 -0.19028783 -0.045292817 0
0.0053857011 -0.19069111 -0.043431714 0
0.0045564277 -0.19042349 -0.040451564 0
0.0037211885 -0.19046222 -0.03744996 0
0.0031755636 -0.19062565 -0.035489142 0
0.005894809 -0.19165976 -0.024078513 0
0.0056019248 -0.1904424 -0.022486391 0
0.004802668 -0.1906736 -0.019541448 0
0.003974108 -0.19051324 -0.016230939 0
0.0033401251 -0.19061443 -0.013493185 0
0.003121706 -0.18929341 -0.011509907 0
0.0031364115 -0.18980752 0.011660393 0
0.0034428306 -0.19030994 0.013351694 0
0.004062627 -0.19052334 0.016254717 0
0.0048650908 -0.1905589 0.019581705 0
0.0055866484 -0.19044377 0.022443552 0
0.0059465719 -0.19100384 0.024137335 0
0.0030775825 -0.190357 0.035697106 0
0.0036421746 -0.19067468 0.03775835 0
0.0043800781 -0.19058418 0.040452316 0
0.0052148942 -0.19068725 0.043500096 0
0.0057380619 -0.19032688 0.045410119 0
0.0072023286 -0.19074519 -0.045969903 0
0.0087365685 -0.19055615 -0.033518549 0
0.0079285298 -0.19064741 -0.03143014 0
0.0071249232 -0.19039352 -0.028299611 0
0.0064365007 -0.19017506 -0.025578953 0
0.0060774074 -0.18963665 -0.023995748 0
0.0060374113 -0.1894559 0.023832891 0
0.0063492097 -0.19056237 0.025569381 0
0.0070505282 -0.19028054 0.02827478 0
0.0079138922 -0.19036639 0.031512275 0
0.008709427 -0.19097312 0.033521116 0
0.0076822238 -0.1906458 0.046000719 0
0.010554751 -0.19036187 -0.045999277 0
0.011943943 -0.19053398 -0.039131306 0
0.010993876 -0.1902772 -0.037415877 0
0.0096826404 -0.19009554 -0.035065562 0
0.0096688615 -0.19043149 0.035079096 0
0.011019624 -0.19058473 0.037491571 0
0.011944504 -0.19051774 0.039091565 0
0.010734886 -0.19045687 0.04600073 0
0.013744614 -0.19047628 -0.045999262 0
0.014260104 -0.19054367 -0.043055907 0
0.012789329 -0.19060522 -0.040571924 0
0.012686641 -0.19043249 0.04034378 0
0.014264163 -0.19069661 0.043072339 0
0.013380462 -0.19063273 0.046000738 0
0.015560999 -0.19044361 -0.045687687 0
0.01509368 -0.19085686 -0.044515774 0
0.015246315 -0.19047673 0.044724226 0
0.015490565 -0.19038515 0.045703746 0
-0.0031779078 -0.18780047 -0.012656685 0
-0.0038388397 -0.18725169 -0.010256725 0
-0.0044028158 -0.18762963 -0.00760422 0
-0.0050016386 -0.18732716 -0.004403966 0
-0.0055313082 -0.18744683 -0.0014083328 0
-0.0055604121 -0.18732753 0.0013295497 0
-0.0049659917 -0.18742564 0.0046758321 0
-0.0044633807 -0.18744849 0.0075158672 0
-0.0037959595 -0.18743096 0.010565032 0
-0.0032127481 -0.18769567 0.012732076 0
-9.0122103e-06 -0.18697317 -0.024044747 0
-0.00048070299 -0.18771966 -0.022349624 0
-0.0011826667 -0.18756446 -0.019826986 0
-0.0020865558 -0.1874765 -0.01657868 0
-0.0027640432 -0.187566 -0.014143994 0
-0.0027538061 -0.187344 0.014407597 0
-0.002162064 -0.18740769 0.01656796 0
-0.0013735917 -0.18755084 0.019446544 0
-0.00054592214 -0.18756047 0.022468243 0
-5.8801546e-05 -0.18706259 0.024246644 0
0.0027334143 -0.18784639 -0.033900198 0
0.0020685687 -0.1875008 -0.031510949 0
0.0012994104 -0.18755667 -0.028746817 0
0.00038746922 -0.18730575 -0.025469579 0
0.0028944002 -0.18851836 -0.0096365409 0
0.0026717086 -0.18767539 -0.0072865617 0
0.0023375633 -0.18763964 -0.0042283502 0
0.002278178 -0.18725026 -0.0015734358 0
0.0022740338 -0.18736421 0.0016755376 0
0.0023346844 -0.18776421 0.0045354329 0
0.0026826009 -0.18770231 0.0072974837 0
0.0029050608 -0.18858342 0.0096275164 0
0.00033978629 -0.18756796 0.02570183 0
0.0010986001 -0.18747927 0.028472137 0
0.0019567013 -0.18760613 0.031604927 0
0.0026948315 -0.18745087 0.034299735 0
0.0059000142 -0.18781231 -0.045280013 0
0.0053591421 -0.18755354 -0.043336283 0
0.0045639602 -0.18752696 -0.040478639 0
0.0037986371 -0.18762161 -0.037728295 0
0.003174932 -0.18729714 -0.035486888 0
0.0057613971 -0.1877093 -0.022061436 0
0.0051718932 -0.18733829 -0.019523777 0
0.0044616726 -0.18746729 -0.016413601 0
0.0038473208 -0.18745854 -0.013598753 0
0.0032826688 -0.18740441 -0.010704484 0
0.0030453054 -0.18639429 -0.0083051883 0
0.0031287696 -0.18640542 0.008546208 0
0.0033959863 -0.18720725 0.011053385 0
0.003905064 -0.18759711 0.013721595 0
0.0044930982 -0.1874996 0.016341953 0
0.0052453764 -0.18736906 0.019652128 0
0.005749505 -0.18786868 0.021982042 0
0.0030575693 -0.18815015 0.035624035 0
0.0035885137 -0.18755344 0.03756243 0
0.0044505615 -0.18744072 0.040709626 0
0.0051953904 -0.18739343 0.043428894 0
0.005762985 -0.18737935 0.045483351 0
0.007494126 -0.18766989 -0.045985442 0
0.0082831215 -0.18754536 -0.031413902 0
0.0074978708 -0.18737252 -0.02856005 0
0.0066164755 -0.18741861 -0.025202686 0
0.0061459527 -0.18721919 -0.023330541 0
0.006169179 -0.18729833 0.023429127 0
0.0066957157 -0.18738551 0.025589921 0
0.0073583256 -0.18767779 0.02838799 0
0.0082742712 -0.1873633 0.031386986 0
0.0088807633 -0.18885785 0.033150524 0
0.0074250032 -0.18741834 0.046000704 0
0.010637094 -0.18759105 -0.045999289 0
0.011205276 -0.18763925 -0.036996122 0
0.0098968418 -0.18739431 -0.03456682 0
0.009068124 -0.18650827 -0.03280174 0
0.0091622574 -0.18642154 0.032833774 0
0.009875345 -0.18753432 0.034508497 0
0.011278208 -0.18781731 0.037153631 0
0.01042095 -0.18762536 0.046000719 0
0.013666408 -0.18732965 -0.045999274 0
0.014570444 -0.18719356 -0.042871475 0
0.013127696 -0.18770833 -0.040469557 0
0.012216996 -0.18672723 -0.038513191 0
0.01223387 -0.18713109 0.0386572 0
0.01303168 -0.18755096 0.040249392 0
0.014509179 -0.18740876 0.042852204 0
0.013241663 -0.18729544 0.04600073 0
0.015723541 -0.18767454 -0.045763198 0
0.015347316 -0.18723124 -0.044269979 0
0.015392349 -0.18725707 0.044398285 0
0.01584566 -0.18736184 0.045804117 0
-0.0060249274 -0.18351111 -0.00029903866 0
-0.0060488675 -0.18347262 0.00018769977 0
-0.0031645105 -0.18451573 -0.012704845 0
-0.003830858 -0.18431008 -0.010310191 0
-0.0046302774 -0.18473808 -0.0073004309 0
-0.0052036894 -0.18467502 -0.0043827132 0
-0.0056849308 -0.18439898 -0.0018209128 0
-0.0057645515 -0.18435784 0.0014311214 0
-0.0051340908 -0.18474606 0.0048592417 0
-0.0046320143 -0.18456247 0.0074342876 0
-0.0037945199 -0.18419129 0.010608103 0
-0.0032552916 -0.18449976 0.012576742 0
-5.2560599e-06 -0.18503012 -0.024058253 0
-0.00045507841 -0.18454477 -0.02244173 0
-0.0012589913 -0.18436311 -0.019552708 0
-0.0021043881 -0.18467024 -0.016514603 0
-0.0027968506 -0.18449031 -0.014026104 0
-0.0028279233 -0.18446237 0.014136999 0
-0.002172699 -0.18468785 0.016529122 0
-0.0014108311 -0.18462552 0.019310581 0
-0.00053548097 -0.18457749 0.022506347 0
-6.9938564e-05 -0.18366936 0.02420597 0
0.002739501 -0.18459436 -0.033922087 0
0.0021062472 -0.18461785 -0.031646363 0
0.0012755095 -0.1847633 -0.028660936 0
0.00043217809 -0.18481819 -0.025630256 0
0.0029305348 -0.18577474 -0.0064162686 0
0.0028376968 -0.18508111 -0.0043619871 0
0.0027341733 -0.18471594 -0.0014304202 0
0.0027194954 -0.18490937 0.0014294377 0
0.002821947 -0.18513237 0.0041811755 0
0.0029618959 -0.18568709 0.0066392091 0
0.00034329697 -0.18432538 0.025714632 0
0.0011964855 -0.18440899 0.028829493 0
0.0019381372 -0.18456919 0.031537149 0
0.0026185072 -0.18425769 0.03402108 0
0.0058939159 -0.18471289 -0.045258109 0
0.0054146484 -0.18452048 -0.043535773 0
0.0045765443 -0.18430403 -0.040523879 0
0.0037376045 -0.18466896 -0.037508979 0
0.0031129322 -0.18386126 -0.035264086 0
0.0058851568 -0.18515512 -0.021289282 0
0.0055149063 -0.18473101 -0.019295814 0
0.0049140351 -0.18454766 -0.016473331 0
0.0042334674 -0.18484505 -0.013444024 0
0.003736825 -0.18470018 -0.010608429 0
0.0033542716 -0.18425046 -0.0075218026 0
0.00317207 -0.18366477 -0.0047785519 0
0.0030675493 -0.18316126 -0.0015963281 0
0.0030518959 -0.18338498 0.0016883189 0
0.0031423883 -0.1837348 0.0045931051 0
0.0033447065 -0.18440102 0.0075604115 0
0.0037708487 -0.18453945 0.010405479 0
0.0043363636 -0.18451236 0.013675818 0
0.0049802735 -0.18444413 0.016595731 0
0.0056363461 -0.18448147 0.019626152 0
0.0059119877 -0.18492518 0.021177566 0
0.0030264882 -0.18465291 0.035510547 0
0.0035477923 -0.18426152 0.037413754 0
0.0043998011 -0.18452892 0.040524304 0
0.0051501333 -0.1844921 0.043263651 0
0.0058047385 -0.18461686 0.045595489 0
0.007360795 -0.18459128 -0.04598204 0
0.0084925136 -0.18478067 -0.031108487 0
0.0078121345 -0.18451989 -0.028660836 0
0.006916991 -0.18464509 -0.025287237 0
0.0063433694 -0.184413 -0.022842452 0
0.0060449778 -0.18310405 -0.020569697 0
0.0060252547 -0.18310155 0.02051435 0
0.0063752797 -0.18410377 0.022747278 0
0.0070665753 -0.18465161 0.025899338 0
0.0077017047 -0.18453404 0.028410304 0
0.0085104387 -0.18467371 0.030991685 0
0.0072948709 -0.18452632 0.046000697 0
0.010371645 -0.18457352 -0.0459993 0
0.011715459 -0.18472761 -0.036956396 0
0.010433418 -0.18456456 -0.034602076 0
0.0094062006 -0.1843389 -0.032702599 0
0.0093519222 -0.18448591 0.032514192 0
0.010373025 -0.18449707 0.034381885 0
0.011497187 -0.18478286 0.036521576 0
0.01045287 -0.18441051 0.046000704 0
0.013621278 -0.18456578 -0.045999289 0
0.014822477 -0.1849947 -0.042622346 0
0.01374492 -0.18462934 -0.040567789 0
0.012440745 -0.18418126 -0.038079232 0
0.012442963 -0.18411769 0.038014349 0
0.013661644 -0.18450393 0.040359847 0
0.014776278 -0.18449478 0.042382102 0
0.01344775 -0.18437901 0.046000719 0
0.016021598 -0.18442091 -0.045869786 0
0.015735304 -0.18427488 -0.044024091 0
0.015644617 -0.18414454 0.043841563 0
0.015964895 -0.18450202 0.045803592 0
-0.0061292285 -0.18124434 -0.00066122599 0
-0.006128476 -0.18140835 0.000613357 0
-0.0031728784 -0.18167327 -0.012674782 0
-0.0038124793 -0.18140431 -0.01037625 0
-0.0047036321 -0.18137506 -0.0071737152 0
-0.0053567546 -0.18112551 -0.00473047 0
-0.0058308179 -0.1814491 -0.0022358107 0
-0.0058726449 -0.18185467 0.0018814057 0
-0.0054122573 -0.18141821 0.004545318 0
-0.004717133 -0.18156001 0.0072397739 0
-0.003816369 -0.18143649 0.010528324 0
-0.0032018111 -0.1814778 0.012771981 0
-0.00040393532 -0.18138678 -0.022625528 0
-0.0012019011 -0.18158965 -0.019757882 0
-0.0021332367 -0.18155909 -0.016410941 0
-0.0027523749 -0.18131281 -0.014185948 0
-0.0028003505 -0.18134868 0.01423765 0
-0.0021738873 -0.18140593 0.016524769 0
-0.0013423669 -0.18123458 0.019560521 0
-0.00061693316 -0.18140565 0.02220897 0
-9.1754111e-05 -0.18104589 0.024126315 0
0.0027151767 -0.18140034 -0.033834688 0
0.00203253 -0.18149376 -0.031381462 0
0.0012445136 -0.18164407 -0.028549563 0
0.00033901408 -0.18150824 -0.02529547 0
0.00035240408 -0.18130636 0.025747867 0
0.0010974028 -0.18160294 0.028467748 0
0.0018887743 -0.18142517 0.03135692 0
0.0026878549 -0.1812748 0.034274239 0
0.0058960137 -0.1813308 -0.04526566 0
0.0054417043 -0.18142663 -0.043633014 0
0.0046290085 -0.18151081 -0.04071242 0
0.003664294 -0.18146476 -0.037245527 0
0.0031822992 -0.18134546 -0.035513386 0
0.0057988698 -0.18245052 -0.0190323 0
0.0053553637 -0.18160708 -0.016417854 0
0.0048126937 -0.18151125 -0.01348458 0
0.00426309 -0.18162873 -0.010521267 0
0.0038799597 -0.18155462 -0.0073981383 0
0.0035377573 -0.181803 -0.004549643 0
0.003426573 -0.18149473 -0.001720225 0
0.0034833043 -0.18132527 0.0016593089 0
0.0035404414 -0.18176395 0.004634066 0
0.0039450857 -0.18135804 0.0075854594 0
0.0043816152 -0.18145177 0.010679574 0
0.004842496 -0.18145248 0.013608135 0
0.0054661739 -0.18121131 0.016719149 0
0.005841665 -0.18200959 0.018964594 0
0.0030622003 -0.18175849 0.035640921 0
0.0036344056 -0.181439 0.037729956 0
0.0043657487 -0.18166322 0.040399969 0
0.005262523 -0.18162739 0.043673959 0
0.0058181593 -0.18169309 0.045695998 0
0.0074590989 -0.18172082 -0.045975994 0
0.0086804638 -0.18168558 -0.030551864 0
0.0080654556 -0.18155599 -0.028467925 0
0.0073824422 -0.18141282 -0.025505234 0
0.0066943234 -0.18159592 -0.022480549 0
0.0061860983 -0.18133746 -0.020018859 0
0.0061914637 -0.1812259 0.020060092 0
0.0066600824 -0.18158256 0.022439767 0
0.0073549589 -0.18154381 0.02557574 0
0.0080490215 -0.18163809 0.028483545 0
0.0088204443 -0.181977 0.030666972 0
0.0076951031 -0.1814346 0.046000682 0
0.0103995 -0.18145566 -0.045999307 0
0.011843131 -0.18215178 -0.036340144 0
0.010909135 -0.18148783 -0.034448933 0
0.0095345881 -0.18135998 -0.031974457 0
0.0094557572 -0.18150254 0.031674109 0
0.010947142 -0.18153462 0.034419302 0
0.011836465 -0.18219796 0.036260724 0
0.010272236 -0.18164718 0.0460007 0
0.013683662 -0.18142492 -0.045999296 0
0.014200483 -0.18156031 -0.040378124 0
0.012712801 -0.18165746 -0.037739281 0
0.012702497 -0.18149655 0.037596274 0
0.014127276 -0.18158415 0.040215082 0
0.014973851 -0.18293801 0.042212918 0
0.013292554 -0.18147673 0.046000708 0
0.016562849 -0.18120027 -0.045878291 0
0.015961882 -0.18143247 -0.043495905 0
0.015216196 -0.18026817 -0.041775569 0
0.015169298 -0.18067023 0.041799527 0
0.016035441 -0.18120044 0.043554083 0
0.016502921 -0.1814909 0.045853965 0
-0.0062787319 -0.1785856 -0.00093495584 0
-0.0061938581 -0.17864946 0.0013658293 0
-0.0031783478 -0.17880015 -0.012655137 0
-0.0037163957 -0.17854561 -0.010721558 0
-0.004589898 -0.17849332 -0.0075824484 0
-0.0054828762 -0.17866223 -0.0043617832 0
-0.0059385449 -0.17869197 -0.0025956482 0
-0.0059294393 -0.17871 0.0026738562 0
-0.0054271282 -0.178556 0.0046476782 0
-0.0046427706 -0.1784288 0.0075112497 0
-0.0038559677 -0.17827685 0.010383743 0
-0.0032051401 -0.17837878 0.012759813 0
-0.0004038029 -0.17860582 -0.02262602 0
-0.0013031205 -0.17861719 -0.019394143 0
-0.0021917587 -0.17854598 -0.016200647 0
-0.0027574606 -0.17855687 -0.014167682 0
-0.0028090668 -0.17867289 0.014205818 0
-0.0021194392 -0.17849222 0.016723542 0
-0.0013817669 -0.17845517 0.019416666 0
-0.00055403903 -0.1785761 0.022438576 0
-6.1537037e-05 -0.17861103 0.024236625 0
0.0027996048 -0.17848435 -0.034138106 0
0.0020156275 -0.17859201 -0.031320721 0
0.0012240537 -0.17837256 -0.028476045 0
0.00037082899 -0.17843278 -0.025409812 0
0.00039090481 -0.17836352 0.025888421 0
0.0010686991 -0.17842993 0.028362941 0
0.0019568251 -0.17836277 0.031605352 0
0.0026927157 -0.17845418 0.034291975 0
0.0059304512 -0.178615 -0.045389425 0
0.0053991256 -0.17843297 -0.043480013 0
0.0045876834 -0.17847152 -0.040563926 0
0.0037572002 -0.1784298 -0.037579414 0
0.0031698996 -0.17851937 -0.035468839 0
0.0057806592 -0.17873362 -0.016131876 0
0.0053549632 -0.17832975 -0.01342969 0
0.0047945441 -0.17851053 -0.010216772 0
0.0044340268 -0.17870209 -0.0071928026 0
0.0042312522 -0.17851955 -0.0046495474 0
0.0040826816 -0.17836723 -0.0015427138 0
0.0040537608 -0.17859586 0.0016528618 0
0.0042045587 -0.17848445 0.0044999076 0
0.0045341481 -0.17839895 0.0075465357 0
0.0049441764 -0.17836134 0.01063303 0
0.0053349775 -0.1785583 0.013356875 0
0.0057843714 -0.17874451 0.01635409 0
0.0059669414 -0.17976215 0.018081643 0
0.0030896708 -0.17879194 0.035741203 0
0.0035735606 -0.17844722 0.037507799 0
0.0043474431 -0.1786397 0.040333129 0
0.0052010883 -0.17854099 0.043449651 0
0.005763676 -0.17846158 0.045503583 0
0.0074512414 -0.1784448 -0.045999333 0
0.008899698 -0.17959018 -0.030288303 0
0.0084458524 -0.17850897 -0.028306954 0
0.0078070187 -0.1786789 -0.025517207 0
0.007133048 -0.17853041 -0.022374503 0
0.0065337652 -0.17830431 -0.019537121 0
0.0061505535 -0.17775396 -0.017231958 0
0.0060908389 -0.17768906 0.017129645 0
0.0064356932 -0.17822567 0.019235015 0
0.0071239513 -0.17855392 0.022602526 0
0.0077889604 -0.17839594 0.025536412 0
0.0084449267 -0.17825545 0.028139211 0
0.0089567592 -0.1798031 0.030166652 0
0.0075377077 -0.17865404 0.046000678 0
0.010430054 -0.17831448 -0.045999322 0
0.011325857 -0.17871036 -0.034287598 0
0.00985891 -0.17817175 -0.031464566 0
0.0091102915 -0.17761047 -0.029691929 0
0.0090687443 -0.17803736 0.029633 0
0.0099294512 -0.17823213 0.031403277 0
0.011393031 -0.17839907 0.034163497 0
0.010650821 -0.17826541 0.046000682 0
0.013333359 -0.17854217 -0.045999311 0
0.014501456 -0.17854559 -0.039927155 0
0.013082967 -0.17873853 -0.037445527 0
0.012240963 -0.17803237 -0.035702273 0
0.012230972 -0.17805479 0.035571311 0
0.013147851 -0.17857245 0.037413336 0
0.0145046 -0.17858227 0.039883185 0
0.013386854 -0.17879516 0.0460007 0
0.016623352 -0.17850205 -0.045834474 0
0.016406665 -0.1784703 -0.043319639 0
0.015482121 -0.17839403 -0.041636277 0
0.015325636 -0.17824088 0.041260257 0
0.016444882 -0.17855059 0.043400254 0
0.016490346 -0.17872018 0.045896471 0
0.01800435 -0.17769815 -0.045999292 0
-0.0062924251 -0.17588721 -0.0013614593 0
-0.0063796188 -0.17589815 0.00095812295 0
-0.0031832575 -0.17608473 -0.012593798 0
-0.0037634938 -0.17602955 -0.010420681 0
-0.004306532 -0.17569886 -0.0074374322 0
-0.0043999115 -0.17529288 -0.0043858816 0
-0.0043353653 -0.17513023 -0.0015464001 0
-0.0042836559 -0.1751315 0.0013850748 0
-0.0045451517 -0.17530659 0.0042456849 0
-0.0043273764 -0.17568803 0.0075687924 0
-0.0036401325 -0.17572723 0.010507451 0
-0.0032084149 -0.1759278 0.012696918 0
-1.6503867e-05 -0.17637604 -0.024017863 0
-0.00052085501 -0.17604406 -0.022082971 0
-0.00097883435 -0.17579468 -0.019440701 0
-0.0015980322 -0.17557254 -0.016130453 0
-0.0018936826 -0.17552739 -0.013773641 0
-0.0014609969 -0.17520003 -0.010411067 0
-0.0014807377 -0.17520003 -0.0073388391 0
-0.001427425 -0.17506659 -0.0045692306 0
-0.0015707265 -0.17520013 -0.0014704861 0
-0.0014306883 -0.17520012 0.0012839258 0
-0.0013334899 -0.17510721 0.0044352268 0
-0.001421774 -0.17519997 0.0076018916 0
-0.0015058514 -0.17519996 0.010394865 0
-0.0019181507 -0.17545015 0.013774231 0
-0.0017394649 -0.17564747 0.016353827 0
-0.0010740412 -0.17576289 0.019331418 0
-0.00046262387 -0.17574216 0.022156022 0
-5.680243e-05 -0.17551902 0.024253899 0
0.0027630979 -0.17593968 -0.033964179 0
0.002255271 -0.17579998 -0.031449609 0
0.0015745127 -0.17565937 -0.028367382 0
0.0011352139 -0.17552845 -0.025469353 0
0.0015297942 -0.17520009 -0.022733355 0
0.0011860322 -0.17520007 -0.019669317 0
0.0013916858 -0.17520005 -0.016513161 0
0.0016473539 -0.17520003 -0.013417332 0
0.0015243108 -0.17520005 -0.010937364 0
0.0016286105 -0.17520003 -0.0074696736 0
0.0014193474 -0.17506233 -0.0043637343 0
0.0014300446 -0.17520019 -0.0014835966 0
0.0016271877 -0.17520013 0.0014116385 0
0.0014121677 -0.17504045 0.0043831337 0
0.0015325567 -0.17519996 0.007716137 0
0.0015181174 -0.17519994 0.010479133 0
0.0016716657 -0.17519994 0.01348913 0
0.0015963048 -0.17519994 0.016647652 0
0.0014480419 -0.17519993 0.019607339 0
0.0018583476 -0.17519991 0.022758346 0
0.0011098151 -0.17548423 0.025755672 0
0.0015319597 -0.17570178 0.028398119 0
0.0021812469 -0.17578593 0.03150025 0
0.0026904198 -0.17604665 0.034119219 0
0.0058592479 -0.176043 -0.04513355 0
0.005489449 -0.17575563 -0.043461278 0
0.0049760342 -0.17579263 -0.040675279 0
0.0044479095 -0.17549524 -0.037336625 0
0.0043656263 -0.17539978 -0.034739755 0
0.0047431858 -0.17520012 -0.031410821 0
0.0043382095 -0.17520009 -0.028532756 0
0.0044398233 -0.17520009 -0.025583278 0
0.0045589549 -0.17520006 -0.022488287 0
0.0046441448 -0.17520007 -0.019638883 0
0.0045581753 -0.17520005 -0.016620524 0
0.0049682637 -0.17560451 -0.013494855 0
0.004599981 -0.17551826 -0.010583843 0
0.0044701602 -0.1756708 -0.0074822479 0
0.0041654231 -0.17530487 -0.0042413608 0
0.0042516259 -0.1753048 -0.0014510403 0
0.004160299 -0.17540032 0.0014100499 0
0.0042424588 -0.17543481 0.0044853319 0
0.0043750545 -0.17557533 0.0076187211 0
0.0048806877 -0.17546447 0.010433221 0
0.0049458933 -0.1756189 0.013526298 0
0.0046010781 -0.17523591 0.016417297 0
0.0045064781 -0.17519993 0.019587088 0
0.0044464418 -0.17519994 0.022310607 0
0.0047781244 -0.1751999 0.025269572 0
0.004602686 -0.1751999 0.028520118 0
0.004512161 -0.17519987 0.031308644 0
0.0044630105 -0.17520733 0.034572881 0
0.0041542947 -0.17556491 0.037300017 0
0.0047076717 -0.1757293 0.04026426 0
0.0053082076 -0.17577553 0.043251883 0
0.0057403506 -0.1760204 0.045418411 0
0.0076324125 -0.17584635 -0.045805853 0
0.0075737792 -0.17520015 -0.043395374 0
0.0076094167 -0.17520015 -0.04078206 0
0.0073471866 -0.17520012 -0.037545145 0
0.0076853097 -0.17520012 -0.03423205 0
0.007618628 -0.17520012 -0.031387534 0
0.0077460608 -0.17549805 -0.028453814 0
0.0077190083 -0.17569447 -0.025539195 0
0.0070806784 -0.17559747 -0.022465087 0
0.0066667493 -0.17595662 -0.019600982 0
0.006386776 -0.17583847 -0.016845066 0
0.0060716085 -0.17534998 -0.01469752 0
0.0060923584 -0.17551757 0.014617923 0
0.0062257843 -0.17589359 0.016306253 0
0.0066411011 -0.17568819 0.019387338 0
0.0071259909 -0.17584947 0.022414898 0
0.0076850322 -0.17564499 0.025575899 0
0.0078240698 -0.17547463 0.028333198 0
0.0075544198 -0.17519987 0.031557951 0
0.007699071 -0.17519988 0.034489974 0
0.0074805571 -0.17519985 0.0373451 0
0.0072695003 -0.17519984 0.040612422 0
0.0073425849 -0.17519982 0.043537423 0
0.007266568 -0.17564523 0.045753587 0
0.010598942 -0.17572254 -0.045719199 0
0.010554597 -0.17520015 -0.043333687 0
0.010680886 -0.17520013 -0.040611096 0
0.010121978 -0.17520012 -0.03736439 0
0.010533357 -0.17543811 -0.034425177 0
0.010188077 -0.1756113 -0.031498805 0
0.0094077541 -0.17587766 -0.029441027 0
0.0093770325 -0.17551036 0.029049546 0
0.010260982 -0.17567161 0.031503566 0
0.010759573 -0.17544292 0.034305047 0
0.010274216 -0.17519991 0.037561722 0
0.010470114 -0.17519985 0.040514011 0
0.010461605 -0.17519984 0.043472949 0
0.01038646 -0.17576987 0.045867927 0
0.0136986 -0.17576092 -0.04587654 0
0.013317381 -0.17520016 -0.043540839 0
0.013718275 -0.17534225 -0.040665366 0
0.013317586 -0.17562041 -0.037772965 0
0.012344544 -0.17569844 -0.035395622 0
0.012462699 -0.17578717 0.035387378 0
0.013384239 -0.17563811 0.037676305 0
0.013728675 -0.17538278 0.040432587 0
0.013438666 -0.17519985 0.043459725 0
0.013516085 -0.17567872 0.04580107 0
0.016413439 -0.17566499 -0.045765743 0
0.016443767 -0.17563395 -0.043803658 0
0.015485262 -0.17576388 -0.040965565 0
0.015544118 -0.17584932 0.040997177 0
0.016415974 -0.17570519 0.043423712 0
0.016623698 -0.17584898 0.045853496 0
0.018199254 -0.17568299 -0.045672957 0
0.018197531 -0.17555839 0.045911413 0
-0.0043775481 -0.17243242 -0.0041607837 0
-0.0046999948 -0.17233694 -0.001611142 0
-0.0047000055 -0.17252108 0.0013045194 0
-0.0044761267 -0.17267427 0.0042360728 0
-0.0016450504 -0.17253056 -0.0046993811 0
-0.0016263068 -0.17236751 0.0047006193 0
0.0014874627 -0.17277724 -0.0046993685 0
0.0012545653 -0.17236371 0.0047006281 0
0.004321265 -0.17272148 -0.0042493767 0
0.004700006 -0.17270063 -0.0013028462 0
0.0046999957 -0.17267114 0.0013612504 0
0.0043360856 -0.17247711 0.0042588236 0
-0.0042426698 -0.16947907 -0.0043019284 0
-0.0046999953 -0.16932958 -0.0015030873 0
-0.0047000065 -0.16952549 0.0012543431 0
-0.0042007328 -0.16950737 0.0043201572 0
-0.0013210583 -0.16952962 -0.0046993918 0
-0.001634529 -0.16964872 0.0047006095 0
0.0018232595 -0.16983677 -0.0046993801 0
0.0016590585 -0.16930768 0.0047006193 0
0.0042353123 -0.16946331 -0.004289927 0
0.0047000055 -0.16956227 -0.0012575709 0
0.0046999953 -0.16931604 0.0014565968 0
0.0043630116 -0.16948865 0.0042435457 0
-0.0042742267 -0.16658652 -0.0042121699 0
-0.0046999962 -0.16667809 -0.0014148614 0
-0.0047000065 -0.16662036 0.0015878958 0
-0.0042541036 -0.16668159 0.0044040778 0
-0.0012062496 -0.1665234 -0.0046994016 0
-0.001478965 -0.16660677 0.0047005988 0
0.0017394511 -0.16663928 -0.0046993913 0
0.0016466824 -0.16627161 0.0047006086 0
0.0041915169 -0.16657168 -0.0043385169 0
0.0047000051 -0.16670686 -0.0013064627 0
0.0046999948 -0.16625604 0.0015211571 0
0.0043358323 -0.16640323 0.0042196056 0
-0.004456352 -0.1634849 -0.0041378341 0
-0.0046999962 -0.16339093 -0.0013499089 0
-0.0047000055 -0.16350101 0.0014635711 0
-0.0043201889 -0.16366981 0.0042945398 0
-0.0013890796 -0.16316403 -0.0046994155 0
-0.0016196171 -0.16354944 0.0047005862 0
0.0015018318 -0.16344139 -0.0046994039 0
0.0013597121 -0.16369148 0.0047005988 0
0.004234104 -0.16367899 -0.0043522501 0
0.0047000069 -0.16352543 -0.0015601674 0
0.0046999962 -0.16354474 0.0014383333 0
0.0043019694 -0.16341162 0.0042386516 0
-0.0042306832 -0.16028987 -0.0042885356 0
-0.0046999957 -0.16035622 -0.0015904681 0
-0.0047000065 -0.1603663 0.0014969633 0
-0.0041906177 -0.16022021 0.0043828175 0
-0.0014440243 -0.16056187 -0.0046994258 0
-0.0014690453 -0.16041008 0.004700576 0
0.0016922912 -0.16053769 -0.0046994132 0
0.0015365467 -0.16057236 0.0047005881 0
0.0043450254 -0.16038582 -0.004292524 0
0.0047000078 -0.16079284 -0.0018696685 0
0.0046999943 -0.16047144 0.0013833338 0
0.0042582224 -0.16039668 0.0041942401 0
-0.0043599573 -0.15755731 -0.0042396304 0
-0.0046999934 -0.15748844 -0.001546053 0
-0.0047000069 -0.15731898 0.0013294143 0
-0.0041970084 -0.15731815 0.0043019345 0
-0.0014518319 -0.1576229 -0.0046994337 0
-0.0016779469 -0.1574416 0.0047005652 0
0.0016140816 -0.15732208 -0.0046994248 0
0.0014036277 -0.15726134 0.0047005755 0
0.0042741448 -0.15783237 -0.0042577842 0
0.0047000065 -0.15759912 -0.0015755893 0
0.0046999957 -0.15757112 0.0016625402 0
0.0043231114 -0.15742296 0.0042470675 0
-0.0044454178 -0.1542362 -0.004137632 0
-0.0046999962 -0.15466833 -0.0013856723 0
-0.004700006 -0.15465739 0.0015450143 0
-0.0041768691 -0.154506 0.0044196611 0
-0.0016816298 -0.15464792 -0.0046994467 0
-0.0012526442 -0.15432544 0.0047005559 0
0.0017187024 -0.15455861 -0.0046994356 0
0.0014981508 -0.15457849 0.0047005657 0
0.0042644143 -0.15438031 -0.0041656578 0
0.004700006 -0.15428609 -0.0015555671 0
0.0046999948 -0.15431841 0.0015248862 0
0.0042545018 -0.15444337 0.0043153758 0
-0.0042517637 -0.15128493 -0.0041960338 0
-0.0046999934 -0.15146966 -0.0015259193 0
-0.0047000069 -0.15144181 0.0014586457 0
-0.0043381392 -0.15171587 0.004185637 0
-0.0013613513 -0.15139702 -0.0046994574 0
-0.0013533336 -0.1513935 0.0047005424 0
0.0014754403 -0.1514972 -0.0046994467 0
0.0017766659 -0.15140344 0.0047005555 0
0.0043243277 -0.1515478 -0.0043350211 0
0.0047000065 -0.15153687 -0.0014912274 0
0.0046999953 -0.1515684 0.0015309097 0
0.0043604155 -0.15156204 0.0042180326 0
-0.0041841893 -0.14865968 -0.004307156 0
-0.0046999948 -0.14837283 -0.0013019905 0
-0.0047000055 -0.1484834 0.0012902473 0
-0.0042224256 -0.14855564 0.0043301871 0
-0.0012921221 -0.14837761 -0.0046994686 0
-0.0013280608 -0.14872062 0.0047005354 0
0.0015791612 -0.14864917 -0.0046994556 0
0.0015900581 -0.14826995 0.0047005429 0
0.0044182637 -0.14841062 -0.0042137108 0
0.0047000065 -0.14840849 -0.0014515445 0
0.0046999948 -0.14844218 0.00167466 0
0.0042427792 -0.14828213 0.0041903472 0
-0.0044008465 -0.145353 -0.0042247372 0
-0.0046999953 -0.1455525 -0.001588208 0
-0.0047000074 -0.14544782 0.0016668299 0
-0.0042719529 -0.14548855 0.0042565297 0
-0.0016621974 -0.14549589 -0.0046994789 0
-0.0015378146 -0.14582305 0.0047005224 0
0.0013670265 -0.14573051 -0.0046994677 0
0.0015267626 -0.14543393 0.0047005331 0
0.0042294776 -0.14534858 -0.0043159155 0
0.0047000051 -0.14546794 -0.0014138971 0
0.0046999957 -0.14559764 0.0015176121 0
0.0041352999 -0.14535095 0.004221776 0
-0.0042306711 -0.14236845 -0.0041572601 0
-0.0046999953 -0.14264609 -0.0017641524 0
-0.0047000055 -0.14253584 0.0015189587 0
-0.0043713367 -0.14247704 0.0042851493 0
-0.001407159 -0.14240104 -0.0046994905 0
-0.0017433146 -0.14238822 0.0047005094 0
0.001650904 -0.14241807 -0.0046994779 0
0.0014777317 -0.14249673 0.0047005205 0
0.0041915327 -0.14244342 -0.0043141833 0
0.0047000046 -0.14228345 -0.0011750892 0
0.0046999939 -0.14239129 0.0017695305 0
0.0043116668 -0.14263652 0.0041832919 0
-0.0041461503 -0.13922051 -0.0043873144 0
-0.0046999934 -0.13915946 -0.0018218524 0
-0.0047000065 -0.13941218 0.0015594201 0
-0.0043059215 -0.13943844 0.0041798307 0
-0.0013850743 -0.13962074 -0.0046994998 0
-0.0014314918 -0.13949953 0.0047004991 0
0.0016843776 -0.13937561 -0.0046994905 0
0.001318743 -0.13964207 0.0047005117 0
0.0043453467 -0.13921504 -0.0042591798 0
0.0047000074 -0.139323 -0.0016152551 0
0.0046999953 -0.13980834 0.0013785051 0
0.0042347643 -0.13949193 0.0042262063 0
-0.0043813284 -0.13635987 -0.0041745356 0
-0.0046999948 -0.13647033 -0.0015530883 0
-0.0047000074 -0.13640238 0.0014882589 0
-0.0042420025 -0.13630053 0.0043470347 0
-0.001588011 -0.13647513 -0.0046995133 0
-0.0016663139 -0.13641733 0.0047004884 0
0.0016840157 -0.13638774 -0.0046995012 0
0.0014587546 -0.136567 0.0047005001 0
0.0043347091 -0.13653599 -0.0042496338 0
0.004700006 -0.13656077 -0.0013943722 0
0.0046999957 -0.13645387 0.0013343468 0
0.004417825 -0.13634571 0.004183955 0
-0.0043573808 -0.13352792 -0.0040719835 0
-0.0046999943 -0.13368791 -0.0015202978 0
-0.0047000055 -0.13363439 0.0015234896 0
-0.004260045 -0.13347541 0.0043014032 0
-0.0016449977 -0.13348301 -0.0046995245 0
-0.0017529366 -0.13371092 0.0047004777 0
0.0012205064 -0.13365386 -0.0046995133 0
0.0013694628 -0.13336542 0.0047004893 0
0.004440242 -0.13356227 -0.004079618 0
0.0047000041 -0.13342705 -0.0014646355 0
0.0046999953 -0.13324538 0.0016420222 0
0.0041570608 -0.13359767 0.0044087549 0
-0.004276318 -0.13051416 -0.0042332332 0
-0.0046999953 -0.1302117 -0.0014721926 0
-0.0047000055 -0.13045329 0.0015829237 0
-0.0042592795 -0.13048241 0.0041271909 0
-0.001776779 -0.13043965 -0.0046995352 0
-0.001432548 -0.13051124 0.0047004684 0
0.0013022005 -0.13044222 -0.0046995231 0
0.0014580234 -0.13044773 0.0047004772 0
0.0042790612 -0.13056836 -0.0043126266 0
0.0047000065 -0.13044357 -0.0015533762 0
0.0046999948 -0.13066936 0.0017015036 0
0.0042356499 -0.13053592 0.0042896797 0
-0.0042491173 -0.12738401 -0.004237887 0
-0.0046999962 -0.12749836 -0.00138816 0
-0.004700006 -0.12738703 0.0013722408 0
-0.0041780127 -0.12757941 0.0043381955 0
-0.0014439194 -0.1275859 -0.004699544 0
-0.0014921669 -0.1275225 0.0047004581 0
0.0014974783 -0.12737715 -0.0046995347 0
0.0013393068 -0.12760505 0.0047004675 0
0.0042511369 -0.12770408 -0.0043126331 0
0.004700006 -0.12748598 -0.0015090983 0
0.0046999962 -0.12762661 0.0014707027 0
0.0042701047 -0.12743539 0.0042941961 0
-0.0041598096 -0.12477066 -0.0042866166 0
-0.0046999948 -0.12454072 -0.0016194519 0
-0.0047000065 -0.12448788 0.0015109944 0
-0.0043364055 -0.12459329 0.0042464542 0
-0.0015664938 -0.12453579 -0.0046995557 0
-0.0015140495 -0.1244565 0.0047004451 0
0.0016524233 -0.12427506 -0.0046995445 0
0.0016919185 -0.12462098 0.0047004581 0
0.0044125905 -0.12456355 -0.0041920794 0
0.0047000074 -0.12449609 -0.0017497758 0
0.0046999953 -0.12437838 0.0016082097 0
0.004242158 -0.12455309 0.0042585237 0
-0.0042616096 -0.12147191 -0.0042498861 0
-0.0046999953 -0.12145473 -0.0015461162 0
-0.0047000065 -0.12146598 0.0015032655 0
-0.004114267 -0.12169054 0.0043002595 0
-0.0016495534 -0.12140782 -0.0046995669 0
-0.0013475994 -0.12157731 0.0047004363 0
0.0014823233 -0.12151179 -0.0046995557 0
0.0016155805 -0.12157998 0.004700446 0
0.0043673818 -0.12168915 -0.0042157653 0
0.0047000065 -0.12146106 -0.0013219343 0
0.0046999948 -0.1217177 0.0014944054 0
0.0042469921 -0.12141289 0.0043122568 0
-0.0041871802 -0.11844798 -0.004361284 0
-0.0046999957 -0.11846622 -0.0014932902 0
-0.0047000055 -0.11825516 0.0014736784 0
-0.0043073562 -0.11858498 0.0042529334 0
-0.0012552184 -0.11843109 -0.0046995762 0
-0.0014930867 -0.11869776 0.0047004265 0
0.0017028848 -0.11852839 -0.0046995655 0
0.0014482053 -0.11855832 0.0047004349 0
0.0043503456 -0.11859255 -0.0040647956 0
0.0047000065 -0.11839994 -0.0014929186 0
0.0046999967 -0.11828439 0.0013795748 0
0.0043002521 -0.11859796 0.0042773057 0
-0.0041760397 -0.11559991 -0.0043416847 0
-0.0046999948 -0.11547646 -0.0012840278 0
-0.0047000065 -0.11572371 0.001545517 0
-0.0043100799 -0.11556189 0.0042561875 0
-0.0015373267 -0.11554159 -0.0046995883 0
-0.001286693 -0.11539678 0.004700413 0
0.0014283804 -0.11546499 -0.004699578 0
0.0015050801 -0.11574653 0.0047004251 0
0.0043606344 -0.11552635 -0.0041468511 0
0.0047000065 -0.11512052 -0.0015599192 0
0.0046999962 -0.1154162 0.0015424138 0
0.0042731287 -0.11537971 0.004320648 0
-0.0044672703 -0.11250159 -0.0042049973 0
-0.0046999957 -0.11251074 -0.0013958842 0
-0.004700006 -0.11247262 0.0014456782 0
-0.0042805299 -0.11246149 0.0043678032 0
-0.0012641214 -0.11245068 -0.0046995967 0
-0.0014406207 -0.11228903 0.0047004027 0
0.0015643229 -0.11262193 -0.0046995869 0
0.0012697922 -0.11239822 0.004700412 0
0.0043053059 -0.11251271 -0.0042708241 0
0.0047000065 -0.11246419 -0.0013926177 0
0.0046999948 -0.11260171 0.0015175209 0
0.0043680104 -0.11253017 0.0042098048 0
-0.0044226702 -0.10942201 -0.0040659332 0
-0.0046999943 -0.10955509 -0.0018173958 0
-0.0047000051 -0.10951949 0.0014842006 0
-0.0043914011 -0.10968515 0.004281099 0
-0.0013377308 -0.10940754 -0.0046996088 0
-0.0016757697 -0.10954425 0.004700392 0
0.0015293913 -0.10951429 -0.0046995999 0
0.001522362 -0.10930289 0.0047004018 0
0.0042465217 -0.10947627 -0.0043285405 0
0.0047000065 -0.10957938 -0.0017296219 0
0.0046999939 -0.10948271 0.0015428464 0
0.0041935374 -0.10925235 0.0043147476 0
-0.004316899 -0.10640781 -0.0042320043 0
-0.0046999943 -0.10677522 -0.0013627796 0
-0.0047000055 -0.10631429 0.0015282203 0
-0.004278536 -0.10657783 0.0042327177 0
-0.0014561479 -0.1066844 -0.004699619 0
-0.0014903621 -0.10650863 0.0047003813 0
0.0016354271 -0.10646491 -0.0046996092 0
0.001500497 -0.1064696 0.004700392 0
0.0041138986 -0.10623022 -0.004380499 0
0.0047000055 -0.10673011 -0.0014620512 0
0.0046999939 -0.10637529 0.0015589965 0
0.0043889051 -0.10670155 0.0041985624 0
-0.0043585752 -0.10351296 -0.0042826668 0
-0.0046999939 -0.10339839 -0.0015484886 0
-0.004700006 -0.10354599 0.0013845109 0
-0.0043362775 -0.10339688 0.0042365887 0
-0.0010842098 -0.10340411 -0.0046996297 0
-0.0013845105 -0.10344744 0.0047003715 0
0.0015618326 -0.10381553 -0.00469962 0
0.0017744955 -0.10355412 0.0047003822 0
0.004369597 -0.1035122 -0.0042139497 0
0.0047000055 -0.10352517 -0.0015526845 0
0.0046999962 -0.10343548 0.0013171702 0
0.0042499267 -0.10318282 0.004380988 0
-0.0043557896 -0.10057074 -0.0042456021 0
-0.0046999957 -0.1004996 -0.0013638661 0
-0.0047000065 -0.10065402 0.0013960801 0
-0.0042124982 -0.10052027 0.0042923689 0
-0.001540216 -0.10041398 -0.0046996428 0
-0.001474662 -0.10031599 0.0047003599 0
0.0013927049 -0.10073531 -0.0046996297 0
0.0016051705 -0.10059146 0.0047003711 0
0.0043935985 -0.10038248 -0.0041609202 0
0.004700006 -0.10058584 -0.0014111538 0
0.0046999957 -0.10050343 0.0013893567 0
0.0042827618 -0.10036255 0.0043108761 0
-0.0042296834 -0.09734413 -0.0043311147 0
-0.0046999957 -0.097444445 -0.0015377669 0
-0.004700006 -0.097481005 0.0014026755 0
-0.0042817942 -0.097486384 0.0042668721 0
-0.0014672178 -0.097574696 -0.0046996535 0
-0.0014949635 -0.097348616 0.0047003468 0
0.0012628965 -0.097687118 -0.0046996432 0
0.0017630297 -0.097440585 0.0047003599 0
0.0043436717 -0.097403675 -0.0043002958 0
0.004700006 -0.097512484 -0.0014635446 0
0.0046999967 -0.097503789 0.0013938897 0
0.0043077311 -0.097487435 0.0042798617 0
-0.0042574606 -0.094607398 -0.0041364469 0
-0.0046999943 -0.094651356 -0.0017143353 0
-0.0047000065 -0.094289102 0.001518422 0
-0.0041336459 -0.094713651 0.0044864188 0
-0.0017513297 -0.094291992 -0.0046996651 0
-0.0012650574 -0.094401717 0.0047003371 0
0.001294157 -0.09433683 -0.0046996535 0
0.0011606755 -0.09411598 0.0047003445 0
0.0042608287 -0.094356626 -0.0044269795 0
0.0047000069 -0.094552152 -0.0013774221 0
0.0046999953 -0.094424933 0.0014822446 0
0.0042259633 -0.09447109 0.0042229928 0
-0.0042393678 -0.091603711 -0.0042444025 0
-0.0046999957 -0.091209024 -0.0013557781 0
-0.0047000055 -0.09182626 0.0014091519 0
-0.0043232427 -0.091652021 0.0042420737 0
-0.0014715157 -0.091354258 -0.0046996754 0
-0.0014172172 -0.091141403 0.0047003254 0
0.0016234068 -0.091540128 -0.0046996633 0
0.0016252364 -0.091479182 0.0047003366 0
0.0043298751 -0.091371581 -0.0043168925 0
0.0047000065 -0.091360509 -0.0015990571 0
0.0046999962 -0.091487601 0.0013599079 0
0.0041446621 -0.091560051 0.0044058734 0
-0.0042791381 -0.088660881 -0.004224116 0
-0.0046999953 -0.0886316 -0.0015623883 0
-0.0047000069 -0.088336028 0.0016649741 0
-0.0043422026 -0.088449933 0.0043159625 0
-0.0016707992 -0.088568099 -0.0046996856 0
-0.0012702643 -0.088605948 0.0047003184 0
0.0016288884 -0.088491164 -0.0046996749 0
0.0013950038 -0.088282011 0.0047003259 0
0.0042914604 -0.088620663 -0.0043509626 0
0.0047000051 -0.088488922 -0.0014902571 0
0.0046999962 -0.088189207 0.0012671766 0
0.0043980023 -0.088163421 0.0043102452 0
-0.004225635 -0.085715503 -0.0043805349 0
-0.0046999948 -0.08526691 -0.0015405902 0
-0.0047000065 -0.085555077 0.0015497193 0
-0.0042325975 -0.085413463 0.0043703755 0
-0.0016124316 -0.085611217 -0.0046996968 0
-0.0015557283 -0.085434563 0.0047003045 0
0.0014804932 -0.085420184 -0.0046996861 0
0.0013474354 -0.085491806 0.0047003157 0
0.0041255541 -0.085387155 -0.0042880317 0
0.0047000055 -0.085441634 -0.0014167295 0
0.0046999953 -0.085605904 0.0014130271 0
0.0042902045 -0.085434221 0.0041505196 0
-0.0042651808 -0.082460053 -0.0042000161 0
-0.0046999939 -0.082670689 -0.0015209796 0
-0.0047000055 -0.082613379 0.0013703004 0
-0.0044536726 -0.082220882 0.004240918 0
-0.0013812645 -0.082547836 -0.0046997066 0
-0.0012995668 -0.082607798 0.0047002938 0
0.0015182919 -0.082277618 -0.0046996968 0
0.0013981947 -0.082676642 0.004700304 0
0.0043348237 -0.082561255 -0.0042704172 0
0.0047000065 -0.082443438 -0.0015604834 0
0.0046999957 -0.08247567 0.0014526494 0
0.0042623077 -0.082315095 0.0041186754 0
-0.0042921957 -0.079660997 -0.0043061012 0
-0.0046999943 -0.079278037 -0.0016177212 0
-0.0047000051 -0.07979624 0.0015720018 0
-0.0043284474 -0.07946834 0.0042478493 0
-0.0015065843 -0.079302609 -0.0046997196 0
-0.0015125544 -0.079320259 0.0047002826 0
0.0014929235 -0.079357997 -0.004699708 0
0.001295694 -0.079406403 0.0047002928 0
0.004196241 -0.079334036 -0.0043597082 0
0.0047000051 -0.0797249 -0.0015543492 0
0.0046999948 -0.079689518 0.0016423914 0
0.0043141046 -0.07938946 0.0041767564 0
-0.0041611791 -0.076618254 -0.004290523 0
-0.0046999962 -0.076614052 -0.0012354694 0
-0.0047000041 -0.076659679 0.0013522863 0
-0.0043142587 -0.076525316 0.0042758076 0
-0.0016847644 -0.076448254 -0.0046997298 0
-0.0016065337 -0.076686874 0.0047002728 0
0.0017499288 -0.07655146 -0.0046997182 0
0.0015454039 -0.076262839 0.0047002826 0
0.0042455816 -0.076420814 -0.0042821779 0
0.0047000051 -0.076850355 -0.0014764854 0
0.0046999953 -0.076586463 0.0015231752 0
0.0042279563 -0.076474659 0.0041824556 0
-0.0042180321 -0.073521428 -0.0041065835 0
-0.0046999962 -0.073587157 -0.001521002 0
-0.0047000065 -0.07348045 0.0016964995 0
-0.0042258827 -0.073782772 0.0043994477 0
-0.0016130785 -0.073579341 -0.0046997387 0
-0.0016056792 -0.073313884 0.0047002602 0
0.0015380689 -0.073617712 -0.0046997289 0
0.0015080562 -0.073448695 0.0047002723 0
0.0041534831 -0.073515333 -0.0042840214 0
0.0047000046 -0.073436372 -0.0013633281 0
0.0046999957 -0.073324889 0.0014080281 0
0.0042894743 -0.073576055 0.0042440849 0
-0.0092086596 -0.069503769 -0.0015188584 0
-0.00917577 -0.069766216 0.0013114306 0
-0.0067189275 -0.069784999 -0.0063555902 0
-0.0072854031 -0.069860213 -0.0043356339 0
-0.0076188231 -0.069974415 -0.0015766064 0
-0.0076253582 -0.069999978 0.0014181091 0
-0.0074153459 -0.069913708 0.004361657 0
-0.0064445259 -0.069657288 0.0064432141 0
-0.0045919879 -0.069823228 -0.0073631215 0
-0.0045343037 -0.070497543 -0.0044586132 0
-0.0049252976 -0.070556059 -0.0011640121 0
-0.0048755775 -0.070961259 0.0014414972 0
-0.004734301 -0.070461661 0.0043973303 0
-0.0044961651 -0.069804683 0.0074082064 0
-0.0011945302 -0.069619074 -0.0092054736 0
-0.0013557549 -0.070000045 -0.0072678346 0
-0.001609033 -0.070637107 -0.0049239723 0
-0.0015016288 -0.070581123 0.0050532306 0
-0.001733391 -0.069988728 0.0076618521 0
-0.0015056131 -0.069715664 0.0091773532 0
0.0013731665 -0.069609262 -0.0091829291 0
0.0015509377 -0.069984175 -0.0075499588 0
0.0014224404 -0.070625789 -0.0048879287 0
0.0015041233 -0.070700034 0.0049241139 0
0.0017706774 -0.069979973 0.0073711984 0
0.0017258507 -0.069590621 0.0091575347 0
0.0041904105 -0.06978678 -0.0075704646 0
0.0045649973 -0.070442356 -0.0046463716 0
0.004931184 -0.070543751 -0.0015064247 0
0.0049471888 -0.070625097 0.001583218 0
0.0044115754 -0.070510447 0.0046183136 0
0.004492505 -0.069854125 0.0073623462 0
0.0066448371 -0.069828182 -0.0064498964 0
0.0075382213 -0.069774732 -0.0043273377 0
0.0075292126 -0.069952562 -0.0014921449 0
0.0076214718 -0.069938712 0.0015517219 0
0.0074991933 -0.069842279 0.0042932532 0
0.0063405517 -0.069639221 0.0066608246 0
0.0092443498 -0.069653258 -0.0011063099 0
0.0091979653 -0.069724903 0.00085070386 0
-0.0092028771 -0.06751141 -0.0014831818 0
-0.0092323655 -0.067280836 0.0013187712 0
-0.0065352311 -0.067357488 -0.0066019371 0
-0.0079805814 -0.067622922 -0.0046802424 0
-0.0088849915 -0.066168107 -0.0028942914 0
-0.0089321723 -0.067099474 0.0027862373 0
-0.0081144013 -0.067638144 0.00448125 0
-0.00653366 -0.067295104 0.0066102115 0
-0.0047295848 -0.0677246 -0.0079281433 0
-0.0044313138 -0.067370005 0.0081110448 0
-0.0014234058 -0.0675506 -0.0092178881 0
-0.0028737772 -0.068457469 -0.008893759 0
-0.0028046132 -0.067724906 0.0089243306 0
-0.0014249646 -0.067378387 0.009221754 0
0.0015615284 -0.067409106 -0.0091940351 0
0.0027765103 -0.067359045 -0.0089360606 0
0.0027538212 -0.067216128 0.0089464057 0
0.0011655367 -0.067512222 0.0092496797 0
0.0047448622 -0.067386091 -0.0079387231 0
0.0046061873 -0.067670144 0.0080315825 0
0.0065294541 -0.067451112 -0.0066046813 0
0.0080270497 -0.067215331 -0.0046035959 0
0.0089115249 -0.067798346 -0.00283324 0
0.0089282421 -0.067301355 0.0027952965 0
0.0081694406 -0.06758865 0.0043411143 0
0.0064052055 -0.067439198 0.0067356355 0
0.0092120888 -0.067364924 -0.0014762187 0
0.0092275711 -0.067588225 0.0013640452 0
-0.0092378249 -0.064293668 -0.0012865402 0
-0.009197019 -0.064466901 0.0015718122 0
-0.0065066777 -0.064487077 -0.0066295648 0
-0.0081195431 -0.064603806 -0.0044253636 0
-0.0088964636 -0.064936697 -0.0028679103 0
-0.0089197597 -0.064600997 0.002814777 0
-0.0079869851 -0.064609088 0.0046687089 0
-0.0064811842 -0.064328939 0.0066694086 0
-0.0047121299 -0.064322881 -0.007968327 0
-0.0045132865 -0.064630464 0.0080766855 0
-0.0013551408 -0.064797446 -0.0092281764 0
-0.0028593354 -0.064174749 -0.0089000547 0
-0.0027539039 -0.065064423 0.0089463685 0
-0.0015199855 -0.064401366 0.0092044836 0
0.0014223921 -0.064713821 -0.009217673 0
0.0027948834 -0.064729653 -0.008928082 0
0.0027946273 -0.064373806 0.0089286529 0
0.0014523846 -0.064432375 0.0092126522 0
0.0047458336 -0.064716004 -0.0079479748 0
0.0043847454 -0.064455561 0.0081587452 0
0.0065365015 -0.064399578 -0.0065964777 0
0.007883464 -0.064490773 -0.0048403339 0
0.0089355642 -0.064614832 -0.0027779595 0
0.0089385333 -0.064910002 0.0027716178 0
0.0080962889 -0.064381875 0.004474096 0
0.0065901056 -0.064272165 0.0065669902 0
0.0092390999 -0.064253502 -0.0012495315 0
0.0092210798 -0.064714476 0.0013655483 0
-0.0092478637 -0.061499469 -0.0012168736 0
-0.009258505 -0.06140542 0.0011110269 0
-0.0066255135 -0.061767396 -0.0065105632 0
-0.0081145354 -0.06167344 -0.0044666785 0
-0.0089354673 -0.06172723 -0.0027782121 0
-0.0089287693 -0.061716322 0.0027940455 0
-0.0080239689 -0.061375771 0.0046321801 0
-0.0066046906 -0.061317716 0.0065247403 0
-0.0046163043 -0.061518919 -0.0080164513 0
-0.0044768164 -0.06153008 0.0081050936 0
-0.0012188834 -0.061446086 -0.0092455857 0
-0.0028457828 -0.061125811 -0.0089059565 0
-0.0027380355 -0.061936177 0.0089532575 0
-0.0014042582 -0.0613763 0.0092228623 0
0.0014589075 -0.061539046 -0.0092168804 0
0.0028216096 -0.061818983 -0.0089164721 0
0.0027248778 -0.06112672 0.0089589683 0
0.0012659164 -0.061458822 0.00923762 0
0.0046165632 -0.061541673 -0.0080268858 0
0.0042339596 -0.061529152 0.0082491562 0
0.0066289594 -0.061315056 -0.0064951694 0
0.0081587257 -0.061429337 -0.004376729 0
0.0089525497 -0.061372183 -0.0027389056 0
0.0088906186 -0.061390743 0.0028818089 0
0.0081480872 -0.061438993 0.0043949261 0
0.0065289973 -0.061144389 0.0066122701 0
0.0092561934 -0.061517198 -0.0011393809 0
0.0092465589 -0.061215259 0.0012043614 0
-0.0092447521 -0.058407053 -0.001219827 0
-0.0092182131 -0.058442641 0.001417487 0
-0.0065660747 -0.058644071 -0.0065603005 0
-0.0080711795 -0.058578562 -0.0045113442 0
-0.0088995881 -0.05810203 -0.0028607489 0
-0.0089059584 -0.058750425 0.0028465006 0
-0.0081117786 -0.05847026 0.0044473726 0
-0.0066019255 -0.058568563 0.0065306607 0
-0.0044506397 -0.058568366 -0.0081142383 0
-0.0043066996 -0.058481872 0.0081779202 0
-0.001366375 -0.058646508 -0.0092234639 0
-0.0028232753 -0.058768082 -0.0089157531 0
-0.0027993466 -0.058072016 0.0089265862 0
-0.0013195678 -0.05840097 0.0092303837 0
0.0015044791 -0.058603823 -0.0092079276 0
0.0028377108 -0.058367897 -0.0089094844 0
0.0028779667 -0.057523463 0.0088923937 0
0.0014080269 -0.058462363 0.0092173936 0
0.0048178341 -0.058316093 -0.0078976685 0
0.0047882972 -0.058554046 0.0078907544 0
0.0065971944 -0.058308735 -0.0065526227 0
0.0081356457 -0.058587983 -0.0044188038 0
0.0089145005 -0.057915069 -0.0028264313 0
0.0089248167 -0.058384605 0.0028031415 0
0.0080378707 -0.058434967 0.0045733131 0
0.0064922264 -0.058752514 0.0066574966 0
0.0092730504 -0.05865135 -0.00099164713 0
0.0092481961 -0.058724433 0.0012146321 0
-0.0092257829 -0.055432543 -0.0013511096 0
-0.0092291171 -0.05565061 0.0013550875 0
-0.0065588681 -0.055328589 -0.0065733129 0
-0.0080770971 -0.055486515 -0.0045046997 0
-0.0089444099 -0.056088727 -0.0027576659 0
-0.0089269793 -0.055668414 0.0027981424 0
-0.0079331258 -0.055682413 0.0047382768 0
-0.0066034542 -0.055435009 0.0065344758 0
-0.0045246463 -0.055481024 -0.0080820862 0
-0.0042979755 -0.055490941 0.0081732674 0
-0.0010811243 -0.055681173 -0.009262355 0
-0.0027989931 -0.055197552 -0.0089263218 0
-0.0027484114 -0.055441398 0.0089487219 0
-0.0011925558 -0.055302523 0.0092483517 0
0.001291689 -0.055387683 -0.0092319716 0
0.0028974013 -0.055199254 -0.0088835433 0
0.0028408333 -0.054989204 0.0089085298 0
0.0012482047 -0.055686124 0.0092405807 0
0.0042686746 -0.055479683 -0.0082130488 0
0.0045264508 -0.055505302 0.0080823721 0
0.0067335297 -0.05523761 -0.0063978536 0
0.0079767313 -0.055457074 -0.0046912585 0
0.0089108031 -0.05536779 -0.0028349445 0
0.0089575863 -0.056098711 0.0027277668 0
0.008185762 -0.055647992 0.0043191873 0
0.0066861939 -0.055494759 0.0064365994 0
0.0092377057 -0.055507358 -0.0012475469 0
0.0092239082 -0.055590019 0.0013700182 0
-0.0092126969 -0.052437697 -0.0014487763 0
-0.0092367418 -0.052553628 0.0012998251 0
-0.0065557244 -0.052600872 -0.0065789572 0
-0.0080252457 -0.052467268 -0.0046122158 0
-0.0088973045 -0.05257557 -0.0028660176 0
-0.0089499112 -0.052403763 0.0027453871 0
-0.0081352564 -0.052441891 0.0044149966 0
-0.006609777 -0.052526698 0.0065295445 0
-0.0045917705 -0.052664857 -0.0080413232 0
-0.0045490237 -0.052374877 0.0080774082 0
-0.0013571359 -0.052374452 -0.0092277061 0
-0.0028445371 -0.051595356 -0.0089065321 0
-0.0028617312 -0.05213299 0.008899441 0
-0.0013482446 -0.052472908 0.0092268512 0
0.001203657 -0.052485313 -0.0092452634 0
0.0027714793 -0.053244472 -0.0089382995 0
0.002830304 -0.052538145 0.0089130979 0
0.0013666021 -0.052501567 0.0092250649 0
0.0048663877 -0.05243475 -0.0078607351 0
0.0044924966 -0.052635089 0.008085574 0
0.0065886742 -0.052589815 -0.0065418156 0
0.0080869943 -0.052766576 -0.0044862153 0
0.0089314291 -0.052788418 -0.0027875134 0
0.0089348638 -0.052854594 0.002780016 0
0.0081018005 -0.052281871 0.0045011216 0
0.0065139038 -0.05225401 0.006617052 0
0.0092477174 -0.052428056 -0.0012140723 0
0.0092248339 -0.05248728 0.0013727078 0
-0.0092047323 -0.049589146 -0.0015365781 0
-0.0092235655 -0.04961431 0.0014013357 0
-0.0065704118 -0.049498901 -0.0065759812 0
-0.0081371032 -0.049547561 -0.00443165 0
-0.008966363 -0.048217356 -0.0027071999 0
-0.0089157987 -0.049046349 0.0028238336 0
-0.0080637624 -0.049421556 0.0045078662 0
-0.0066297534 -0.049586348 0.0065101925 0
-0.0046199625 -0.049628615 -0.008025012 0
-0.0046209032 -0.049238008 0.0080242893 0
-0.0016284502 -0.04944649 -0.0091874031 0
-0.0028006709 -0.04888811 -0.0089256158 0
-0.0028329773 -0.04948318 0.0089119319 0
-0.0012733437 -0.049530003 0.0092347916 0
