# .PCD v0.7 - Point Cloud Data file format
VERSION 0.7
FIELDS x y z rgb
SIZE 4 4 4 4
TYPE F F F F
COUNT 1 1 1 1
WIDTH 1193
HEIGHT 1
VIEWPOINT 0 0 0 1 0 0 0
POINTS 1193
DATA ascii
-0.0050000055 -0.31931368 0.0016554614 0
-0.0050000167 -0.31924891 0.0044604763 0
-0.0050000274 -0.31955284 0.0074370597 0
-0.0050000395 -0.31956351 0.010760495 0
-0.0050000502 -0.31951192 0.013702893 0
-0.005000059 -0.31912935 0.016215956 0
-0.0050000711 -0.31951493 0.01959732 0
-0.0050000814 -0.3193641 0.02237949 0
-0.005000093 -0.31950814 0.02549536 0
-0.0050001023 -0.31957254 0.028438341 0
-0.005000114 -0.31947213 0.031248363 0
-0.0050001261 -0.31962502 0.034842491 0
-0.0050001363 -0.31939211 0.037559357 0
-0.0050001484 -0.31936404 0.040910643 0
-0.0050001573 -0.31977445 0.043393556 0
-0.0042554606 -0.31929353 0.045001145 0
-0.0014978467 -0.31936824 -0.044998854 0
-0.00030990705 -0.32046711 -0.043586191 0
-0.00011472144 -0.3204596 -0.040617753 0
-0.00056724664 -0.31970161 -0.036950842 0
-0.0022500921 -0.31959853 -0.034437422 0
-0.0024438838 -0.31955206 -0.031176087 0
-0.0024387199 -0.31951067 -0.028327487 0
-0.0024385881 -0.31950954 -0.02569286 0
-0.0024402316 -0.31952256 -0.022520006 0
-0.0024095948 -0.31927741 -0.019276621 0
-0.0024549491 -0.31964019 -0.0165477 0
-0.002476539 -0.3198128 -0.013528938 0
-0.0024222713 -0.31937853 -0.010663642 0
-0.0024636292 -0.31970924 -0.0074837795 0
-0.0024410761 -0.31952879 -0.0042143934 0
-0.0024179455 -0.31934363 -0.0014734127 0
-0.0024634849 -0.31970787 0.0016046554 0
-0.0024660714 -0.31972843 0.0044916323 0
-0.0024259207 -0.31940717 0.0074087414 0
-0.0024482817 -0.31958592 0.010582315 0
-0.0024266497 -0.31941274 0.013490084 0
-0.0024799961 -0.31983948 0.016683076 0
-0.0024486254 -0.31958839 0.019737456 0
-0.0024565496 -0.31965166 0.022484725 0
-0.0024480154 -0.31958333 0.025237052 0
-0.0024084959 -0.31926703 0.028522231 0
-0.0024360241 -0.31948718 0.031613413 0
-0.0022290151 -0.31949279 0.034722291 0
-0.00041643751 -0.31991875 0.037140917 0
-0.00012741452 -0.32050896 0.040511094 0
-9.2992675e-05 -0.32037121 0.043219104 0
-0.0012843902 -0.31930041 0.045001164 0
0.00020236234 -0.31806079 -0.044998851 0
0.00020616889 -0.31917608 -0.043722976 0
0.00023111935 -0.31907627 -0.040310461 0
0.00025257768 -0.31859839 -0.037985269 0
0.00026660104 -0.31880617 0.038030017 0
0.00030118041 -0.31879455 0.040596835 0
0.00032226354 -0.31871015 0.04368845 0
0.00028040129 -0.31842533 0.045001153 0
-0.0041111703 -0.31659278 -0.044998877 0
-0.004999842 -0.31679127 -0.043567985 0
-0.0049998546 -0.31639555 -0.040283743 0
-0.0049998648 -0.31632265 -0.037410118 0
-0.0049998756 -0.31670344 -0.034437753 0
-0.0049998872 -0.3161872 -0.031152157 0
-0.0049998974 -0.31639373 -0.028610848 0
-0.0049999091 -0.31645504 -0.025287073 0
-0.0049999189 -0.31632856 -0.022612767 0
-0.00499993 -0.31612471 -0.019533643 0
-0.0049999403 -0.31625465 -0.016309833 0
-0.0049999519 -0.31634784 -0.013253292 0
-0.0049999626 -0.3165127 -0.010491578 0
-0.0049999724 -0.31668016 -0.007730579 0
-0.0049999831 -0.31642604 -0.0046717115 0
-0.0049999948 -0.31638804 -0.0015216843 0
-0.0050000059 -0.3164044 0.0014917885 0
-0.0050000157 -0.31652597 0.0041288775 0
-0.0050000288 -0.31642804 0.0077310097 0
-0.005000039 -0.31641519 0.010512416 0
-0.0050000488 -0.3165479 0.013430576 0
-0.0050000586 -0.31617609 0.016150942 0
-0.0050000721 -0.31638053 0.019719396 0
-0.0050000809 -0.3167305 0.022292223 0
-0.0050000921 -0.3164027 0.025300328 0
-0.0050001023 -0.31664774 0.028335102 0
-0.0050001126 -0.31642878 0.03120357 0
-0.0050001256 -0.31671754 0.034628276 0
-0.0050001349 -0.31643006 0.037077542 0
-0.005000147 -0.31619075 0.0405812 0
-0.0050001568 -0.31624913 0.043280344 0
-0.0038584277 -0.31654203 0.045001142 0
-0.0013477723 -0.31629324 -0.044998873 0
-0.00055373064 -0.31696019 -0.036565002 0
-0.0018801639 -0.31659132 -0.034690261 0
-0.0020560024 -0.31644908 -0.031449374 0
-0.0020784747 -0.31662872 -0.028377302 0
-0.0020696034 -0.31655765 -0.025624471 0
-0.0020886224 -0.31670976 -0.022691064 0
-0.0020239828 -0.31619251 -0.019670028 0
-0.0020476952 -0.31638214 -0.016744966 0
-0.0020661165 -0.31652942 -0.013645384 0
-0.002040314 -0.31632286 -0.010374516 0
-0.0020415056 -0.31633231 -0.0075895032 0
-0.0020552825 -0.3164424 -0.0045891134 0
-0.0020458961 -0.31636724 -0.0015854307 0
-0.0020514128 -0.31641123 0.0014812667 0
-0.0020705003 -0.3165639 0.0042268368 0
-0.0020778826 -0.31662288 0.0076514217 0
-0.0020172943 -0.316138 0.010766065 0
-0.0020659268 -0.31652698 0.013082082 0
-0.0020693804 -0.31655449 0.016529188 0
-0.0020707774 -0.3165656 0.01941197 0
-0.002028367 -0.31622618 0.022928026 0
-0.0020654965 -0.31652313 0.02571276 0
-0.0020717375 -0.31657302 0.028288342 0
-0.0020700372 -0.31655926 0.031628657 0
-0.0017260975 -0.31631562 0.03478257 0
-0.00061539683 -0.31661135 0.036462311 0
-0.0011978891 -0.31632975 0.045001145 0
0.00049567968 -0.31642425 -0.044998862 0
0.00086967699 -0.31652209 -0.043338209 0
0.00083538773 -0.31665915 -0.040425025 0
0.0007019717 -0.31638366 -0.037943985 0
0.00063985772 -0.31657246 0.037849266 0
0.00085969275 -0.31656051 0.040462308 0
0.00083749805 -0.3166492 0.043620642 0
0.00036822478 -0.316504 0.045001153 0
-0.0039093206 -0.31350833 -0.044998888 0
-0.0049991123 -0.31342444 -0.043459591 0
-0.0049998523 -0.31357124 -0.040678639 0
-0.0049998644 -0.31359953 -0.037634809 0
-0.0049998756 -0.31380725 -0.034487557 0
-0.0049998872 -0.31357893 -0.031228641 0
-0.0049998956 -0.31401521 -0.028783796 0
-0.0049999082 -0.31375208 -0.025591156 0
-0.0049999189 -0.3132759 -0.022698546 0
-0.00499993 -0.31376678 -0.019428276 0
-0.0049999398 -0.31332234 -0.016643334 0
-0.0049999515 -0.31343463 -0.013693372 0
-0.0049999617 -0.31366214 -0.010782457 0
-0.0049999738 -0.3138383 -0.0074664811 0
-0.004999985 -0.31348994 -0.0043067597 0
-0.0049999948 -0.31341162 -0.0014254752 0
-0.0050000055 -0.31378883 0.0014513284 0
-0.0050000176 -0.31365934 0.0046506114 0
-0.0050000269 -0.31354329 0.0073323883 0
-0.0050000385 -0.31351882 0.010411025 0
-0.0050000479 -0.31347445 0.01342127 0
-0.0050000595 -0.31329459 0.016377883 0
-0.0050000702 -0.3135913 0.019260516 0
-0.0050000828 -0.31350023 0.022577375 0
-0.005000094 -0.31344429 0.025720444 0
-0.0050001037 -0.31355143 0.028465232 0
-0.0050001135 -0.31358734 0.031342339 0
-0.0050001238 -0.31345415 0.034328301 0
-0.0050001349 -0.31345659 0.03747578 0
-0.0050001475 -0.31357905 0.040543109 0
-0.0050001577 -0.31342736 0.043730579 0
-0.0038549241 -0.31325248 0.045001127 0
-0.0015625338 -0.31353873 -0.04499888 0
-0.00028212302 -0.31381711 -0.036443736 0
-0.0014305185 -0.31365266 -0.034868143 0
-0.0016711025 -0.31336987 -0.031434312 0
-0.0016615571 -0.31329334 -0.028757514 0
-0.0016987859 -0.31359106 -0.02541673 0
-0.0016474533 -0.31318039 -0.022529118 0
-0.0017049309 -0.31364009 -0.01915404 0
-0.001698014 -0.31358463 -0.016281012 0
-0.0016985368 -0.31358874 -0.013254117 0
-0.0016756774 -0.31340575 -0.010328767 0
-0.0016874408 -0.31349978 -0.0076740696 0
-0.0016907298 -0.31352597 -0.0043364111 0
-0.0016602415 -0.31328192 -0.0013232948 0
-0.001655935 -0.31324741 0.0015241513 0
-0.0017263233 -0.31381041 0.0041958103 0
-0.0016905252 -0.31352398 0.0073790317 0
-0.0016981055 -0.31358457 0.0103 0
-0.0016598833 -0.31327862 0.013552843 0
-0.0016725324 -0.31337976 0.016440641 0
-0.0016935106 -0.31354746 0.01969156 0
-0.00171192 -0.31369466 0.022321189 0
-0.0017047456 -0.31363711 0.025612628 0
-0.0016846678 -0.31347644 0.02838961 0
-0.001698182 -0.31358439 0.031592455 0
-0.0013938203 -0.31341794 0.03489846 0
-0.0003379586 -0.31312436 0.036303863 0
-0.0015841118 -0.31363237 0.045001131 0
0.0010187783 -0.31343207 -0.044998869 0
0.0015631879 -0.31374809 -0.043562591 0
0.0016575576 -0.3133705 -0.040433332 0
0.00095299236 -0.31353256 -0.037715402 0
0.0010832879 -0.31341785 0.037878614 0
0.0016481734 -0.31340662 0.0403223 0
0.0016367525 -0.31345218 0.043279003 0
0.00090164394 -0.31341389 0.045001149 0
-0.0040890635 -0.31050906 -0.044998899 0
-0.0049998434 -0.31035906 -0.043530546 0
-0.0049998527 -0.31067538 -0.040716752 0
-0.0049998653 -0.31073755 -0.037319601 0
-0.004999877 -0.3101989 -0.034220565 0
-0.0049998853 -0.31055102 -0.031746536 0
-0.004999897 -0.31069595 -0.028617978 0
-0.0049999063 -0.31035933 -0.02557878 0
-0.0049999184 -0.31001338 -0.022427052 0
-0.0049999305 -0.31054577 -0.01945097 0
-0.0049999412 -0.3105427 -0.016496725 0
-0.004999951 -0.31059629 -0.013652615 0
-0.0049999617 -0.31059122 -0.010581659 0
-0.0049999738 -0.31086215 -0.0073481058 0
-0.0049999845 -0.31044891 -0.0043671173 0
-0.0049999966 -0.3104946 -0.0010776718 0
-0.0050000059 -0.3103973 0.0017273579 0
-0.0050000171 -0.31058547 0.0045772968 0
-0.0050000264 -0.31040907 0.0074511948 0
-0.0050000381 -0.3105666 0.010459227 0
-0.0050000502 -0.31041515 0.013600878 0
-0.0050000604 -0.31026864 0.016487963 0
-0.0050000693 -0.31065109 0.019145764 0
-0.0050000818 -0.3105996 0.022408016 0
-0.0050000921 -0.31062266 0.025246158 0
-0.0050001042 -0.31038317 0.028680315 0
-0.005000114 -0.31058571 0.031260084 0
-0.0050001252 -0.31074569 0.0343774 0
-0.0050001363 -0.31020868 0.037381414 0
-0.0050001484 -0.31030118 0.040862385 0
-0.0050001577 -0.31067196 0.043486848 0
-0.0040705209 -0.31064886 0.045001123 0
-0.0015166906 -0.31050122 -0.044998877 0
-0.00015773064 -0.3109988 -0.036215845 0
-0.0011047253 -0.31041178 -0.034649372 0
-0.0013191964 -0.31055462 -0.031544615 0
-0.0013042026 -0.31043455 -0.028506393 0
-0.0013227952 -0.31058317 -0.025331615 0
-0.0013401975 -0.31072238 -0.022466816 0
-0.001282902 -0.31026384 -0.019902714 0
-0.0013263677 -0.31061152 -0.016617477 0
-0.001317315 -0.31053898 -0.0134657 0
-0.0012719657 -0.31017601 -0.010399863 0
-0.0012985455 -0.31038862 -0.0073255259 0
-0.0013286924 -0.31062973 -0.0045780605 0
-0.0013343621 -0.31067491 -0.0012317109 0
-0.0013269313 -0.31061539 0.0016167056 0
-0.0013051759 -0.31044129 0.0047955564 0
-0.0013501419 -0.31080088 0.0073138229 0
-0.0013156922 -0.31052518 0.01058229 0
-0.00125495 -0.31003913 0.013618356 0
-0.001362646 -0.3109006 0.016685707 0
-0.0013150061 -0.31051946 0.019579854 0
-0.0013194826 -0.31055513 0.022456471 0
-0.0013070788 -0.3104558 0.025856741 0
-0.0013035889 -0.31042781 0.028690152 0
-0.0012908559 -0.31032577 0.031740494 0
-0.0010710491 -0.3107146 0.034840554 0
-0.00015678702 -0.31130013 0.036257003 0
-0.0014720968 -0.31026188 0.045001127 0
0.001174219 -0.3103728 -0.044998877 0
0.0023478488 -0.31060943 -0.043496113 0
0.0024202773 -0.31031963 -0.040501241 0
0.0011459092 -0.31047934 -0.037460864 0
0.0011299227 -0.31051281 0.037467901 0
0.0024567775 -0.31017217 0.040700443 0
0.0023900683 -0.3104389 0.043209579 0
0.0013467525 -0.31009132 0.045001134 0
-0.0039100847 -0.30769759 -0.04499891 0
-0.0049998434 -0.30769241 -0.043489821 0
-0.0049998532 -0.30766058 -0.040525254 0
-0.004999863 -0.30781814 -0.0378232 0
-0.0049998746 -0.30737978 -0.034465794 0
-0.0049998863 -0.30743098 -0.031553771 0
-0.0049998988 -0.30761704 -0.028217422 0
-0.0049999077 -0.30775094 -0.025677908 0
-0.0049999184 -0.30753499 -0.022660311 0
-0.00499993 -0.30763271 -0.019380338 0
-0.0049999407 -0.30735829 -0.01626103 0
-0.0049999515 -0.30749208 -0.013441173 0
-0.0049999636 -0.30749816 -0.01022336 0
-0.0049999729 -0.30735373 -0.0075976239 0
-0.0049999845 -0.30755219 -0.0043382919 0
-0.0049999957 -0.30715075 -0.0012925903 0
-0.0050000055 -0.30768299 0.0012592782 0
-0.0050000157 -0.30759123 0.0042416858 0
-0.0050000278 -0.307524 0.0075095883 0
-0.0050000381 -0.30739823 0.010533164 0
-0.0050000483 -0.30748409 0.013238023 0
-0.00500006 -0.30753475 0.016316313 0
-0.0050000697 -0.30757827 0.019422825 0
-0.00500008 -0.30782625 0.022029061 0
-0.0050000912 -0.30747294 0.025242358 0
-0.0050001033 -0.30743429 0.028179998 0
-0.005000113 -0.30728939 0.031190563 0
-0.0050001256 -0.30719185 0.034528505 0
-0.0050001354 -0.30739036 0.037411317 0
-0.005000147 -0.30774561 0.040477373 0
-0.0050001564 -0.30742872 0.043115906 0
-0.004090074 -0.30744115 0.045001108 0
-0.0011895971 -0.3076264 -0.044998903 0
-6.2850588e-05 -0.3087945 -0.036035195 0
-0.00075482513 -0.30733773 -0.034378648 0
-0.00092429708 -0.30739543 -0.031610962 0
-0.00093890075 -0.30751216 -0.028651483 0
-0.00094538834 -0.30756393 -0.025669269 0
-0.00096134417 -0.30769145 -0.022284916 0
-0.00092827389 -0.30742684 -0.019290766 0
-0.00091646134 -0.30733225 -0.016425895 0
-0.00094719889 -0.30757803 -0.013798518 0
-0.0009309075 -0.30744761 -0.010528937 0
-0.00099442399 -0.30795562 -0.0072221328 0
-0.00090732903 -0.30725878 -0.0044734231 0
-0.00092283782 -0.30738276 -0.001584297 0
-0.00092838245 -0.30742699 0.0014602427 0
-0.00091423135 -0.30731368 0.0045472416 0
-0.00092811341 -0.30742466 0.0077798818 0
-0.00091218157 -0.30729714 0.010365742 0
-0.00093276508 -0.30746165 0.013569428 0
-0.00094165286 -0.30753267 0.016568566 0
-0.00090221316 -0.30721706 0.019841678 0
-0.00092619949 -0.30740881 0.022359004 0
-0.00094044581 -0.30752274 0.025540397 0
-0.00094312849 -0.30754408 0.028452082 0
-0.00091528735 -0.30732125 0.03158557 0
-0.00086885277 -0.3074429 0.034292333 0
-0.0018739656 -0.30739066 0.045001108 0
0.0015949187 -0.30755365 -0.044998888 0
0.0028848508 -0.3084614 -0.043868218 0
0.0028430454 -0.30862859 -0.040593833 0
0.0018076551 -0.30763882 -0.03776123 0
0.00012093806 -0.30667582 -0.035954162 0
7.4953532e-05 -0.30602098 0.035828825 0
0.0014206825 -0.3074075 0.03734789 0
0.0028896893 -0.30844051 0.040791102 0
0.0028499449 -0.30859944 0.043659046 0
0.0014534536 -0.30741298 0.045001131 0
0.0031208019 -0.30649063 -0.04499888 0
0.0032070009 -0.30717278 -0.043147068 0
0.0032496136 -0.3069559 -0.040163353 0
0.0031182189 -0.30674171 -0.038959652 0
0.0030701549 -0.30608007 0.038831443 0
0.0032243775 -0.30710182 0.040527258 0
0.0032295377 -0.30708104 0.043698791 0
-0.0040908311 -0.30446702 -0.044998921 0
-0.004999842 -0.30437201 -0.043626644 0
-0.0049998541 -0.30427057 -0.040336065 0
-0.0049998634 -0.30449831 -0.037782777 0
-0.004999876 -0.30436361 -0.034503486 0
-0.0049998872 -0.30453768 -0.031223845 0
-0.0049998974 -0.30423331 -0.028445108 0
-0.0049999072 -0.30474246 -0.025540339 0
-0.0049999193 -0.30420282 -0.022551669 0
-0.0049999282 -0.30447713 -0.019690972 0
-0.0049999412 -0.3046928 -0.016522801 0
-0.0049999524 -0.30472898 -0.013222874 0
-0.0049999617 -0.30430648 -0.010730674 0
-0.0049999724 -0.30449933 -0.0077732848 0
-0.0049999841 -0.30420792 -0.0043133735 0
-0.0049999952 -0.30465969 -0.0014056235 0
-0.005000005 -0.30460557 0.0015188444 0
-0.0050000162 -0.30430338 0.0043594418 0
-0.0050000269 -0.30451068 0.0076322011 0
-0.0050000376 -0.3044095 0.010443598 0
-0.0050000488 -0.30468237 0.013299842 0
-0.0050000595 -0.30461526 0.016471123 0
-0.0050000697 -0.30441844 0.019214151 0
-0.00500008 -0.30433813 0.022086058 0
-0.0050000926 -0.30442941 0.025465822 0
-0.0050001037 -0.30446255 0.02839482 0
-0.0050001126 -0.30446708 0.031511877 0
-0.0050001252 -0.30458638 0.034463204 0
-0.0050001345 -0.30451706 0.037097331 0
-0.0050001461 -0.30450752 0.040351175 0
-0.0050001568 -0.30402476 0.043285768 0
-0.0040164292 -0.30471036 0.045001101 0
-0.0014993375 -0.3043268 -0.04499891 0
-0.00050076959 -0.30464152 -0.034392159 0
-0.00055310328 -0.30442584 -0.031821225 0
-0.00055621186 -0.30445063 -0.028311089 0
-0.00057661498 -0.3046138 -0.026006946 0
-0.00056089094 -0.30448785 -0.022369415 0
-0.00055678107 -0.30445489 -0.019232446 0
-0.00057598972 -0.30460846 -0.016511705 0
-0.00052475312 -0.30419853 -0.013614269 0
-0.00056927488 -0.30455446 -0.01056019 0
-0.0005512287 -0.30441007 -0.0075454134 0
-0.00056022877 -0.30448201 -0.0046545984 0
-0.00058706594 -0.30469656 -0.0014242615 0
-0.00053668878 -0.30429348 0.001647116 0
-0.00059331983 -0.30474639 0.0045449026 0
-0.00055888505 -0.30447078 0.0073012677 0
-0.00056629797 -0.30453008 0.010852457 0
-0.00058790878 -0.30470282 0.01331623 0
-0.00054367166 -0.30434886 0.016225083 0
-0.00053988141 -0.30431843 0.019499775 0
-0.00054544356 -0.30436277 0.022576295 0
-0.00056975288 -0.30455717 0.02551592 0
-0.00055116584 -0.30440846 0.02814831 0
-0.00058035186 -0.30464178 0.031728957 0
-0.00045818088 -0.30444002 0.034463655 0
-0.001249801 -0.30436593 0.045001104 0
0.0017071887 -0.30429628 -0.044998884 0
0.0018025667 -0.30444625 -0.037357088 0
0.00019319181 -0.30456147 -0.035762131 0
0.00023072987 -0.30420515 0.035757624 0
0.0015923408 -0.30443573 0.037148062 0
0.0016708359 -0.30448952 0.045001116 0
0.0033859096 -0.30413622 -0.044998888 0
0.0038991962 -0.30440399 -0.043678105 0
0.0038470868 -0.30439281 -0.04006765 0
0.0031924827 -0.30411685 -0.038705815 0
0.0031821684 -0.30441549 0.038735379 0
0.0038414455 -0.30456996 0.040673923 0
0.0037827445 -0.30486822 0.043622695 0
0.0033790939 -0.30414733 0.045001119 0
-0.0036250097 -0.30120185 -0.044998925 0
-0.004999843 -0.30134517 -0.043549888 0
-0.0049998541 -0.30120367 -0.040568024 0
-0.0049998648 -0.30138466 -0.037572313 0
-0.0049998756 -0.3016144 -0.034334186 0
-0.0049998849 -0.30182049 -0.031670816 0
-0.004999896 -0.30145153 -0.028621059 0
-0.0049999082 -0.30193755 -0.025605747 0
-0.0049999203 -0.3012884 -0.022145206 0
-0.0049999291 -0.30139291 -0.019559439 0
-0.0049999431 -0.3015916 -0.015965521 0
-0.0049999505 -0.3015435 -0.013494004 0
-0.004999964 -0.30163789 -0.010218402 0
-0.0049999733 -0.30170155 -0.007618594 0
-0.0049999813 -0.30145711 -0.0051023448 0
-0.0049999957 -0.30167103 -0.0014523027 0
-0.0050000055 -0.30165625 0.0014736573 0
-0.0050000162 -0.30178264 0.0044055181 0
-0.0050000278 -0.30123973 0.0076839677 0
-0.0050000385 -0.30137855 0.01053595 0
-0.0050000492 -0.30123174 0.01342352 0
-0.005000059 -0.30186611 0.016038228 0
-0.0050000693 -0.30155295 0.019317253 0
-0.0050000814 -0.30187339 0.022418248 0
-0.0050000926 -0.30190533 0.025318218 0
-0.0050001033 -0.30133009 0.028431796 0
-0.005000114 -0.30166754 0.031526208 0
-0.0050001238 -0.30156139 0.034320313 0
-0.0050001359 -0.30136403 0.037464004 0
-0.0050001475 -0.301698 0.040502653 0
-0.0050001577 -0.30143106 0.043453403 0
-0.0038619312 -0.30146036 0.045001086 0
-0.0015200381 -0.30138293 -0.044998925 0
-0.00021751948 -0.3018046 -0.034050591 0
-0.00019321796 -0.30154678 -0.03126746 0
-0.0001709553 -0.30136856 -0.02853651 0
-0.00019959005 -0.3015976 -0.025828304 0
-0.00018146654 -0.30145243 -0.022413878 0
-0.00021467877 -0.30171809 -0.019614922 0
-0.00018162793 -0.30145353 -0.01626328 0
-0.00020346032 -0.30162811 -0.013404613 0
-0.00021190514 -0.30169559 -0.010647676 0
-0.000180248 -0.30144224 -0.0075792945 0
-0.00018824825 -0.30150622 -0.0043093772 0
-0.00019929653 -0.30159444 -0.0015551862 0
-0.00023095286 -0.30184758 0.001731244 0
-0.00018313517 -0.30146495 0.0043244385 0
-0.00020054825 -0.30160412 0.0074678953 0
-0.00019551143 -0.30156374 0.010531906 0
-0.00019467373 -0.30155694 0.013409507 0
-0.00016881757 -0.30135003 0.016705927 0
-0.00014464586 -0.30115652 0.019639222 0
-0.00016558764 -0.30132395 0.022250578 0
-0.00023112984 -0.30184826 0.025689902 0
-0.00020661866 -0.30165201 0.028597664 0
-0.00016118636 -0.30128846 0.031488903 0
-0.00014604107 -0.30131313 0.034118138 0
-0.0013478652 -0.3017495 0.045001082 0
0.0012693965 -0.30188176 -0.044998918 0
0.0016493213 -0.30183205 -0.036877081 0
0.00038566568 -0.30171484 -0.035598792 0
0.00045114689 -0.30153584 0.035644367 0
0.0018647639 -0.30156329 0.037061427 0
0.0014962647 -0.30154115 0.045001093 0
0.0036182485 -0.30129385 -0.044998895 0
0.0046148445 -0.30154142 -0.043293826 0
0.004528732 -0.30133507 -0.040325414 0
0.0033612519 -0.30123141 -0.038513917 0
0.0034287523 -0.30144191 0.03861025 0
0.0044740136 -0.30147389 0.040423326 0
0.0046083545 -0.30156586 0.043807436 0
0.0037780665 -0.30123463 0.045001116 0
-0.0039563822 -0.29854813 -0.044998944 0
-0.004999843 -0.29859349 -0.043446582 0
-0.0049998537 -0.29869446 -0.040378023 0
-0.0049998644 -0.29835251 -0.037449006 0
-0.0049998751 -0.29839852 -0.03439815 0
-0.0049998872 -0.29858464 -0.031358227 0
-0.004999897 -0.29847234 -0.028559407 0
-0.0049999077 -0.29855815 -0.025629107 0
-0.0049999198 -0.29847157 -0.022316787 0
-0.0049999282 -0.29839006 -0.019755388 0
-0.0049999398 -0.29859191 -0.016691221 0
-0.0049999496 -0.29847085 -0.0139144 0
-0.0049999626 -0.29845491 -0.010324262 0
-0.0049999729 -0.29847309 -0.0076830345 0
-0.0049999836 -0.29861978 -0.004622627 0
-0.0049999934 -0.29842681 -0.0015135155 0
-0.0050000045 -0.29823899 0.0013434821 0
-0.0050000171 -0.29851773 0.0045539676 0
-0.0050000288 -0.29861107 0.0078034019 0
-0.0050000371 -0.29864836 0.010302885 0
-0.0050000488 -0.29885843 0.013339609 0
-0.0050000609 -0.29875037 0.016594509 0
-0.0050000711 -0.2985875 0.019448938 0
-0.0050000814 -0.29849982 0.022394046 0
-0.0050000912 -0.29838157 0.025242019 0
-0.0050001019 -0.29850662 0.028453136 0
-0.0050001126 -0.29836869 0.031350903 0
-0.0050001233 -0.29852158 0.034099083 0
-0.0050001359 -0.29859287 0.037367117 0
-0.005000148 -0.29847682 0.040847935 0
-0.0050001582 -0.29853442 0.04365465 0
-0.0040871664 -0.29831144 0.045001063 0
-0.0015740565 -0.29835036 -0.04499894 0
-0.0012846142 -0.29872158 0.045001086 0
0.0014213533 -0.29820639 -0.044998925 0
0.0021876611 -0.2982868 -0.036972281 0
0.0004541949 -0.29837346 -0.034674671 0
0.00015614074 -0.29875189 -0.031199962 0
0.00012853679 -0.29897264 -0.02864242 0
0.00013587689 -0.29891384 -0.026002517 0
0.00021018274 -0.29831931 -0.022372182 0
0.00017483142 -0.29860198 -0.019769231 0
0.00015973652 -0.29872268 -0.016171655 0
0.00020298375 -0.29837659 -0.013423581 0
0.00017591401 -0.29859301 -0.010763397 0
0.00017439085 -0.29860514 -0.0077067502 0
0.00020849626 -0.29833215 -0.0045734197 0
0.0002253662 -0.29819709 -0.0017894666 0
0.00020629776 -0.29834959 0.0014474023 0
0.00017707646 -0.29858324 0.0044478504 0
0.00017939501 -0.29856458 0.0076597496 0
0.000173464 -0.29861194 0.010235622 0
0.00018005304 -0.29855919 0.013293175 0
0.00019144335 -0.29846793 0.016595677 0
0.00016175976 -0.29870528 0.019613437 0
0.0001936257 -0.29845026 0.02242616 0
0.0002323115 -0.29814067 0.025843546 0
0.00019085051 -0.29847229 0.02843331 0
0.00019759525 -0.29841822 0.031333622 0
0.00041780039 -0.29849005 0.034799214 0
0.0021032465 -0.29845935 0.036911909 0
0.0016021715 -0.29827455 0.045001093 0
0.0042909486 -0.29840243 -0.044998914 0
0.0054056444 -0.29837817 -0.043713711 0
0.004967052 -0.29859778 -0.040174618 0
0.0035007587 -0.29845601 -0.038306508 0
0.0036824341 -0.29832867 0.038474772 0
0.0051820897 -0.29859099 0.040671021 0
0.0053859516 -0.29845542 0.043446906 0
0.003943556 -0.29847831 0.045001104 0
-0.0041219713 -0.29539943 -0.044998955 0
-0.0049998434 -0.29554239 -0.043110806 0
-0.0049998537 -0.29561815 -0.040526822 0
-0.0049998644 -0.295275 -0.037537668 0
-0.0049998751 -0.29542622 -0.03446148 0
-0.0049998867 -0.29541337 -0.031546708 0
-0.0049998965 -0.29543647 -0.028663037 0
-0.0049999086 -0.29558301 -0.025190296 0
-0.0049999189 -0.29551131 -0.022555618 0
-0.0049999296 -0.29565144 -0.01960792 0
-0.0049999398 -0.29537749 -0.0166982 0
-0.0049999519 -0.29541585 -0.013363884 0
-0.0049999608 -0.29512143 -0.010727357 0
-0.0049999738 -0.295569 -0.0073058233 0
-0.0049999836 -0.29554489 -0.0043838103 0
-0.0049999957 -0.29565245 -0.0013614638 0
-0.0050000055 -0.29552057 0.0014781166 0
-0.005000018 -0.29544041 0.0047088433 0
-0.0050000264 -0.29554638 0.0071774055 0
-0.0050000371 -0.29551682 0.010273895 0
-0.0050000502 -0.29528806 0.013820284 0
-0.0050000604 -0.29545161 0.016416237 0
-0.0050000711 -0.29590484 0.019493902 0
-0.0050000814 -0.29517195 0.022564853 0
-0.0050000935 -0.2955386 0.025559759 0
-0.0050001037 -0.29561609 0.028554382 0
-0.005000113 -0.2955974 0.031448156 0
-0.0050001242 -0.2955842 0.034471486 0
-0.0050001363 -0.29567906 0.037466593 0
-0.005000148 -0.2955617 0.040626533 0
-0.0050001559 -0.2957052 0.043248519 0
-0.0040199878 -0.29547495 0.04500106 0
-0.0017813392 -0.29509237 -0.044998948 0
-0.001601121 -0.29537955 0.045001063 0
0.0013734926 -0.29564503 -0.044998933 0
0.0022689891 -0.29544193 -0.03669801 0
0.00083215511 -0.29550186 -0.03465246 0
0.00050909031 -0.2959283 -0.031461742 0
0.00052369013 -0.29581141 -0.028607974 0
0.00057694648 -0.29538524 -0.025412384 0
0.00054930541 -0.29560632 -0.022595257 0
0.00052682695 -0.29578596 -0.019297022 0
0.000558345 -0.29553372 -0.016300969 0
0.0005448609 -0.29564157 -0.013708905 0
0.00055995863 -0.29552066 -0.010612243 0
0.00054037647 -0.29567724 -0.0075714109 0
0.00055570219 -0.29555455 -0.004732186 0
0.0005531864 -0.29557458 -0.0013524861 0
0.00056448783 -0.29548404 0.0011962708 0
0.00055793719 -0.29553634 0.0042231954 0
0.00055028207 -0.29559746 0.0076112812 0
0.00052583136 -0.29579297 0.010119597 0
0.00056962663 -0.29544255 0.013822748 0
0.00056691654 -0.2954641 0.016209818 0
0.00059347606 -0.29525155 0.019457059 0
0.00055822241 -0.29553351 0.022257142 0
0.00056275848 -0.29549712 0.025085973 0
0.00056370627 -0.2954894 0.02837863 0
0.00055702287 -0.29554281 0.031441189 0
0.00083692599 -0.29535756 0.034680147 0
0.002398066 -0.29577839 0.03687159 0
0.0014592437 -0.29554796 0.045001071 0
0.004504818 -0.29530483 -0.044998925 0
0.0058541945 -0.29658401 -0.043839224 0
0.0053144433 -0.29612705 -0.039936546 0
0.0037922505 -0.29561365 -0.038242716 0
0.0038657689 -0.29519597 0.038266506 0
0.0053161629 -0.29580849 0.040025316 0
0.0058572544 -0.29657021 0.043706927 0
0.0045612822 -0.29514781 0.045001082 0
0.0061768335 -0.29475787 -0.044998914 0
0.0062830793 -0.29486847 -0.043167703 0
0.0062416228 -0.29489616 -0.041045662 0
0.0063019777 -0.294727 0.040851828 0
0.0063111805 -0.29475448 0.043412622 0
-0.0038903803 -0.29290801 -0.044998966 0
-0.0049998434 -0.29213497 -0.043499086 0
-0.0049998541 -0.29260808 -0.040433727 0
-0.0049998644 -0.29269424 -0.037546396 0
-0.0049998765 -0.29259214 -0.034278128 0
-0.0049998872 -0.29253593 -0.031241067 0
-0.0049998974 -0.29213229 -0.028530212 0
-0.0049999077 -0.29232243 -0.025718888 0
-0.0049999198 -0.2924729 -0.022208877 0
-0.0049999291 -0.29263356 -0.019621769 0
-0.0049999412 -0.29264572 -0.016477782 0
-0.0049999529 -0.2926397 -0.0132267 0
-0.0049999612 -0.29237348 -0.010786929 0
-0.0049999733 -0.29246032 -0.0075193252 0
-0.004999985 -0.29236847 -0.0044072038 0
-0.0049999952 -0.29258084 -0.0014365208 0
-0.0050000059 -0.29260144 0.0015819151 0
-0.0050000153 -0.29247692 0.0040501915 0
-0.0050000278 -0.29246759 0.007486803 0
-0.0050000385 -0.29245427 0.010510506 0
-0.0050000488 -0.29261574 0.013493299 0
-0.0050000604 -0.29249683 0.016730553 0
-0.0050000702 -0.29261139 0.019610627 0
-0.0050000832 -0.29233965 0.022725383 0
-0.005000094 -0.29230803 0.025678109 0
-0.0050001037 -0.29244584 0.028419441 0
-0.0050001149 -0.29262072 0.031650368 0
-0.0050001256 -0.29255378 0.034700923 0
-0.0050001354 -0.29227138 0.037267126 0
-0.0050001461 -0.2925863 0.040221591 0
-0.0050001577 -0.29259205 0.043524601 0
-0.00388577 -0.29243758 0.045001052 0
-0.0016903444 -0.29220146 -0.044998955 0
-0.0014626579 -0.29356888 -0.04499894 0
-0.0018247444 -0.2923089 0.04500106 0
0.0016068368 -0.2925126 -0.044998944 0
0.0026257031 -0.29245403 -0.036681235 0
0.0010103715 -0.29289311 -0.034584079 0
0.0008967974 -0.29282668 -0.031632643 0
0.00093275605 -0.29253888 -0.028808093 0
0.00097287761 -0.29221782 -0.025516231 0
0.00092139799 -0.29262957 -0.022842931 0
0.00090248423 -0.29278079 -0.019152511 0
0.00093593833 -0.29251301 -0.016682092 0
0.00093216245 -0.29254314 -0.013698896 0
0.00093728071 -0.29250208 -0.010468755 0
0.00091501599 -0.29268011 -0.0074628163 0
0.00095441891 -0.29236481 -0.0046045645 0
0.00093045185 -0.29255643 -0.0016928514 0
0.00093211333 -0.29254305 0.0014046261 0
0.00092112209 -0.29263082 0.0042541991 0
0.00090905809 -0.29272729 0.0075811096 0
0.00095583504 -0.29235294 0.01024338 0
0.00092988467 -0.29256046 0.013522223 0
0.00091104564 -0.29271111 0.01649566 0
0.0009511527 -0.29239014 0.019514747 0
0.00092590408 -0.29259202 0.022630613 0
0.00097450364 -0.29220316 0.025440041 0
0.00092020456 -0.29263747 0.028649559 0
0.00095268048 -0.29237753 0.031769387 0
0.0010192741 -0.29261392 0.034349181 0
0.0024791372 -0.2924971 0.03654249 0
0.0015436304 -0.29245472 0.045001075 0
0.0045857527 -0.29236972 -0.044998925 0
0.0055335429 -0.2922608 -0.039564904 0
0.004001359 -0.2924543 -0.038056921 0
0.0040087644 -0.29255873 0.038079832 0
0.0056175701 -0.29231697 0.039658435 0
0.0044902954 -0.29232335 0.045001075 0
0.0063190782 -0.29219395 -0.044998921 0
0.0068704761 -0.29251885 -0.043659508 0
0.0066533098 -0.29239628 -0.040902596 0
0.0067503406 -0.2922399 0.040990017 0
0.0069346656 -0.29226056 0.043406565 0
0.0063767661 -0.29295287 0.045001086 0
-0.0040418827 -0.28943267 -0.044998977 0
-0.0049998411 -0.28939262 -0.043796148 0
-0.0049998532 -0.28966522 -0.040649369 0
-0.0049998639 -0.28967482 -0.037662327 0
-0.004999876 -0.2895706 -0.034404375 0
-0.0049998858 -0.28958371 -0.031810366 0
-0.0049998965 -0.28916788 -0.02862658 0
-0.0049999077 -0.28955486 -0.025534609 0
-0.0049999193 -0.28939664 -0.022448864 0
-0.0049999291 -0.28957063 -0.019641699 0
-0.0049999407 -0.28964615 -0.016272016 0
-0.004999951 -0.28938076 -0.013685029 0
-0.0049999617 -0.28977108 -0.010509601 0
-0.0049999724 -0.28959429 -0.0073514446 0
-0.0049999822 -0.28939396 -0.0045810025 0
-0.0049999948 -0.28979403 -0.0015990727 0
-0.0050000045 -0.28937909 0.0013969437 0
-0.0050000171 -0.28963536 0.0044678086 0
-0.0050000283 -0.28958261 0.0076181567 0
-0.0050000385 -0.28974551 0.010526081 0
-0.0050000474 -0.28947997 0.013243813 0
-0.0050000604 -0.289536 0.016648853 0
-0.0050000721 -0.2895281 0.020043975 0
-0.0050000823 -0.28924111 0.022450326 0
-0.0050000935 -0.28976265 0.02572066 0
-0.0050001028 -0.28951204 0.028439701 0
-0.0050001154 -0.28964329 0.031716309 0
-0.0050001261 -0.28946805 0.034714933 0
-0.0050001373 -0.28938562 0.037772182 0
-0.0050001452 -0.28937751 0.040221643 0
-0.0050001582 -0.28935695 0.043664973 0
-0.0040333774 -0.28978491 0.045001045 0
-0.0015361066 -0.28915876 -0.04499897 0
-0.0018219335 -0.28971013 0.045001041 0
0.0017593226 -0.28942293 -0.044998955 0
0.0026686741 -0.28944305 -0.036347851 0
0.0014605846 -0.28965592 -0.034497622 0
0.0012961858 -0.28963152 -0.031480134 0
0.0012986657 -0.28961158 -0.028650044 0
0.001274835 -0.28980216 -0.025524521 0
0.0013459398 -0.28923321 -0.02256372 0
0.0013135301 -0.28949234 -0.01983593 0
0.0013142858 -0.28948626 -0.016277486 0
0.0012716858 -0.28982699 -0.013826094 0
0.0012644896 -0.28988439 -0.010292145 0
0.0013066696 -0.28954685 -0.0075969375 0
0.0013265244 -0.28938803 -0.0046185157 0
0.0012837456 -0.28973004 -0.001382402 0
0.0012753139 -0.28979746 0.0016287152 0
0.0013133191 -0.28949329 0.0044384161 0
0.0012653238 -0.28987715 0.0071510044 0
0.0013374374 -0.28930017 0.010438655 0
0.0013211319 -0.2894305 0.013382768 0
0.0013121861 -0.28950199 0.01634521 0
0.0012733609 -0.28981248 0.019335581 0
0.0013185784 -0.28945065 0.022165274 0
0.0013208902 -0.28943205 0.025566079 0
0.0013003498 -0.28959626 0.028618792 0
0.0013128188 -0.28949645 0.031373773 0
0.0015196267 -0.28953782 0.034648936 0
0.0026375125 -0.28994262 0.036381554 0
0.0017178811 -0.28921804 0.045001056 0
0.0045287996 -0.28969803 -0.04499894 0
0.0056017102 -0.28967217 -0.039309505 0
0.0039740764 -0.28920978 -0.037624087 0
0.0042345077 -0.28940353 0.037911162 0
0.0054964381 -0.29015258 0.039266739 0
0.0045649321 -0.28919554 0.045001067 0
0.006823644 -0.28922206 -0.044998936 0
0.0076633808 -0.28934723 -0.043569744 0
0.0067408439 -0.28923342 -0.040413503 0
0.0069384067 -0.28935477 0.040637154 0
0.0075953696 -0.28961772 0.043806471 0
0.0068425741 -0.28932443 0.045001082 0
-0.0042940658 -0.28642115 -0.044998989 0
-0.0049795019 -0.28662533 -0.043297045 0
-0.0049998537 -0.28656599 -0.040636424 0
-0.0049998658 -0.28629592 -0.037137832 0
-0.004999877 -0.28637755 -0.0341934 0
-0.0049998853 -0.28652507 -0.031493582 0
-0.004999897 -0.28637773 -0.028532367 0
-0.0049999077 -0.28622454 -0.025566412 0
-0.0049999184 -0.28684011 -0.02247869 0
-0.0049999296 -0.28640252 -0.019557245 0
-0.0049999403 -0.28703389 -0.016711786 0
-0.0049999524 -0.28636071 -0.013243266 0
-0.0049999617 -0.28648177 -0.010613888 0
-0.0049999747 -0.28620732 -0.0070009581 0
-0.0049999836 -0.28667983 -0.0045036501 0
-0.0049999943 -0.28664413 -0.001668766 0
-0.0050000045 -0.28621876 0.0011185834 0
-0.0050000167 -0.28638852 0.0045208051 0
-0.0050000278 -0.28633946 0.0074443147 0
-0.0050000395 -0.28646705 0.010757792 0
-0.0050000492 -0.28662458 0.013483605 0
-0.0050000609 -0.28648639 0.016600979 0
-0.0050000702 -0.28629422 0.019555137 0
-0.0050000828 -0.28627408 0.022763196 0
-0.0050000921 -0.28654715 0.025602069 0
-0.0050001037 -0.28642336 0.028611416 0
-0.005000114 -0.2864261 0.031389289 0
-0.0050001256 -0.28660798 0.034605086 0
-0.0050001373 -0.28676888 0.037677564 0
-0.0050001461 -0.28639686 0.040344965 0
-0.0050001596 -0.28627533 0.043816 0
-0.0039597149 -0.28617734 0.045001023 0
-0.0016483888 -0.28672361 -0.044998977 0
-0.0029106056 -0.28784633 -0.044998966 0
-0.001066382 -0.28615546 0.045001041 0
0.0013467765 -0.28676987 -0.044998948 0
0.002715834 -0.28676915 -0.036060788 0
0.0018726523 -0.2863405 -0.0345513 0
0.0016452968 -0.28683865 -0.031600893 0
0.0016612782 -0.28671068 -0.028605532 0
0.0016977285 -0.286419 -0.025265273 0
0.0017316495 -0.28614756 -0.022725705 0
0.0016900529 -0.28648022 -0.019653447 0
0.0016612142 -0.28671086 -0.016630139 0
0.001725514 -0.28619638 -0.013289065 0
0.0017133037 -0.28629392 -0.010723058 0
0.0016712191 -0.28663048 -0.0073061339 0
0.0016837636 -0.28653005 -0.0045710402 0
0.0016727473 -0.28661802 -0.0018276125 0
0.0017066135 -0.28634709 0.0010888296 0
0.0016973435 -0.28642112 0.0047992948 0
0.0016980281 -0.28641552 0.0074487384 0
0.0016828027 -0.28653726 0.010673997 0
0.0016607874 -0.28671321 0.013420108 0
0.0016791413 -0.28656635 0.016676789 0
0.0016861077 -0.2865105 0.019422118 0
0.0016842581 -0.28652519 0.022441665 0
0.0017026154 -0.28637826 0.025782561 0
0.0017054256 -0.2863557 0.028284838 0
0.0016900551 -0.28647855 0.031678472 0
0.0019025551 -0.28665823 0.03455174 0
0.0028081813 -0.28642207 0.03611213 0
0.0016961776 -0.28662348 0.04500106 0
0.0046882969 -0.28648764 -0.044998948 0
0.0058267843 -0.28742799 -0.039254062 0
0.0043874327 -0.28668234 -0.037721518 0
0.0044001252 -0.28652754 0.037717272 0
0.0058513712 -0.28715804 0.039247353 0
0.0046912408 -0.2864635 0.045001063 0
0.0069076153 -0.28625563 -0.044998948 0
0.0083356593 -0.28665814 -0.04355393 0
0.0073917285 -0.28628609 -0.040686689 0
0.0072310558 -0.2863555 0.040543608 0
0.0082924087 -0.28682959 0.043531466 0
0.0072073042 -0.2863239 0.04500106 0
-0.0039282837 -0.28341162 -0.044999 0
-0.0049006892 -0.28334892 -0.043445565 0
-0.0049998527 -0.28345215 -0.040940654 0
-0.0049998644 -0.2836906 -0.03751668 0
-0.0049998751 -0.28373498 -0.034342598 0
-0.0049998877 -0.28360534 -0.0311884 0
-0.0049998979 -0.28355446 -0.028401261 0
-0.0049999058 -0.28350452 -0.025729647 0
-0.0049999189 -0.28330591 -0.022560015 0
-0.004999931 -0.28336489 -0.019315988 0
-0.0049999417 -0.2835454 -0.016255993 0
-0.0049999519 -0.28329548 -0.013434591 0
-0.0049999622 -0.28337538 -0.010485732 0
-0.0049999729 -0.28329808 -0.0076759127 0
-0.0049999831 -0.2832315 -0.0048491778 0
-0.0049999929 -0.28352618 -0.0016206914 0
-0.0050000055 -0.28341648 0.0014618099 0
-0.0050000176 -0.28372777 0.0046956749 0
-0.0050000278 -0.28368583 0.0074998308 0
-0.0050000376 -0.28351033 0.010263142 0
-0.0050000474 -0.2835297 0.013396524 0
-0.0050000604 -0.28357157 0.016437728 0
-0.0050000697 -0.28336868 0.019394754 0
-0.0050000818 -0.28351581 0.022409141 0
-0.005000093 -0.28358778 0.025560305 0
-0.0050001033 -0.28320944 0.02861649 0
-0.005000114 -0.28355482 0.031628765 0
-0.0050001242 -0.28334683 0.034468677 0
-0.0050001349 -0.28374308 0.037480842 0
-0.0050001466 -0.28351364 0.040385965 0
-0.0050001591 -0.2833378 0.043830134 0
-0.0040099928 -0.28345782 0.045001019 0
-0.0014393313 -0.28324756 -0.044998989 0
-0.0020422959 -0.28445721 -0.044998977 0
-0.0018149286 -0.28367504 0.04500103 0
0.0015642002 -0.28342703 -0.044998966 0
0.002226793 -0.28361005 -0.034446083 0
0.0020519858 -0.28358516 -0.031529456 0
0.0020600553 -0.28352043 -0.028414574 0
0.0020353126 -0.28371832 -0.025384858 0
0.0020743769 -0.28340572 -0.022608211 0
0.0020235584 -0.2838122 -0.019257134 0
0.0020873358 -0.28330183 -0.016543852 0
0.0020657061 -0.2834748 -0.013628368 0
0.0020594406 -0.28352481 -0.010625747 0
0.0020616874 -0.28350672 -0.0071038273 0
0.0020485476 -0.28361177 -0.0042273765 0
0.0020830522 -0.2833356 -0.0014145502 0
0.0020575181 -0.2835398 0.0017001395 0
0.0020393606 -0.28368497 0.0044556572 0
0.0020829188 -0.28333643 0.0072627445 0
0.0020126547 -0.28389841 0.010430568 0
0.0020288308 -0.28376889 0.013486111 0
0.0020494729 -0.28360364 0.016614852 0
0.002068612 -0.28345051 0.01930733 0
0.0020512636 -0.28358912 0.022550205 0
0.0020153699 -0.28387618 0.025515366 0
0.0020291731 -0.28376567 0.028645778 0
0.0020612236 -0.28350911 0.031258613 0
0.0021817875 -0.28357702 0.034310706 0
0.001577302 -0.28373533 0.045001045 0
0.0046434593 -0.28359529 -0.044998955 0
0.0046220813 -0.2834318 -0.037549872 0
0.0030779927 -0.28279412 -0.035926074 0
0.0031621638 -0.28202772 0.035916809 0
0.0045486628 -0.28327984 0.037459835 0
0.0059154588 -0.2849392 0.039034076 0
0.0045127785 -0.28341711 0.045001049 0
0.0076113325 -0.28389531 -0.044998955 0
0.0088903606 -0.28443936 -0.043298271 0
0.007461091 -0.28331104 -0.040376507 0
0.0060270717 -0.28276548 -0.038871553 0
0.0060638865 -0.28336489 0.038985707 0
0.0074859983 -0.28333026 0.0404035 0
0.0088627264 -0.28454831 0.043180335 0
0.0073536732 -0.28343025 0.045001049 0
0.0092787929 -0.28239211 -0.044998948 0
0.0092074769 -0.28314352 -0.043474697 0
0.0090825818 -0.28268325 -0.041916758 0
0.009009283 -0.28242397 0.041813508 0
0.0093079461 -0.28276744 0.043798584 0
0.0093360888 -0.28231367 0.045001056 0
-0.0039329054 -0.28052846 -0.044999007 0
-0.0049643447 -0.28038731 -0.04375748 0
-0.0049998541 -0.28040713 -0.040391564 0
-0.0049998644 -0.28017581 -0.03774333 0
-0.0049998756 -0.28048888 -0.034580037 0
-0.0049998844 -0.28063583 -0.031758361 0
-0.0049998988 -0.28062961 -0.028137032 0
-0.0049999072 -0.28041637 -0.025537703 0
-0.004999917 -0.28044796 -0.022618424 0
-0.00499993 -0.28050628 -0.019400597 0
-0.0049999403 -0.28053182 -0.016546616 0
-0.0049999519 -0.28015754 -0.01355042 0
-0.0049999631 -0.28040263 -0.010410976 0
-0.0049999719 -0.28057048 -0.0075936425 0
-0.0049999831 -0.28087959 -0.0045948378 0
-0.0049999948 -0.28064641 -0.0015573639 0
-0.0050000069 -0.28056043 0.0018240776 0
-0.0050000167 -0.28074843 0.0045549399 0
-0.0050000269 -0.28082877 0.0073858127 0
-0.0050000399 -0.28047264 0.010954279 0
-0.0050000488 -0.28023174 0.013449917 0
-0.00500006 -0.2806204 0.016364772 0
-0.0050000702 -0.28043747 0.019530326 0
-0.0050000818 -0.28055581 0.02248851 0
-0.0050000921 -0.28046665 0.025632467 0
-0.0050001028 -0.28051215 0.028473875 0
-0.0050001149 -0.28070736 0.031613551 0
-0.0050001256 -0.28016621 0.034572564 0
-0.0050001373 -0.28060523 0.037650645 0
-0.0050001466 -0.28036362 0.040673263 0
-0.0050001577 -0.28049943 0.043432273 0
-0.0039953231 -0.28009388 0.045001008 0
-0.0014736045 -0.28064358 -0.044999 0
-0.0012525556 -0.28029636 0.045001004 0
0.0017780428 -0.28070363 -0.044998989 0
0.0025377783 -0.28053251 -0.034641158 0
0.0024671641 -0.28026372 -0.031293839 0
0.0024478917 -0.28041777 -0.028540399 0
0.0024227428 -0.28061891 -0.025607975 0
0.0024486079 -0.2804119 -0.022245811 0
0.0024434777 -0.28045279 -0.019472601 0
0.0024291857 -0.28056705 -0.016448904 0
0.0024139287 -0.280689 -0.013718553 0
0.0024221793 -0.28062284 -0.010154048 0
0.0024387687 -0.28049007 -0.0075189131 0
0.0024462452 -0.28043023 -0.0048088087 0
0.0024081138 -0.28073508 -0.0013068212 0
0.0024422701 -0.28046179 0.0016842767 0
0.0024579389 -0.28033632 0.0045320545 0
0.002433005 -0.2805357 0.0075378749 0
0.0024669857 -0.28026381 0.010591287 0
0.0024713336 -0.28022891 0.01377198 0
0.0024120044 -0.28070343 0.016600914 0
0.0024109101 -0.28071207 0.019608596 0
0.0024637179 -0.28028956 0.022646658 0
0.0024383329 -0.28049248 0.02567683 0
0.0024452975 -0.28043669 0.028109519 0
0.0024319936 -0.28054303 0.031104041 0
0.0025008344 -0.28036651 0.034327764 0
0.0013158988 -0.28036594 0.04500103 0
0.004431305 -0.28023875 -0.044998974 0
0.0046107788 -0.28037056 -0.037155919 0
0.0032670721 -0.28070995 -0.035854649 0
0.003309286 -0.27993366 0.035802163 0
0.0047509908 -0.28032148 0.037292358 0
0.0044647213 -0.28050441 0.045001045 0
0.0074010896 -0.28057545 -0.044998966 0
0.0077090091 -0.2804817 -0.040268019 0
0.0061867051 -0.28013828 -0.038702793 0
0.0062601888 -0.28019175 0.038785357 0
0.007710156 -0.28046647 0.040269669 0
0.007310987 -0.28037983 0.045001049 0
0.0094024641 -0.27988592 -0.044998955 0
0.0097425561 -0.28059015 -0.043171275 0
0.0092405621 -0.28119054 -0.041888162 0
0.0092253238 -0.28031698 0.041766163 0
0.0097892387 -0.28059539 0.043150268 0
0.009365744 -0.28039107 0.045001049 0
-0.0039977776 -0.27740517 -0.044999015 0
-0.0049998434 -0.27737126 -0.043466028 0
-0.0049998537 -0.27733454 -0.040661629 0
-0.0049998648 -0.27723899 -0.037428368 0
-0.0049998742 -0.27761984 -0.034855135 0
-0.0049998853 -0.27721307 -0.031752877 0
-0.004999896 -0.27737916 -0.028537042 0
-0.0049999082 -0.27730817 -0.025455 0
-0.0049999207 -0.27765995 -0.022159714 0
-0.0049999291 -0.27745411 -0.019663978 0
-0.0049999417 -0.27744451 -0.016364379 0
-0.0049999505 -0.27724698 -0.013596277 0
-0.0049999622 -0.27733338 -0.010454454 0
-0.0049999724 -0.2774587 -0.0074377256 0
-0.0049999831 -0.27774152 -0.0046482901 0
-0.0049999948 -0.27741784 -0.0013638117 0
-0.0050000059 -0.27726629 0.0013642547 0
-0.0050000167 -0.27752194 0.0043356963 0
-0.0050000288 -0.27758962 0.00767656 0
-0.0050000385 -0.27732673 0.010420365 0
-0.0050000488 -0.27751791 0.013630143 0
-0.0050000595 -0.27757189 0.016377807 0
-0.0050000716 -0.27741137 0.019620968 0
-0.0050000832 -0.27761316 0.022803944 0
-0.005000093 -0.27734214 0.025429027 0
-0.0050001023 -0.27717111 0.028134968 0
-0.0050001154 -0.27741811 0.031811502 0
-0.0050001242 -0.2774494 0.034471605 0
-0.0050001368 -0.27760154 0.037736841 0
-0.0050001466 -0.27726245 0.040402263 0
-0.0050001564 -0.27732873 0.043352704 0
-0.0038817064 -0.27729991 0.045000996 0
-0.0012777348 -0.27779156 -0.044999007 0
-0.001551438 -0.27726322 0.045000989 0
0.0013730309 -0.27756885 -0.044999 0
0.0027858852 -0.27781644 -0.034010496 0
0.0027639675 -0.27788925 -0.031460233 0
0.0028276031 -0.27738008 -0.028519809 0
0.0028215034 -0.27742881 -0.025437646 0
0.0028166818 -0.27746734 -0.022430297 0
0.0028328036 -0.27733818 -0.019369159 0
0.0028091602 -0.27752727 -0.016397297 0
0.0028326744 -0.27733907 -0.013176907 0
0.0027741641 -0.27780703 -0.010610875 0
0.0027999219 -0.27760088 -0.0074011134 0
0.0028036188 -0.27757123 -0.0046016239 0
0.0028453353 -0.27723736 -0.0013099724 0
0.0028079329 -0.27753648 0.0010802373 0
0.0028426666 -0.27725852 0.0044733831 0
0.0028173064 -0.27746126 0.0073888833 0
0.0028290881 -0.277367 0.010447177 0
0.002790455 -0.2776759 0.013702652 0
0.0028530157 -0.27717537 0.016231418 0
0.0027942383 -0.27764547 0.019385805 0
0.0028186573 -0.27744997 0.022670303 0
0.0028502161 -0.27719739 0.02577975 0
0.0027969808 -0.27762321 0.028636329 0
0.0027944939 -0.27764302 0.031673264 0
0.0028074617 -0.27774945 0.034132812 0
0.0013521744 -0.27749416 0.045001019 0
0.0046876911 -0.27776742 -0.044998981 0
0.004880351 -0.27759296 -0.037078295 0
0.0034058152 -0.27779666 -0.035629239 0
0.0033606607 -0.27703449 0.035491135 0
0.0048147487 -0.27753264 0.037007503 0
0.0046827751 -0.27787018 0.045001037 0
0.0075673424 -0.27740052 -0.044998959 0
0.0078057498 -0.27748415 -0.039990067 0
0.0063403137 -0.27739286 -0.038513239 0
0.0065357182 -0.27682194 0.038639642 0
0.0079643326 -0.27768621 0.040176306 0
0.0074492516 -0.27756909 0.045001041 0
0.0099608498 -0.27721933 -0.04499897 0
0.010540264 -0.27737376 -0.04350172 0
0.0095195174 -0.27720448 -0.041668873 0
0.0094270706 -0.27744889 0.041609392 0
0.010427873 -0.27769512 0.04347438 0
0.0098856483 -0.27745873 0.045001052 0
-0.003937067 -0.27385944 -0.044999033 0
-0.0049998425 -0.27427793 -0.043644357 0
-0.0049998555 -0.27461684 -0.040197067 0
-0.0049998653 -0.27439749 -0.037434053 0
-0.0049998765 -0.27441138 -0.034227468 0
-0.0049998863 -0.27429008 -0.031478312 0
-0.004999897 -0.27480847 -0.02855764 0
-0.0049999082 -0.27447549 -0.025517838 0
-0.0049999189 -0.27466202 -0.02245727 0
-0.0049999296 -0.2742953 -0.019644093 0
-0.0049999407 -0.27459943 -0.016482079 0
-0.0049999496 -0.27456209 -0.013811964 0
-0.0049999636 -0.27464268 -0.01024706 0
-0.0049999733 -0.27405754 -0.0073068887 0
-0.0049999845 -0.27448654 -0.0043327101 0
-0.0049999943 -0.27435613 -0.0014153989 0
-0.0050000059 -0.27433661 0.0015377455 0
-0.0050000162 -0.27477339 0.0044330196 0
-0.0050000283 -0.274692 0.0076527609 0
-0.005000039 -0.27437755 0.010512901 0
-0.0050000488 -0.27441013 0.013357666 0
-0.0050000604 -0.27460086 0.016574921 0
-0.0050000707 -0.2746686 0.019349284 0
-0.0050000823 -0.27455932 0.022680717 0
-0.0050000921 -0.27402815 0.025417557 0
-0.0050001028 -0.27420911 0.028477687 0
-0.005000114 -0.27471277 0.031653367 0
-0.0050001256 -0.27435613 0.034545202 0
-0.0050001354 -0.2743164 0.037262894 0
-0.005000148 -0.27417645 0.040622607 0
-0.0050001582 -0.27440917 0.043540426 0
-0.0041760071 -0.27376869 0.045000982 0
-0.0016746196 -0.27394015 -0.044999026 0
-0.0013820544 -0.27479213 0.045001 0
0.0017735237 -0.27461302 -0.044999003 0
0.0014318039 -0.27470803 0.045001011 0
0.0043612258 -0.2744275 -0.044999003 0
0.0051705018 -0.27456522 -0.036989994 0
0.0035060898 -0.27433747 -0.034863379 0
0.0031728765 -0.27461806 -0.031531483 0
0.0032231794 -0.27421546 -0.028216328 0
0.0031984537 -0.27441317 -0.025608044 0
0.0031643314 -0.27468607 -0.022426343 0
0.00323526 -0.27411854 -0.019496258 0
0.0032093197 -0.274326 -0.016383311 0
0.0031728903 -0.27461731 -0.013369852 0
0.0032063818 -0.27434933 -0.010710154 0
0.0032229861 -0.27421635 -0.0075653084 0
0.0031845979 -0.27452335 -0.0044132397 0
0.0031506999 -0.27479443 -0.0015106371 0
0.0031700598 -0.27463949 0.0014267743 0
0.0031967962 -0.27442542 0.0043991022 0
0.0031868007 -0.27450538 0.007499428 0
0.0031780615 -0.27457517 0.010624428 0
0.0031481502 -0.27481434 0.013646558 0
0.0032068079 -0.27434498 0.016559219 0
0.0031860506 -0.27451098 0.019353522 0
0.003165398 -0.27467602 0.022698784 0
0.0031965431 -0.27442682 0.025707966 0
0.0032286854 -0.27416962 0.028388483 0
0.0032152287 -0.27427715 0.031628825 0
0.003365878 -0.2743991 0.034543186 0
0.00504999 -0.27426791 0.036834646 0
0.0043055695 -0.2744498 0.045001023 0
0.0072636725 -0.27428821 -0.044998974 0
0.0081031984 -0.27453816 -0.039919283 0
0.0067458018 -0.27454683 -0.038562976 0
0.0066208662 -0.27433839 0.038414344 0
0.0080694184 -0.27463222 0.03989964 0
0.0072870892 -0.27498382 0.04500103 0
0.01019182 -0.27432448 -0.044998977 0
0.011258453 -0.27435055 -0.043518253 0
0.0096318154 -0.27463278 -0.041459717 0
0.0094419057 -0.27457151 0.041264545 0
0.010997364 -0.27468637 0.043277849 0
0.01023275 -0.27446347 0.045001041 0
-0.0040794453 -0.27188832 -0.044999033 0
-0.0049998425 -0.27153286 -0.043619074 0
-0.0049998527 -0.27141556 -0.040689245 0
-0.0049998648 -0.27177554 -0.037612226 0
-0.0049998756 -0.27172929 -0.034467418 0
-0.0049998863 -0.27179971 -0.031552933 0
-0.0049998974 -0.271355 -0.028417319 0
-0.0049999077 -0.27181372 -0.025636019 0
-0.0049999189 -0.27144012 -0.02264248 0
-0.0049999314 -0.27135113 -0.019151019 0
-0.0049999412 -0.2717092 -0.016469274 0
-0.0049999519 -0.27140981 -0.013488119 0
-0.0049999612 -0.27121094 -0.010841409 0
-0.0049999724 -0.27161598 -0.007500296 0
-0.0049999855 -0.27132165 -0.0043067485 0
-0.0049999943 -0.27152056 -0.0015090568 0
-0.0050000073 -0.27181879 0.0018051619 0
-0.0050000162 -0.27132139 0.0042954059 0
-0.0050000269 -0.27179858 0.0072969254 0
-0.0050000371 -0.2711859 0.010524061 0
-0.0050000497 -0.27126217 0.013614275 0
-0.0050000604 -0.27162242 0.016632371 0
-0.0050000702 -0.27155906 0.019427774 0
-0.0050000814 -0.27123564 0.022311285 0
-0.0050000921 -0.27144727 0.025299314 0
-0.0050001033 -0.27133855 0.028523222 0
-0.0050001158 -0.27157336 0.031713888 0
-0.0050001256 -0.27151495 0.034491751 0
-0.0050001359 -0.27165511 0.03752549 0
-0.0050001461 -0.27166295 0.040427487 0
