# .PCD v0.7 - Point Cloud Data file format
VERSION 0.7
FIELDS x y z rgb
SIZE 4 4 4 4
TYPE F F F F
COUNT 1 1 1 1
WIDTH 1182
HEIGHT 1
VIEWPOINT 0 0 0 1 0 0 0
POINTS 1182
DATA ascii
-0.0048670028 -0.25652656 -0.0015532108 0
-0.0048646955 -0.25648186 0.0013538626 0
-0.0048478805 -0.25639945 0.0046063229 0
-0.0048539918 -0.25658646 0.0073646102 0
-0.0048817848 -0.25644839 0.010459435 0
-0.004854585 -0.25645772 0.01335728 0
-0.0043412889 -0.25663307 0.016523052 0
-0.0014947013 -0.25668854 -0.016495261 0
-0.0016092376 -0.25650552 0.01648389 0
0.0003394649 -0.25643042 -0.016439782 0
0.00037836152 -0.25659138 0.016557841 0
-0.0039762277 -0.25286892 -0.018115621 0
-0.0044246232 -0.25373575 -0.016223643 0
-0.0047316053 -0.2533938 -0.013549682 0
-0.0048043141 -0.25336123 -0.010387593 0
-0.0047729723 -0.25364643 -0.0074721058 0
-0.0047791582 -0.25348485 -0.0046102456 0
-0.0047642966 -0.25359184 -0.0015277179 0
-0.0047854921 -0.25353268 0.0014379157 0
-0.0047872802 -0.25341368 0.004580236 0
-0.0047923285 -0.25351289 0.0074845999 0
-0.0047789691 -0.25359777 0.01066485 0
-0.0047996994 -0.25343606 0.013560088 0
-0.0044579743 -0.25371203 0.016348431 0
-0.0039567319 -0.25273985 0.018126205 0
-0.00171297 -0.252821 -0.018136501 0
-0.001420901 -0.25368059 -0.016729988 0
-0.0015041099 -0.25373217 0.016707143 0
-0.0013235648 -0.25263587 0.018142601 0
0.00036828444 -0.25261247 -0.018164584 0
0.00059087033 -0.25363249 -0.016867088 0
0.00053314224 -0.25355229 0.016813427 0
0.00050317234 -0.25258538 0.018103557 0
-0.004395775 -0.25039083 -0.018473927 0
-0.0043985397 -0.25058165 -0.016272863 0
-0.0046864045 -0.25053394 -0.013602614 0
-0.0047316207 -0.25055847 -0.010568492 0
-0.0046914425 -0.25051764 -0.007615224 0
-0.00465754 -0.25056964 -0.0044892584 0
-0.0047402121 -0.25070113 -0.0015065171 0
-0.0046589291 -0.25048447 0.0013863763 0
-0.0046843998 -0.25035632 0.0045649298 0
-0.0047560018 -0.25057605 0.0074164397 0
-0.0047302344 -0.25058439 0.010461302 0
-0.0046564755 -0.25055459 0.013522592 0
-0.0043806224 -0.25050694 0.016361618 0
-0.0042194324 -0.25039208 0.018488983 0
-0.001472395 -0.25045967 -0.018574415 0
-0.0016173704 -0.25023872 -0.016739329 0
-0.0015782382 -0.25071993 0.016559578 0
-0.0018238768 -0.25047857 0.01853627 0
0.00066997675 -0.25029385 -0.018470693 0
0.00077203655 -0.25049588 -0.017076658 0
0.00061957981 -0.25060317 0.016893087 0
0.00061182125 -0.2505585 0.018428488 0
-0.0043926388 -0.2475397 -0.018899443 0
-0.0043987087 -0.24742651 -0.016334588 0
-0.0045735925 -0.24742141 -0.013575607 0
-0.0046521872 -0.24748451 -0.010503411 0
-0.0046480247 -0.24768634 -0.0075481995 0
-0.004538578 -0.24750113 -0.0045106537 0
-0.0046921792 -0.24733089 -0.0014155357 0
-0.0046364316 -0.24740551 0.0014597726 0
-0.0045650899 -0.2473882 0.0045158532 0
-0.0046128654 -0.24765186 0.007569747 0
-0.0046629859 -0.24749038 0.01061429 0
-0.0045320005 -0.24753602 0.013476718 0
-0.0044217519 -0.24757786 0.016348703 0
-0.0042538675 -0.24734552 0.018935373 0
-0.0013288725 -0.24754715 -0.019114295 0
-0.0015087994 -0.24755296 -0.017194385 0
-0.001523671 -0.24730815 0.017137615 0
-0.001485624 -0.24740036 0.019097751 0
0.00088292971 -0.24738997 -0.018884106 0
0.00076690805 -0.24767449 -0.017355902 0
0.00080346654 -0.24748828 0.017308479 0
0.00096281746 -0.24749324 0.018770099 0
-0.0044011115 -0.2443846 -0.019325964 0
-0.0042218794 -0.24431211 -0.016643923 0
-0.0045367219 -0.24440569 -0.013535868 0
-0.004422754 -0.24457689 -0.010529819 0
-0.0044227629 -0.24460368 -0.0075586298 0
-0.0045366953 -0.24438977 -0.0042766314 0
-0.0044791852 -0.24455647 -0.0015296356 0
-0.0045538195 -0.24449469 0.0015274597 0
-0.0045411563 -0.24451466 0.0045343847 0
-0.0045537753 -0.24443591 0.0074703172 0
-0.0045333365 -0.24446721 0.010564247 0
-0.0044960477 -0.24441935 0.013496193 0
-0.0042940872 -0.2444815 0.016340772 0
-0.0043488303 -0.24463646 0.019201938 0
-0.0014641525 -0.24432763 -0.019708447 0
-0.0014327094 -0.2446035 -0.017694121 0
-0.0016260397 -0.24450582 0.0176124 0
-0.0013840087 -0.24470906 0.01958894 0
0.0012032808 -0.24446394 -0.019147916 0
0.00096231146 -0.2447149 -0.017738933 0
0.00093403063 -0.24469602 0.017639758 0
0.0012099716 -0.24426049 0.019186938 0
-0.0043725469 -0.24152061 -0.019592177 0
-0.0042577488 -0.24142171 -0.016443208 0
-0.0043353182 -0.24147598 -0.013456824 0
-0.0044055451 -0.24143557 -0.010589041 0
-0.0044349623 -0.24160807 -0.0074560023 0
-0.0043391199 -0.24143301 -0.0044969842 0
-0.004443117 -0.24160318 -0.0015425814 0
-0.004339233 -0.24157873 0.0014678672 0
-0.0044568796 -0.24152559 0.0045082816 0
-0.0044349134 -0.24145412 0.0074282959 0
-0.0045369826 -0.24160516 0.010685921 0
-0.0043265913 -0.24151629 0.013474867 0
-0.0040580682 -0.24147907 0.016552487 0
-0.0044572446 -0.24139369 0.019533224 0
-0.0015443413 -0.24150187 -0.019295814 0
-0.0010984314 -0.24291897 -0.017979531 0
-0.0016033592 -0.24263676 0.017929075 0
-0.0013882975 -0.24130414 0.019365171 0
0.0012646315 -0.24151769 -0.019330949 0
0.0010293713 -0.24261586 0.01793262 0
0.0012784173 -0.2414359 0.019373182 0
-0.0043332037 -0.23719577 -0.021007335 0
-0.0044957213 -0.23850647 -0.019920895 0
-0.0039054365 -0.23852266 -0.016434073 0
-0.0042576999 -0.23857392 -0.013640724 0
-0.0042037787 -0.23827289 -0.010480791 0
-0.0044212532 -0.23854139 -0.0074856002 0
-0.0044516954 -0.23834659 -0.0046445327 0
-0.0044009625 -0.23857205 -0.0014650818 0
-0.004346889 -0.23837556 0.0014805805 0
-0.0042609801 -0.23860587 0.0045942431 0
-0.0043354612 -0.23853587 0.0073998193 0
-0.0042194328 -0.23834345 0.010438708 0
-0.004222414 -0.23851578 0.013531946 0
-0.0043659727 -0.23841645 0.016442433 0
-0.0045437971 -0.23844108 0.019797992 0
-0.0015365664 -0.23709506 -0.021041086 0
-0.001526898 -0.23846005 -0.019703731 0
-0.0029573913 -0.23759578 -0.017637068 0
-0.0029351485 -0.237349 0.017577039 0
-0.0015679217 -0.23855583 0.019585989 0
0.00076277863 -0.23722903 -0.021028647 0
0.001387628 -0.23853651 -0.019829968 0
0.0013830379 -0.23837215 0.019732259 0
-0.0040038871 -0.23549716 -0.021296682 0
-0.0049999282 -0.23524933 -0.019563438 0
-0.0046148305 -0.23568556 -0.016277745 0
-0.0039241551 -0.23546049 -0.013365005 0
-0.00412938 -0.23553814 -0.010495328 0
-0.0040613776 -0.23545323 -0.0075363861 0
-0.0042230859 -0.23557045 -0.0044561117 0
-0.0041609891 -0.23562583 -0.0014921214 0
-0.0043455348 -0.23545334 0.0014175725 0
-0.0043201689 -0.23540345 0.0045276908 0
-0.004263036 -0.23562106 0.0075183753 0
-0.0042695333 -0.23552419 0.010332984 0
-0.0042158752 -0.23567729 0.013534826 0
-0.0047956365 -0.23556203 0.016382284 0
-0.0050000688 -0.23531641 0.019355657 0
-0.0041053882 -0.23564416 0.021236977 0
-0.0014908382 -0.23558711 -0.021319196 0
-0.0017038627 -0.23552208 -0.019037301 0
-0.0028800347 -0.23534361 -0.01668971 0
-0.0029943283 -0.23420061 -0.01463959 0
-0.0029952349 -0.23445702 0.014731041 0
-0.0028764806 -0.23526518 0.016568543 0
-0.0015935991 -0.2355562 0.019006554 0
-0.0015917902 -0.23564968 0.021244602 0
0.0013214503 -0.235341 -0.021340244 0
0.0016135934 -0.23562352 -0.01961777 0
0.001595275 -0.23542218 0.019436326 0
0.0012782398 -0.23536855 0.02127865 0
-0.0041931593 -0.23259388 -0.021754466 0
-0.0049999277 -0.23239608 -0.019468203 0
-0.0049999384 -0.23253481 -0.016505938 0
-0.00449755 -0.23266669 -0.013425812 0
-0.0040509161 -0.23231532 -0.010393219 0
-0.0042990795 -0.2325142 -0.0074733915 0
-0.0041742576 -0.23251149 -0.0045236228 0
-0.0042113871 -0.23233974 -0.0014030674 0
-0.0043395353 -0.2326116 0.0015623494 0
-0.0042424258 -0.23243 0.0044535086 0
-0.004090983 -0.23253687 0.0075712539 0
-0.0041684723 -0.23246931 0.010421107 0
-0.0045833671 -0.23268871 0.013323519 0
-0.0050000581 -0.23211688 0.016472459 0
-0.0050000693 -0.23252597 0.01955343 0
-0.0042833476 -0.23249705 0.021717068 0
-0.0015424805 -0.23270042 -0.021850817 0
-0.0016964684 -0.23251028 -0.019472213 0
-0.0026877178 -0.23230571 -0.016310997 0
-0.0028916372 -0.23214591 -0.01410355 0
-0.0029016924 -0.23189691 0.0137114 0
-0.0026792272 -0.23236164 0.016343927 0
-0.0018048986 -0.23253682 0.019162182 0
-0.0013861181 -0.23253068 0.021813823 0
0.0016727224 -0.2324906 -0.021714829 0
0.0017587283 -0.23238787 -0.019990684 0
0.0017398112 -0.23268995 0.019805958 0
0.0016812102 -0.23240373 0.02168308 0
-0.0044002268 -0.22934589 -0.022122739 0
-0.0049999282 -0.22943297 -0.019437719 0
-0.004999938 -0.2295671 -0.016492337 0
-0.0049999501 -0.22959678 -0.013365591 0
-0.0043223719 -0.2295958 -0.010423249 0
-0.0041619381 -0.22932285 -0.007494492 0
-0.0039756228 -0.22943918 -0.0045595397 0
-0.0039464952 -0.22949779 -0.0013613073 0
-0.0039188475 -0.22954601 0.0016466004 0
-0.0042419913 -0.22955841 0.0045675924 0
-0.0041399724 -0.22950575 0.0073888008 0
-0.0043616504 -0.22954848 0.01037791 0
-0.0050000469 -0.22952124 0.013359969 0
-0.0050000586 -0.22933243 0.016402092 0
-0.0050000697 -0.22939476 0.019578781 0
-0.0043363869 -0.22935697 0.022147251 0
-0.0015494399 -0.22953667 -0.022433737 0
-0.0016677891 -0.22949533 -0.019525688 0
-0.0024428379 -0.22958571 -0.016714802 0
-0.0027546531 -0.22967389 -0.01359602 0
-0.0029262009 -0.22880906 -0.01117536 0
-0.0029432804 -0.22922181 0.011221865 0
-0.0027588166 -0.22946671 0.013296253 0
-0.0024554844 -0.22945255 0.016385756 0
-0.0017159565 -0.22960052 0.019521948 0
-0.0014947896 -0.22972192 0.02232632 0
0.001869301 -0.22942968 -0.022236029 0
0.0016843732 -0.22951582 -0.02033258 0
0.0017866485 -0.22926958 0.020291066 0
0.0019103613 -0.22966345 0.022094332 0
0.0030145172 -0.22801112 -0.021398587 0
0.0030194209 -0.22825257 -0.020610072 0
0.0030171156 -0.22802021 0.020662876 0
-0.0045199832 -0.22639269 -0.02247322 0
-0.0049999272 -0.22654042 -0.019527113 0
-0.0049999384 -0.22627445 -0.016458368 0
-0.0049999496 -0.22650516 -0.013684033 0
-0.0049999608 -0.22655271 -0.010313586 0
-0.0045184321 -0.22683893 -0.0075082188 0
-0.0046415245 -0.2263763 -0.0044949013 0
-0.004668084 -0.22660011 -0.0014126844 0
-0.0044024023 -0.2265521 0.0015843589 0
-0.0045270822 -0.22679077 0.0046068574 0
-0.0043020919 -0.22684659 0.0076624057 0
-0.0050000376 -0.22665402 0.010758283 0
-0.0050000469 -0.22620697 0.013424353 0
-0.0050000572 -0.22657698 0.016323309 0
-0.0050000693 -0.2266867 0.019578734 0
-0.0045301667 -0.2265645 0.022393389 0
-0.0013518151 -0.22645119 -0.022895832 0
-0.0015291455 -0.22656281 -0.019935647 0
-0.0022468814 -0.22643253 -0.016284313 0
-0.0025415246 -0.22652005 -0.013340517 0
-0.0028013606 -0.22632878 -0.010537319 0
-0.0029438324 -0.22598115 -0.0073862034 0
-0.0029421176 -0.22595176 -0.0047084969 0
-0.0029495948 -0.22608513 -0.0017202225 0
-0.0029501675 -0.22610545 0.0014744558 0
-0.0029419728 -0.22597614 0.0046584867 0
-0.0029384166 -0.2259265 0.0073530977 0
-0.0028242981 -0.2265958 0.010411399 0
-0.002503176 -0.22651772 0.013633381 0
-0.0021994109 -0.22650477 0.016728196 0
-0.0014207119 -0.22646932 0.019869551 0
-0.0012600671 -0.22664897 0.022887031 0
0.0016327057 -0.22653028 -0.022953315 0
0.0012822165 -0.22662865 -0.020739637 0
0.0014744238 -0.22639412 0.020680998 0
0.0014194206 -0.22659761 0.022891438 0
0.0031406882 -0.22633283 -0.022178544 0
0.0031454784 -0.22664225 -0.020843932 0
0.0030892652 -0.22706747 0.020701002 0
0.0031716565 -0.22611308 0.021968558 0
-0.0044856081 -0.22349258 -0.022778647 0
-0.0049999286 -0.22335185 -0.019359129 0
-0.0049999389 -0.22342636 -0.016420081 0
-0.0049999496 -0.22342594 -0.013483311 0
-0.0049999589 -0.22360747 -0.01061963 0
-0.004999971 -0.22362144 -0.007656564 0
-0.0049999822 -0.22346373 -0.0043972642 0
-0.004999992 -0.22350995 -0.0019317528 0
-0.0050000031 -0.22351131 0.0013395172 0
-0.0050000139 -0.22367649 0.0043947124 0
-0.005000025 -0.22364867 0.0073581315 0
-0.0050000357 -0.22359169 0.010131007 0
-0.0050000469 -0.22362223 0.013324008 0
-0.0050000576 -0.22361465 0.016415149 0
-0.0050000683 -0.22352748 0.019406777 0
-0.0045704227 -0.22354971 0.022786435 0
-0.0011903242 -0.22364374 -0.022878809 0
-0.0017054714 -0.22331727 -0.019413758 0
-0.0020208324 -0.22351222 -0.016341118 0
-0.0022918554 -0.22352523 -0.013581175 0
-0.0026026962 -0.22370735 -0.010544855 0
-0.0027869914 -0.2234073 -0.0074172076 0
-0.0028135732 -0.22375824 -0.0043439725 0
-0.0027925365 -0.22340834 -0.001410271 0
-0.0027927514 -0.22342204 0.001632774 0
-0.0028050742 -0.22364131 0.0044406159 0
-0.0027847714 -0.22343308 0.0073077469 0
-0.0026056184 -0.22358723 0.010324723 0
-0.0022330731 -0.22321495 0.013845265 0
-0.0019910824 -0.22351535 0.016550489 0
-0.0015952076 -0.22360067 0.019624963 0
-0.0012364866 -0.22333311 0.022514328 0
0.0015040989 -0.22325991 -0.022346742 0
0.002074264 -0.22477855 0.020954723 0
0.0015622374 -0.22344977 0.022604037 0
0.0033408026 -0.22328243 -0.022313597 0
0.0032040826 -0.22485359 0.020950114 0
0.0033273951 -0.2235264 0.02232651 0
-0.0040731402 -0.21994613 -0.024185009 0
-0.0048206616 -0.22056399 -0.022529902 0
-0.0049999277 -0.22052632 -0.019430265 0
-0.0049999389 -0.22049873 -0.01634049 0
-0.0049999496 -0.22070566 -0.013558555 0
-0.0049999612 -0.22045907 -0.010478276 0
-0.0049999706 -0.22066016 -0.0076454771 0
-0.0049999827 -0.22050664 -0.0045521525 0
-0.0049999929 -0.22040999 -0.001465333 0
-0.0050000045 -0.22044143 0.0016658747 0
-0.0050000148 -0.2206279 0.0044683213 0
-0.0050000255 -0.22047392 0.0075654406 0
-0.0050000381 -0.22053869 0.01076404 0
-0.0050000474 -0.22043571 0.01357121 0
-0.0050000572 -0.22047241 0.016261442 0
-0.0050000683 -0.2205196 0.01914827 0
-0.0046797809 -0.22072406 0.022911211 0
-0.0039752699 -0.21980692 0.024129529 0
-0.0015443008 -0.22002813 -0.024185 0
-0.001081863 -0.22085483 -0.022307541 0
-0.001460301 -0.22029623 -0.019588245 0
-0.0017911841 -0.22056691 -0.016415374 0
-0.0020812724 -0.22052385 -0.013417336 0
-0.0023817921 -0.22070703 -0.010487315 0
-0.0026085433 -0.2207053 -0.0075972979 0
-0.0026286002 -0.22060302 -0.0044822386 0
-0.0026227802 -0.22051407 -0.0013758102 0
-0.0026156101 -0.22040151 0.0015772659 0
-0.0026180849 -0.22045326 0.0044923713 0
-0.0025803812 -0.22030762 0.0076961266 0
-0.0023773245 -0.22065455 0.010394892 0
-0.0020250271 -0.22061025 0.013961548 0
-0.0017790409 -0.22047126 0.016368575 0
-0.0014954512 -0.22071707 0.019456889 0
-0.0011927509 -0.22109361 0.022981966 0
-0.0017955755 -0.21978362 0.024139715 0
0.0015356531 -0.21987964 -0.024215842 0
0.0014134971 -0.22087961 -0.022321684 0
0.0015093657 -0.22079538 0.022520084 0
0.0013912375 -0.21974216 0.024147058 0
0.0035273714 -0.21992978 -0.024125053 0
0.0035954569 -0.22040536 -0.022640772 0
0.0035811686 -0.22058062 0.02257929 0
0.0034686471 -0.21977127 0.024109095 0
-0.004522399 -0.21759537 -0.024473416 0
-0.0049999165 -0.21747999 -0.022638077 0
-0.0049999272 -0.21751106 -0.01964128 0
-0.004999938 -0.21764846 -0.016574953 0
-0.0049999496 -0.21745837 -0.013557368 0
-0.0049999603 -0.21755603 -0.010519518 0
-0.0049999719 -0.21769974 -0.00750193 0
-0.0049999827 -0.2173906 -0.0043637496 0
-0.0049999934 -0.21771777 -0.0014065712 0
-0.0050000041 -0.21753792 0.0015658105 0
-0.0050000143 -0.21749318 0.0043737772 0
-0.005000026 -0.21772137 0.0075257076 0
-0.0050000381 -0.21738623 0.01080719 0
-0.0050000465 -0.21738693 0.013439956 0
-0.0050000586 -0.21737552 0.016417969 0
-0.0050000683 -0.21760169 0.019380208 0
-0.0050000804 -0.21773429 0.022579039 0
-0.0042905295 -0.217428 0.024453538 0
-0.0015270289 -0.21756954 -0.024636591 0
-0.00083099812 -0.21749441 -0.021891428 0
-0.0012763329 -0.2175789 -0.019371573 0
-0.0015512607 -0.21753509 -0.016527884 0
-0.0018591381 -0.21745016 -0.013315788 0
-0.0021596586 -0.21745841 -0.010250381 0
-0.0024164412 -0.21756248 -0.0072473562 0
-0.0024536448 -0.21762003 -0.004485996 0
-0.0024305235 -0.21723595 -0.0014168246 0
-0.0024395662 -0.21740022 0.0016580552 0
-0.0024422449 -0.21745664 0.0049274359 0
-0.0023938068 -0.21748605 0.0075163408 0
-0.0021200981 -0.2174629 0.010560829 0
-0.0018150823 -0.21750507 0.01371102 0
-0.0015303302 -0.2174788 0.016601251 0
-0.0012921434 -0.21763948 0.019159792 0
-0.00081513374 -0.2173527 0.021890258 0
-0.0014430368 -0.21744998 0.024565533 0
0.0013374038 -0.21728781 -0.024689624 0
0.0015646836 -0.21759467 -0.022270277 0
0.0014048496 -0.21757141 0.022175785 0
0.0015159926 -0.21776578 0.024507888 0
0.0035271829 -0.2177968 -0.02452817 0
0.0038639046 -0.21770068 -0.022783281 0
0.0038394926 -0.21749109 0.022713592 0
0.0036732499 -0.21742144 0.024465689 0
-0.0042558713 -0.21435848 -0.025043115 0
-0.0049999165 -0.21456254 -0.022625424 0
-0.0049999277 -0.21448733 -0.01955862 0
-0.0049999375 -0.21457338 -0.01655134 0
-0.0049999501 -0.21457615 -0.013390839 0
-0.0049999598 -0.21446331 -0.010518462 0
-0.0049999715 -0.21456543 -0.0075154724 0
-0.0049999822 -0.21449339 -0.0044647106 0
-0.0049999924 -0.21442279 -0.0015722235 0
-0.0050000027 -0.21451081 0.0013305987 0
-0.0050000153 -0.21451618 0.0045318911 0
-0.005000025 -0.21467899 0.007318099 0
-0.0050000357 -0.21440671 0.010462464 0
-0.0050000474 -0.21427919 0.013649774 0
-0.0050000595 -0.21439305 0.016730459 0
-0.0050000697 -0.21454835 0.019817518 0
-0.0050000814 -0.21446802 0.02270809 0
-0.0044163447 -0.2142601 0.024895789 0
-0.0017167379 -0.2145586 -0.025188254 0
-0.0005375194 -0.21439436 -0.022394909 0
-0.0010274841 -0.21435373 -0.019426085 0
-0.001308211 -0.21448597 -0.016659006 0
-0.0016424931 -0.21464227 -0.013362009 0
-0.0018873394 -0.21439554 -0.010663591 0
-0.0021922002 -0.21459623 -0.0075873868 0
-0.0022762753 -0.2145953 -0.0046536578 0
-0.0022774236 -0.21462491 -0.0016139674 0
-0.0022744613 -0.21458443 0.0014327642 0
-0.0022615138 -0.21437365 0.0044564698 0
-0.0021971466 -0.21483231 0.0076582427 0
-0.0018840694 -0.21443033 0.010630217 0
-0.0015911495 -0.21447204 0.013658854 0
-0.0013051513 -0.2144798 0.016588384 0
-0.00099997653 -0.21438041 0.019630946 0
-0.00060111255 -0.21444626 0.022218002 0
-0.0014202705 -0.21465687 0.025075177 0
0.0014883613 -0.21479081 -0.025146082 0
0.0015691172 -0.21439105 -0.0228131 0
0.0014095319 -0.21446933 0.022701368 0
0.0014287968 -0.21480747 0.025047706 0
0.003913485 -0.21425822 -0.024917608 0
0.0040012421 -0.21455848 -0.023146857 0
0.0040630251 -0.21433204 0.023015128 0
0.0038874412 -0.21412805 0.024857294 0
-0.004543188 -0.21147177 -0.025327096 0
-0.0049999175 -0.2114753 -0.022579104 0
-0.0049999277 -0.21127847 -0.019492239 0
-0.0049999384 -0.21156165 -0.016580103 0
-0.0049999491 -0.21130791 -0.013508078 0
-0.0049999608 -0.2114052 -0.010659452 0
-0.0049999715 -0.21171214 -0.0075777154 0
-0.0049999813 -0.21131822 -0.00461704 0
-0.0049999929 -0.21142524 -0.0015089216 0
-0.0050000036 -0.21154651 0.0014997737 0
-0.0050000134 -0.21158537 0.0042910622 0
-0.005000026 -0.21154675 0.0076047322 0
-0.0050000353 -0.21141994 0.010314553 0
-0.0050000469 -0.21136561 0.0134081 0
-0.0050000572 -0.21156514 0.016406205 0
-0.0050000688 -0.21134531 0.019436806 0
-0.0050000795 -0.2116636 0.022446128 0
-0.0043423381 -0.21153219 0.025285058 0
-0.0016189412 -0.21152587 -0.025742916 0
-0.00049445103 -0.21135759 -0.022226313 0
-0.00078808464 -0.21159893 -0.019746989 0
-0.0011121528 -0.21164103 -0.016464779 0
-0.0013891426 -0.21154888 -0.01355572 0
-0.0016778467 -0.21147746 -0.010541895 0
-0.0019729459 -0.21134284 -0.0073919389 0
-0.0021012737 -0.2116124 -0.004384574 0
-0.0020892229 -0.21141699 -0.0013341787 0
-0.0021056775 -0.21170749 0.0016883153 0
-0.0020919584 -0.21148285 0.0044984571 0
-0.0019809611 -0.21162701 0.007451491 0
-0.001680441 -0.21159913 0.010521939 0
-0.0014065903 -0.21158555 0.013313641 0
-0.001079159 -0.21143287 0.016545534 0
-0.00078788993 -0.21139193 0.019492334 0
-0.00047015212 -0.21143684 0.022425611 0
-0.0014891234 -0.21144156 0.025661858 0
0.0015013574 -0.21176443 -0.025699295 0
0.0015803264 -0.21146712 -0.023308504 0
0.0016168979 -0.21160141 0.023187254 0
0.0015608639 -0.21137577 0.025673864 0
0.0040418138 -0.21137488 -0.025342662 0
0.0040388312 -0.21160583 -0.023420971 0
0.0040739109 -0.21122466 0.023377525 0
0.0041272459 -0.21150121 0.025280846 0
-0.004544748 -0.20865402 -0.025795219 0
-0.0049999161 -0.20876439 -0.02262675 0
-0.0049999286 -0.20828548 -0.019322744 0
-0.0049999398 -0.2085716 -0.016377995 0
-0.0049999482 -0.20864858 -0.013716083 0
-0.0049999608 -0.20824774 -0.010480297 0
-0.004999971 -0.20807454 -0.0076008164 0
-0.0049999822 -0.20866016 -0.0046694255 0
-0.0049999924 -0.20842813 -0.0015307565 0
-0.0050000027 -0.20844172 0.0013661394 0
-0.0050000153 -0.20852473 0.0044898079 0
-0.005000026 -0.20852569 0.0075333957 0
-0.0050000367 -0.20860153 0.010738309 0
-0.0050000474 -0.20856403 0.013561793 0
-0.0050000581 -0.20855866 0.016530046 0
-0.0050000683 -0.20869969 0.019452577 0
-0.0050000786 -0.20836319 0.022285519 0
-0.0042988318 -0.20853218 0.025771631 0
-0.0014974978 -0.20836237 -0.026321197 0
-0.00028149583 -0.20843637 -0.0223871 0
-0.00058152579 -0.20851535 -0.019472906 0
-0.00088158739 -0.20859833 -0.016462853 0
-0.0011841387 -0.20859963 -0.013363654 0
-0.0014747365 -0.20861916 -0.010401136 0
-0.001758665 -0.20846505 -0.0073719686 0
-0.0019223606 -0.20856337 -0.0045313314 0
-0.0019140843 -0.20842989 -0.0016255686 0
-0.0019167637 -0.20848535 0.0013329786 0
-0.001930229 -0.20875068 0.004338712 0
-0.0017287794 -0.2084427 0.0075835115 0
-0.0014769289 -0.20851965 0.010220178 0
-0.0011565164 -0.20845962 0.013452386 0
-0.00085148722 -0.20847878 0.016588481 0
-0.0005695587 -0.20851655 0.019502534 0
-0.00029913816 -0.2086518 0.022373216 0
-0.0013637772 -0.20859358 0.026181515 0
0.0013972603 -0.20843941 -0.026019977 0
0.0014355379 -0.20866016 -0.023784094 0
0.0014082635 -0.20840631 0.023728589 0
0.0013181841 -0.20841163 0.026214717 0
0.0043954663 -0.20838812 -0.025493428 0
0.0039393734 -0.20875624 -0.023778075 0
0.0039749015 -0.20848097 0.023732856 0
0.0043664225 -0.20844941 0.025653671 0
-0.0044945572 -0.20566526 -0.026017223 0
-0.0049999165 -0.20523833 -0.022664562 0
-0.0049999277 -0.2055123 -0.019502155 0
-0.0049999375 -0.20533642 -0.016694447 0
-0.0049999496 -0.20536533 -0.013487577 0
-0.0049999617 -0.20549861 -0.010324442 0
-0.0049999706 -0.20544294 -0.007547196 0
-0.0049999822 -0.20553228 -0.0044430955 0
-0.004999992 -0.20551722 -0.0017548209 0
-0.005000005 -0.20553964 0.0017741726 0
-0.0050000148 -0.20528756 0.0045870896 0
-0.0050000264 -0.20527202 0.0075544533 0
-0.0050000362 -0.2054392 0.010584053 0
-0.0050000474 -0.20515527 0.013639853 0
-0.0050000576 -0.20552781 0.016340561 0
-0.0050000688 -0.2056096 0.019467106 0
-0.00500008 -0.20559479 0.022673424 0
-0.0045509711 -0.20539008 0.025851693 0
-0.0016361556 -0.20540443 -0.026556907 0
-0.00011255936 -0.20572434 -0.022108719 0
-0.00031600616 -0.20524751 -0.019653341 0
-0.00063145801 -0.20538735 -0.016529696 0
-0.00093598175 -0.20552078 -0.013513013 0
-0.0012286579 -0.20572343 -0.010671563 0
-0.0015263073 -0.20529686 -0.007289967 0
-0.0017237113 -0.20540395 -0.0046154587 0
-0.0017371026 -0.20541276 -0.001505089 0
-0.0017504463 -0.20564951 0.0013064219 0
-0.001738422 -0.20556821 0.0044075032 0
-0.001522838 -0.20553575 0.0074401936 0
-0.0012103196 -0.20551918 0.010625266 0
-0.00092994719 -0.20552012 0.013494929 0
-0.00064505544 -0.20560166 0.016473304 0
-0.00035124991 -0.20562583 0.019498425 0
-0.00011988245 -0.20584743 0.022037471 0
-0.0016379863 -0.20559141 0.026535857 0
0.0015772732 -0.20561522 -0.026377797 0
0.001693306 -0.20535168 -0.022976331 0
0.001537886 -0.20540805 0.022921393 0
0.0013567486 -0.20537914 0.026546625 0
0.0045567374 -0.20551558 -0.025621438 0
0.0042064502 -0.20520294 -0.023077605 0
0.0042630304 -0.2053064 0.023074003 0
0.0045171473 -0.20535363 0.025837624 0
-0.0042024064 -0.20272405 -0.024881631 0
-0.0048991744 -0.20248349 -0.022652326 0
-0.0049999277 -0.20249633 -0.019524414 0
-0.0049999375 -0.20259865 -0.01648091 0
-0.0049999496 -0.20258796 -0.013510279 0
-0.0049999608 -0.20283483 -0.010373144 0
-0.004999971 -0.20231082 -0.00744429 0
-0.0049999822 -0.20225932 -0.0045887497 0
-0.0049999929 -0.20269306 -0.0015381086 0
-0.0050000031 -0.20238259 0.0014314915 0
-0.0050000143 -0.20277481 0.0043293135 0
-0.0050000255 -0.20255385 0.0075150328 0
-0.0050000371 -0.20244941 0.010596925 0
-0.0050000474 -0.20249221 0.013580269 0
-0.0050000576 -0.20247535 0.016501574 0
-0.0050000688 -0.20250849 0.01954606 0
-0.0048495289 -0.20231815 0.022814246 0
-0.0041710823 -0.2028157 0.024824174 0
-0.001445553 -0.20272256 -0.024975209 0
-0.0012934215 -0.20146492 -0.023636779 0
-0.0001469405 -0.20249574 -0.019246571 0
-0.00040707664 -0.20250875 -0.016591076 0
-0.00071218511 -0.20266011 -0.013582367 0
-0.0010279008 -0.2027552 -0.010421206 0
-0.0012580828 -0.20232925 -0.0077314498 0
-0.0015134772 -0.20227611 -0.0047131148 0
-0.0015603327 -0.20239931 -0.0013648347 0
-0.0015640524 -0.20247212 0.0014863649 0
-0.0015432264 -0.20262843 0.0044760136 0
-0.001311177 -0.20262372 0.0073514828 0
-0.0010021667 -0.20241053 0.010348413 0
-0.00072993559 -0.20270105 0.013359014 0
-0.00040911121 -0.2025477 0.016523158 0
-0.00014008644 -0.20261662 0.019329334 0
-0.0011080492 -0.20151368 0.023539679 0
-0.0015462536 -0.20251785 0.024727382 0
0.0015104864 -0.20284057 -0.025066853 0
0.0013277959 -0.20261461 -0.022320852 0
0.0012876526 -0.20189115 -0.020289944 0
0.0014057554 -0.20183311 0.020162091 0
0.0012897033 -0.2025914 0.022327567 0
0.0013250717 -0.20274743 0.024904875 0
0.0042417492 -0.20291547 -0.024944725 0
0.0046086065 -0.20272149 -0.022495499 0
0.0040953695 -0.20170379 -0.020229774 0
0.0041929591 -0.20196259 0.020408984 0
0.0046596369 -0.20261247 0.022411771 0
0.0041404208 -0.20280288 0.024840213 0
-0.004328731 -0.1997129 -0.022242771 0
-0.0049999277 -0.19959928 -0.019395778 0
-0.0049999389 -0.19944918 -0.01631386 0
-0.0049999496 -0.19961125 -0.013452838 0
-0.0049999603 -0.19963141 -0.010590647 0
-0.0049999715 -0.19958223 -0.0074382131 0
-0.0049999817 -0.19940084 -0.0047792899 0
-0.0049999929 -0.19955543 -0.0015707193 0
-0.0050000031 -0.19939072 0.0015881035 0
-0.0050000148 -0.19949336 0.0044506066 0
-0.005000026 -0.19943455 0.007603813 0
-0.0050000362 -0.19957715 0.01044459 0
-0.0050000483 -0.19941306 0.013587708 0
-0.0050000581 -0.19941606 0.016387159 0
-0.0050000693 -0.19942139 0.019697616 0
-0.0042967806 -0.19941807 0.022084372 0
-0.001661143 -0.19936821 -0.022370256 0
-7.0403614e-05 -0.20046099 -0.018449023 0
-0.00020981563 -0.19960886 -0.016358053 0
-0.00048341884 -0.1995599 -0.013516472 0
-0.00078148273 -0.19954084 -0.010447445 0
-0.001070653 -0.1995414 -0.0074847657 0
-0.0013196461 -0.19945146 -0.004660734 0
-0.0013919092 -0.19952758 -0.0013880499 0
-0.0013936281 -0.19956662 0.0015740814 0
-0.00133149 -0.19930471 0.0043181139 0
-0.001087283 -0.19957113 0.0072790892 0
-0.00076047436 -0.19958849 0.010636678 0
-0.00048458471 -0.19945844 0.013359058 0
-0.000170695 -0.19950387 0.016606137 0
-4.37282e-05 -0.20043981 0.018630007 0
-0.0014706965 -0.1994407 0.022348572 0
0.0015091526 -0.19962706 -0.022571282 0
0.0014509616 -0.1997312 -0.018612821 0
0.0018712011 -0.19848467 -0.017648574 0
0.0013082775 -0.19856432 0.017634841 0
0.001612247 -0.199984 0.018733118 0
0.0016781298 -0.1994264 0.022337483 0
0.0042012171 -0.19952755 -0.022339577 0
0.0046341778 -0.19973718 -0.019397873 0
0.004456128 -0.19846517 -0.017685058 0
0.0038475911 -0.19853318 0.017614048 0
0.0046547875 -0.19956036 0.019204821 0
0.0043642316 -0.1995711 0.02213425 0
-0.0041991142 -0.19777529 -0.02113324 0
-0.0044401516 -0.19649793 -0.019628622 0
-0.0049999394 -0.19657944 -0.016384196 0
-0.0049999496 -0.19643708 -0.013335754 0
-0.0049999598 -0.19662783 -0.010515887 0
-0.004999971 -0.19632931 -0.0074767 0
-0.0049999822 -0.19655252 -0.0044201924 0
-0.0049999929 -0.19667837 -0.0016066089 0
-0.0050000041 -0.19647999 0.0015170587 0
-0.0050000143 -0.19658224 0.0044455077 0
-0.0050000246 -0.1963757 0.0073623997 0
-0.0050000357 -0.19659092 0.010453609 0
-0.0050000474 -0.196605 0.013562856 0
-0.005000059 -0.19637631 0.016602358 0
-0.0044920528 -0.19672866 0.019668957 0
-0.0042411215 -0.19786677 0.021131812 0
-0.0019123384 -0.19781178 -0.021161567 0
-0.0015752534 -0.19628502 -0.019975903 0
-6.979239e-05 -0.1967514 -0.015571509 0
-0.00027014629 -0.1966567 -0.013444916 0
-0.00053502765 -0.19644722 -0.01056789 0
-0.00080381881 -0.19628866 -0.00769033 0
-0.0011474536 -0.19657408 -0.0043225801 0
-0.0012122535 -0.19646446 -0.0013813924 0
-0.0012095007 -0.19642666 0.0013897474 0
-0.0011389905 -0.19663827 0.004412326 0
-0.00082017604 -0.19648135 0.0076201442 0
-0.00052913092 -0.19645163 0.010575287 0
-0.0002380931 -0.19660807 0.013674478 0
-9.3387236e-05 -0.19710287 0.015538326 0
-0.0012831213 -0.19625986 0.019889578 0
-0.0011136218 -0.19789027 0.021149972 0
0.00088788971 -0.19770385 -0.021077741 0
0.0014276294 -0.19621153 -0.019918816 0
0.0014746601 -0.19655818 -0.016146172 0
0.0017418236 -0.19503912 -0.014969365 0
0.0002708417 -0.19505942 0.0149139 0
0.0015140414 -0.19656023 0.016085269 0
0.001452571 -0.19641191 0.020006701 0
0.0019562941 -0.19785367 0.021121548 0
0.0042294357 -0.19783102 -0.021147726 0
0.0046311226 -0.19646074 -0.019547431 0
0.0042748721 -0.19638769 -0.01626263 0
0.0036214723 -0.19504461 -0.014986836 0
0.0039980249 -0.19511418 0.014972591 0
0.0045012003 -0.19621252 0.016456859 0
0.0045605027 -0.19656113 0.019581871 0
0.0037694178 -0.197818 0.021090984 0
-0.004130912 -0.19445342 -0.018429741 0
-0.0047095185 -0.19327043 -0.016619951 0
-0.0049999491 -0.19335967 -0.013574961 0
-0.0049999594 -0.19341396 -0.010539887 0
-0.0049999706 -0.19333148 -0.0076599983 0
-0.0049999827 -0.193407 -0.0042130393 0
-0.0049999929 -0.19344163 -0.0013984513 0
-0.0050000036 -0.19357298 0.0016046518 0
-0.0050000134 -0.19344363 0.0041750744 0
-0.0050000264 -0.19338447 0.0076762149 0
-0.0050000353 -0.19356097 0.010211019 0
-0.0050000479 -0.19362772 0.013565834 0
-0.0045128213 -0.19320995 0.016764985 0
-0.0040521449 -0.19444731 0.018427644 0
-0.0014088884 -0.19443166 -0.018536599 0
-0.0012793341 -0.19272386 -0.017210331 0
-9.1943672e-05 -0.19390224 -0.013129654 0
-0.00032857599 -0.19345464 -0.010356973 0
-0.00061323511 -0.19353557 -0.0075030257 0
-0.00092184433 -0.19358113 -0.0043701646 0
-0.0010371193 -0.19347817 -0.0014428203 0
-0.0010416465 -0.1935664 0.0014720407 0
-0.00092220161 -0.19395103 0.0046149525 0
-0.00060511648 -0.19349083 0.0075053954 0
-0.00031700457 -0.19363824 0.010567699 0
-0.00010001685 -0.19387174 0.012968851 0
-0.0015246506 -0.19292068 0.017308226 0
-0.0017503307 -0.19445996 0.018498151 0
0.0015847238 -0.19431059 -0.018442556 0
0.0014514728 -0.19291735 -0.017360592 0
0.001458647 -0.19348168 -0.013753751 0
0.0014399379 -0.19358566 0.013783436 0
0.0014196722 -0.19274858 0.017173259 0
0.001479786 -0.19445495 0.018492917 0
0.0040478879 -0.19434617 -0.018428633 0
0.0046186568 -0.19322814 -0.016625492 0
0.0041822363 -0.193454 -0.014024223 0
0.0041715736 -0.19346024 0.013869899 0
0.00459257 -0.19352584 0.016685015 0
0.0042047338 -0.19452205 0.018458584 0
-0.0042869253 -0.19097114 -0.015696311 0
-0.0047586174 -0.19025214 -0.013733942 0
-0.0049999598 -0.19065228 -0.010699599 0
-0.0049999719 -0.19041306 -0.0073065567 0
-0.0049999817 -0.19040118 -0.0044487463 0
-0.0049999929 -0.19041616 -0.0015330168 0
-0.0050000027 -0.19064593 0.0014587719 0
-0.0050000139 -0.19061236 0.0043863044 0
-0.0050000255 -0.1906876 0.0075091375 0
-0.0050000367 -0.19056003 0.010513644 0
-0.0047746259 -0.19022578 0.013577618 0
-0.0042326218 -0.19095716 0.015686959 0
-0.0014263703 -0.19103372 -0.015897809 0
-0.001799187 -0.18949181 -0.014700365 0
-0.00011598162 -0.19052488 -0.010257808 0
-0.00035323034 -0.19021627 -0.0075868643 0
-0.00069119339 -0.1905801 -0.0044066673 0
-0.00086619373 -0.19062991 -0.0014375396 0
-0.00086100929 -0.19050069 0.0014090057 0
-0.00069559383 -0.19069141 0.004412198 0
-0.00035838384 -0.19051123 0.0077232393 0
-0.00011811897 -0.19055291 0.010214077 0
-0.0011552927 -0.18960747 0.0144616 0
-0.0014758103 -0.19087304 0.015725268 0
0.0014390805 -0.19064695 -0.01559745 0
0.0016267153 -0.19035123 -0.013672724 0
0.001462035 -0.19012122 -0.011138069 0
0.001460852 -0.19021007 0.011170967 0
0.0014436675 -0.19038697 0.013663524 0
0.0011246437 -0.19090277 0.015745556 0
0.0042150305 -0.19103135 -0.015759496 0
0.0046215518 -0.19053595 -0.013484701 0
0.0043407721 -0.19002752 -0.011248131 0
0.0041367109 -0.18991072 0.011048102 0
0.0046432801 -0.19055009 0.013514671 0
0.0043404219 -0.19090435 0.015524168 0
-0.0041905269 -0.18777725 -0.013114984 0
-0.0049845027 -0.18750866 -0.010464758 0
-0.004999971 -0.18735494 -0.0073963678 0
-0.0049999822 -0.18737525 -0.0045838952 0
-0.0049999924 -0.18768021 -0.0015116909 0
-0.0050000031 -0.18755537 0.0013631243 0
-0.0050000148 -0.18738982 0.0044728164 0
-0.005000026 -0.1875491 0.0075588967 0
-0.0050000362 -0.18767557 0.010571572 0
-0.0043693008 -0.18756734 0.012949076 0
-0.0014720829 -0.18749259 -0.013147809 0
-6.1433959e-05 -0.18857783 -0.0093031498 0
-0.00016330695 -0.18777062 -0.007631741 0
-0.00044832734 -0.18741407 -0.0044340589 0
-0.0006759172 -0.18756291 -0.0014906527 0
-0.00065506221 -0.18728866 0.0015693909 0
-0.00045754426 -0.18744871 0.0043374994 0
-0.00018489125 -0.1876291 0.0072671287 0
-0.00039307828 -0.18805547 0.010024223 0
-0.0014084566 -0.18751054 0.013125078 0
0.0016737286 -0.18749215 -0.013147426 0
0.0013281839 -0.18812948 -0.0095844818 0
0.0017144426 -0.18681239 -0.0085605308 0
0.0016946263 -0.18672226 0.0084730638 0
0.0017777343 -0.18803211 0.0099527491 0
0.0014290381 -0.18755788 0.013156402 0
0.0043421942 -0.18747823 -0.013008654 0
0.004474916 -0.18773422 -0.010278637 0
0.0042532524 -0.18657443 -0.0084373243 0
0.0043751355 -0.18667975 0.0085161151 0
0.0045505669 -0.18759876 0.010315607 0
0.0044606612 -0.18775512 0.013122288 0
-0.0044126706 -0.18481158 -0.010506986 0
-0.0049999706 -0.18454546 -0.0076119816 0
-0.0049999817 -0.18475133 -0.0044478099 0
-0.0049999924 -0.18462484 -0.0016792476 0
-0.0050000027 -0.18438689 0.0011418718 0
-0.0050000148 -0.18430829 0.004597127 0
-0.0050000255 -0.18474205 0.0075202892 0
-0.0044589411 -0.18464282 0.010465881 0
-0.0017575572 -0.18426612 -0.010642138 0
-7.3466348e-05 -0.18540841 -0.0067159971 0
-0.00017580071 -0.18441366 -0.0048940657 0
-0.00046892135 -0.18443483 -0.0015524775 0
-0.00046945678 -0.18454051 0.0017018361 0
-0.00023596565 -0.18468562 0.0044655874 0
-6.0731269e-05 -0.18511872 0.0065940176 0
-0.0013155986 -0.1846125 0.010883084 0
0.0016318739 -0.18450011 -0.010823824 0
0.0014025652 -0.18481921 -0.0070110084 0
0.001561453 -0.18323025 -0.005775738 0
0.001319927 -0.18325174 0.0057825446 0
0.0014735979 -0.18491347 0.0070705148 0
0.0014884602 -0.1844122 0.010721958 0
0.0044958843 -0.18471415 -0.010485795 0
0.0045442767 -0.18466181 -0.0075056856 0
0.0045447983 -0.18326104 -0.0058526611 0
0.0039673103 -0.18322982 0.0058074784 0
0.0044715083 -0.18453813 0.0073817414 0
0.0044085789 -0.18471213 0.010380683 0
-0.0040972615 -0.18262149 -0.0093425214 0
-0.0045704162 -0.18150851 -0.0076652756 0
-0.0049999817 -0.18139647 -0.0045050089 0
-0.0049999924 -0.1814035 -0.0015294187 0
-0.0050000041 -0.1816707 0.0015626934 0
-0.0050000153 -0.18136173 0.0045417738 0
-0.0046017682 -0.18115076 0.0075987917 0
-0.0039494364 -0.18258388 0.0092906021 0
-0.0015012405 -0.18260181 -0.0093496786 0
-0.0013337593 -0.18122253 -0.0082785236 0
-8.0817219e-05 -0.18190752 -0.0039191395 0
-0.00028457871 -0.1814798 -0.0012636625 0
-0.00026480117 -0.18159258 0.0016258277 0
-7.5600459e-05 -0.18189318 0.0039445739 0
-0.0013744388 -0.18118684 0.0082324604 0
-0.0018032084 -0.18266349 0.0093761384 0
0.0014718504 -0.18245289 -0.0092340065 0
0.0012836611 -0.18111369 -0.008193979 0
0.0014487971 -0.18139078 -0.0043456987 0
0.0013546421 -0.18157463 0.00448445 0
0.001538596 -0.18106321 0.0081302179 0
0.0015557293 -0.18251216 0.0092514651 0
0.0040868279 -0.18271236 -0.0094216978 0
0.0046738968 -0.18139301 -0.0076168962 0
0.0045408588 -0.18122222 -0.0045739417 0
0.0042170682 -0.18139811 0.004571056 0
0.0045960685 -0.18146156 0.0075615067 0
0.0040423577 -0.18256313 0.0092634913 0
-0.0042659473 -0.17925784 -0.0066808523 0
-0.0047071199 -0.17821428 -0.00464421 0
-0.0049999938 -0.17861806 -0.0013081115 0
-0.0050000036 -0.17862476 0.0014242749 0
-0.0047464767 -0.1783402 0.0047064903 0
-0.0040934919 -0.17936648 0.0067326585 0
-0.0017093227 -0.17913884 -0.0066603478 0
-0.0013339566 -0.17760517 -0.0054693213 0
-0.00011127773 -0.17851894 -0.00089261617 0
-6.7460765e-05 -0.17839685 0.0013169518 0
-0.0015284281 -0.17757548 0.0054381541 0
-0.0018180877 -0.17911327 0.0066288356 0
0.0013091286 -0.17910023 -0.0066303615 0
0.0013801892 -0.17794822 -0.005110377 0
0.0016140204 -0.17818546 -0.0018538582 0
0.0016324921 -0.17824559 0.0019098265 0
0.0014986204 -0.17851335 0.0045158858 0
0.0017543191 -0.17915781 0.0066552507 0
0.004173757 -0.17918129 -0.0066750473 0
0.0047060507 -0.17825246 -0.0047642211 0
0.0041095573 -0.17844631 -0.0021892404 0
0.0043851184 -0.1781936 0.002143621 0
0.0046580229 -0.17848217 0.0046338253 0
0.0042544492 -0.17921038 0.0066520288 0
-0.004470557 -0.17528087 -0.0044606663 0
-0.0049999929 -0.17564213 -0.0015999717 0
-0.0050000031 -0.17551297 0.0014223928 0
-0.0044433107 -0.17535736 0.0045344103 0
-0.00159766 -0.17552917 -0.004999368 0
-3.1554668e-05 -0.1766011 -0.00027206077 0
-1.0096409e-05 -0.17662257 0.00053417776 0
-0.0013612682 -0.17530705 0.0049642427 0
0.0014763597 -0.17541037 -0.0049993582 0
0.0013210428 -0.17640014 -0.00046592081 0
0.0014443971 -0.17642716 0.00049792486 0
0.0014720905 -0.17540199 0.0049359188 0
0.0044677327 -0.17555241 -0.0046497625 0
0.0047589429 -0.17577097 -0.0015736034 0
0.0047425972 -0.17568484 0.001237897 0
0.0044320715 -0.17554297 0.0044785244 0
-0.004548728 -0.17247081 -0.0045536542 0
-0.004999992 -0.17237318 -0.0014889437 0
-0.0050000064 -0.17238466 0.001765138 0
-0.0046067568 -0.17239667 0.0044258782 0
-0.0014183847 -0.17240168 -0.0049993806 0
-0.0013766764 -0.17246655 0.0049643856 0
0.0014316989 -0.17223091 -0.0049993698 0
0.0017880313 -0.17220029 0.0049327496 0
0.0045617339 -0.17268942 -0.0044785342 0
0.0050000045 -0.17232144 -0.0016672619 0
0.004999992 -0.17254342 0.001590008 0
0.0044125794 -0.1725616 0.0044960813 0
-0.0046119262 -0.16950771 -0.0044753267 0
-0.0049999934 -0.16982476 -0.001549058 0
-0.0050000045 -0.16959931 0.0016338022 0
-0.0045960415 -0.16955115 0.0044618119 0
-0.0014820761 -0.1692853 -0.0049993917 0
-0.0015707745 -0.16946791 0.0049663153 0
0.0014781107 -0.16953929 -0.0049993801 0
0.0014992831 -0.16952218 0.0049356259 0
0.0044843331 -0.16942723 -0.0045580412 0
0.0050000036 -0.16953862 -0.001408303 0
0.0049999938 -0.1696499 0.0012572668 0
0.0045144572 -0.16955291 0.0045128735 0
-0.0045190118 -0.16654542 -0.0045093149 0
-0.0049999943 -0.16636553 -0.0013014972 0
-0.0050000045 -0.16648176 0.001550314 0
-0.0044906782 -0.16637459 0.0045153592 0
-0.0014972547 -0.16634724 -0.0049994015 0
-0.0014529993 -0.16656157 0.0049651274 0
0.0013210796 -0.16655757 -0.0049993908 0
0.0017544052 -0.1666595 0.0049330648 0
0.0044971583 -0.16653208 -0.0045188703 0
0.0050000031 -0.16657099 -0.0014143048 0
0.0049999934 -0.16634201 0.0014085947 0
0.0045194761 -0.1665923 0.0043930174 0
-0.0046311151 -0.16334982 -0.0044655367 0
-0.0049999934 -0.16356558 -0.0015264568 0
-0.0050000045 -0.163443 0.0016007762 0
-0.0044540688 -0.16355248 0.0045917942 0
-0.0016174903 -0.16358338 -0.0049994122 0
-0.0015176942 -0.16347151 0.0049657621 0
0.0015764291 -0.16341494 -0.0049994015 0
0.001541377 -0.16357508 0.0049351831 0
0.0045802505 -0.16355294 -0.004448392 0
0.0050000041 -0.16361041 -0.0015289739 0
0.0049999929 -0.16365403 0.0015057422 0
0.0045181625 -0.16352713 0.0043439129 0
-0.0044273618 -0.16056432 -0.0045166714 0
-0.0049999934 -0.16047311 -0.0013678933 0
-0.0050000031 -0.16060494 0.0014302307 0
-0.0046075429 -0.16048889 0.0044040163 0
-0.001376836 -0.16068628 -0.0049994225 0
-0.0016042882 -0.16054717 0.004966618 0
0.0015363472 -0.16023448 -0.0049994127 0
0.0013488146 -0.16042793 0.004937097 0
0.0044573359 -0.16034219 -0.004557007 0
0.0050000045 -0.16076697 -0.001480269 0
0.004999992 -0.16083725 0.001646503 0
0.0045122216 -0.16065504 0.0043371455 0
-0.004519606 -0.15744913 -0.0045008832 0
-0.0049999929 -0.15752563 -0.0014508277 0
-0.0050000036 -0.15763959 0.0015341426 0
-0.0045410385 -0.15730773 0.0043966989 0
-0.0016096475 -0.15721732 -0.004999435 0
-0.0014749489 -0.15728715 0.0049653142 0
0.001587867 -0.15751541 -0.0049994225 0
0.0014419922 -0.15720259 0.004936154 0
0.0044118892 -0.1574152 -0.00457941 0
0.0050000022 -0.15746476 -0.0012638721 0
0.0049999934 -0.15741438 0.0014522258 0
0.0046836669 -0.1576121 0.0042479555 0
-0.0046600024 -0.15447354 -0.0044023045 0
-0.0049999929 -0.15437868 -0.0014804885 0
-0.0050000041 -0.1546265 0.0015947851 0
-0.0044142297 -0.15451261 0.0045797159 0
-0.001502197 -0.15459451 -0.0049994434 0
-0.0014725419 -0.15472645 0.0049652811 0
0.0015567616 -0.15457381 -0.0049994332 0
0.0017082478 -0.15439776 0.004933483 0
0.0042558867 -0.15430778 -0.0046884553 0
0.0050000031 -0.15457651 -0.0014718676 0
0.0049999929 -0.15457396 0.0014139477 0
0.0044140466 -0.15425831 0.0044549177 0
-0.0044166842 -0.15142557 -0.004571937 0
-0.004999992 -0.15160406 -0.0017578297 0
-0.0050000041 -0.15150398 0.0015408171 0
-0.0045839874 -0.15135722 0.0044355569 0
-0.0014762708 -0.1516324 -0.0049994551 0
-0.0014399237 -0.15155934 0.004964943 0
0.0014148414 -0.1515402 -0.0049994448 0
0.0017664245 -0.15155701 0.0049328902 0
0.004546382 -0.15152684 -0.0044550817 0
0.0050000031 -0.15163793 -0.0014476443 0
0.0049999934 -0.15136549 0.0013897953 0
0.0044640796 -0.15148367 0.0045555416 0
-0.0044485154 -0.14839393 -0.0046407636 0
-0.0049999929 -0.14855805 -0.0016176767 0
-0.0050000041 -0.14856935 0.0015299871 0
-0.0046016257 -0.14834753 0.0043050963 0
-0.0013749304 -0.14867397 -0.0049994644 0
-0.001651081 -0.14844036 0.0049670408 0
0.001408207 -0.14851095 -0.0049994551 0
0.0015377705 -0.14862159 0.0049351663 0
0.0044319108 -0.1487399 -0.004602469 0
0.0050000069 -0.14842129 -0.0017170585 0
0.004999992 -0.14823009 0.0016495297 0
0.004448609 -0.1484672 0.0044330698 0
-0.0045929174 -0.14553694 -0.0045067207 0
-0.0049999929 -0.14583683 -0.0016061112 0
-0.0050000036 -0.14546177 0.0014083176 0
-0.0044504767 -0.14549814 0.0046659908 0
-0.0015101591 -0.14535023 -0.0049994779 0
-0.0013547529 -0.1454535 0.0049640685 0
0.0016467872 -0.14556353 -0.0049994648 0
0.0013967031 -0.1453629 0.0049365638 0
0.004617542 -0.1451913 -0.0044176327 0
0.0050000031 -0.14526892 -0.0013303886 0
0.0049999934 -0.14531939 0.0013528346 0
0.0044754017 -0.14570256 0.0044239839 0
-0.0043629613 -0.1426321 -0.004590279 0
-0.0049999934 -0.14245784 -0.0013778773 0
-0.0050000055 -0.1423168 0.0016379571 0
-0.0045422986 -0.14238617 0.0044914996 0
-0.0015681706 -0.14250755 -0.0049994877 0
-0.0014588428 -0.14270803 0.0049650995 0
0.0014919817 -0.14265655 -0.004999477 0
0.0015843922 -0.14253862 0.0049346769 0
0.0046993671 -0.14222941 -0.0044511235 0
0.0050000041 -0.14236836 -0.0014788012 0
0.0049999924 -0.14239396 0.0016170826 0
0.0044037453 -0.14260414 0.0045660655 0
-0.0043884744 -0.13940981 -0.0045732749 0
-0.0049999924 -0.13938409 -0.00163607 0
-0.0050000027 -0.13932234 0.0013102852 0
-0.0045340648 -0.13959675 0.00449224 0
-0.0016017093 -0.13951848 -0.0049994984 0
-0.0015652333 -0.13946053 0.0049661519 0
0.001671619 -0.13955402 -0.0049994877 0
0.0014179461 -0.13943698 0.004936331 0
0.0044792723 -0.1394673 -0.004519166 0
0.0050000036 -0.13935037 -0.0014500534 0
0.0049999934 -0.13960688 0.0013310307 0
0.0045497511 -0.13928764 0.0043846676 0
-0.0043979869 -0.13639143 -0.0044006072 0
-0.0049999929 -0.13620456 -0.0015432715 0
-0.0050000036 -0.13653912 0.001321257 0
-0.0044457512 -0.13658732 0.0045865187 0
-0.0013808663 -0.1366833 -0.0049995086 0
-0.0015096063 -0.13630131 0.0049655838 0
0.0013509258 -0.13640425 -0.0049994998 0
0.0014805292 -0.13643767 0.0049356944 0
0.004510778 -0.13650662 -0.0044390787 0
0.0050000041 -0.13666482 -0.0015767751 0
0.0049999929 -0.13637751 0.0014842571 0
0.0044644149 -0.13654219 0.0044686198 0
-0.0044549191 -0.13357125 -0.0045203506 0
-0.0049999934 -0.13337137 -0.0014634413 0
-0.0050000041 -0.13352932 0.0015997724 0
-0.0046416889 -0.13361131 0.004336026 0
-0.001379854 -0.13340884 -0.0049995203 0
-0.0015594919 -0.13353452 0.0049660732 0
0.0014126571 -0.13359635 -0.0049995091 0
0.0014190908 -0.13377967 0.0049362988 0
0.0045448132 -0.13349721 -0.0043212604 0
0.0050000041 -0.13367885 -0.0015265793 0
0.0049999952 -0.13327907 0.0011655487 0
0.0045370441 -0.13338941 0.0043723206 0
-0.0044594281 -0.13034725 -0.0045447098 0
-0.0049999924 -0.13045712 -0.0015665144 0
-0.0050000045 -0.13039008 0.0015380681 0
-0.0044404264 -0.13057096 0.0044251247 0
-0.0011817353 -0.13063248 -0.00499953 0
-0.0012343491 -0.13066319 0.0049628122 0
0.0013327622 -0.13059296 -0.0049995221 0
0.0014193791 -0.13060279 0.004936283 0
0.0045153601 -0.13063446 -0.0045148139 0
0.005000005 -0.13048017 -0.0014995211 0
0.004999992 -0.13047469 0.0016446944 0
0.0044865329 -0.13060881 0.004529174 0
-0.0045884103 -0.12759764 -0.0042865775 0
-0.0049999924 -0.12775896 -0.0015403249 0
-0.0050000031 -0.12751105 0.0014357386 0
-0.0044786506 -0.12774977 0.0044283336 0
-0.0018097586 -0.12770468 -0.0049995431 0
-0.0013800474 -0.12764421 0.0049642567 0
0.0015197167 -0.12758325 -0.0049995305 0
0.0016455969 -0.127517 0.0049340115 0
0.0045760386 -0.12745149 -0.0044495687 0
0.0050000041 -0.12737395 -0.0016446167 0
0.0049999934 -0.127536 0.0014885741 0
0.0044448823 -0.12740514 0.0045627272 0
-0.0044638696 -0.12467822 -0.0045020753 0
-0.0049999924 -0.12466738 -0.0017103909 0
-0.0050000036 -0.12438149 0.0014606449 0
-0.0044773393 -0.12441996 0.0046106833 0
-0.0015246311 -0.12463109 -0.0049995533 0
-0.0014849402 -0.12467405 0.0049652946 0
0.0013341485 -0.12464107 -0.0049995431 0
0.0014990465 -0.12447733 0.0049354658 0
0.0044553936 -0.12459178 -0.004494227 0
0.0050000027 -0.12469665 -0.0014732118 0
0.004999992 -0.12433629 0.0016955052 0
0.0044977069 -0.12452385 0.0045090551 0
-0.0045667612 -0.12156107 -0.0044528199 0
-0.0049999924 -0.12158633 -0.0015322268 0
-0.0050000027 -0.12142172 0.0013041081 0
-0.0045137634 -0.12123462 0.0044935844 0
-0.0014203618 -0.12133299 -0.004999564 0
-0.001543313 -0.12151945 0.0049658674 0
0.0016819161 -0.12150466 -0.0049995524 0
0.0017428487 -0.12159085 0.0049330182 0
0.0046066232 -0.12161776 -0.0044542598 0
0.0050000041 -0.12175659 -0.0014911193 0
0.0049999929 -0.12151273 0.0015083932 0
0.0044742879 -0.12165718 0.0044944012 0
-0.0045499518 -0.11836863 -0.004412353 0
-0.004999992 -0.11853108 -0.0015894473 0
-0.0050000045 -0.1183115 0.0016491968 0
-0.0044017625 -0.11844522 0.004486558 0
-0.0016085854 -0.11849556 -0.0049995752 0
-0.0016187957 -0.1187162 0.004966611 0
0.0014791187 -0.1186045 -0.004999564 0
0.0014569754 -0.11862952 0.0049358648 0
0.004338542 -0.11852609 -0.004641559 0
0.0050000045 -0.1186865 -0.0013579301 0
0.0049999929 -0.11862113 0.001602347 0
0.0044768956 -0.11846655 0.0044487407 0
-0.004415004 -0.11561663 -0.0044999593 0
-0.0049999929 -0.11574041 -0.0013991493 0
-0.0050000045 -0.11523126 0.0015471557 0
-0.0045110467 -0.11565912 0.0044536325 0
-0.0012991029 -0.11544573 -0.004999585 0
-0.0014151119 -0.11545484 0.0049645645 0
0.0013497638 -0.11521082 -0.0049995771 0
0.0015455654 -0.1155726 0.004934967 0
0.0045474749 -0.11572097 -0.0045268913 0
0.0050000041 -0.11551012 -0.0015403761 0
0.0049999934 -0.115527 0.0012654525 0
0.0044907858 -0.11545002 0.004432512 0
-0.0046357578 -0.11245537 -0.0043348363 0
-0.0049999929 -0.11249758 -0.0013718246 0
-0.0050000031 -0.11238645 0.0014123883 0
-0.0044204919 -0.11247476 0.0045803604 0
-0.0016397607 -0.11244503 -0.0049995976 0
-0.0017677984 -0.11263829 0.0049680793 0
0.0013195726 -0.11252998 -0.0049995864 0
0.0013491687 -0.11223131 0.0049369186 0
0.0045180321 -0.11248551 -0.0044938629 0
0.0050000036 -0.11241063 -0.0016369905 0
0.0049999934 -0.11255138 0.0014336191 0
0.0044590076 -0.11249805 0.0045180074 0
-0.0043080747 -0.10957061 -0.0046185884 0
-0.0049999929 -0.10938527 -0.0016013217 0
-0.0050000041 -0.10938548 0.0015238991 0
-0.0045277611 -0.10957936 0.004504438 0
-0.0012800613 -0.10960779 -0.0049996069 0
-0.0015865607 -0.10940976 0.0049662562 0
0.0015865356 -0.10982931 -0.0049995952 0
0.0014615089 -0.10979302 0.004935788 0
0.004485819 -0.1095333 -0.0044163289 0
0.0050000045 -0.10950913 -0.0016819977 0
0.0049999938 -0.10949697 0.0014504323 0
0.0044613504 -0.1095646 0.0045193578 0
