# .PCD v0.7 - Point Cloud Data file format
VERSION 0.7
FIELDS x y z rgb
SIZE 4 4 4 4
TYPE F F F F
COUNT 1 1 1 1
WIDTH 1188
HEIGHT 1
VIEWPOINT 0 0 0 1 0 0 0
POINTS 1188
DATA ascii
-0.0047195684 -0.24455445 0.02242952 0
-0.0043837414 -0.24422263 0.025030185 0
-0.001438243 -0.24459502 -0.025118565 0
-0.001474335 -0.2444811 0.025189128 0
0.00091010303 -0.24447882 -0.025272133 0
0.00076435186 -0.24455875 0.025194101 0
-0.0041607562 -0.24077287 -0.027419705 0
-0.0046121236 -0.24153562 -0.025620148 0
-0.0045576962 -0.24137448 -0.022602368 0
-0.0042557465 -0.24140394 -0.019460946 0
-0.0040908917 -0.24142584 -0.016392829 0
-0.0043239696 -0.24154486 -0.013375887 0
-0.0043229698 -0.24150676 -0.010513138 0
-0.0043737604 -0.2414878 -0.0074824682 0
-0.0044591916 -0.24150118 -0.0045082374 0
-0.0043884465 -0.24151649 -0.0014726864 0
-0.0043603564 -0.24144761 0.001682263 0
-0.0044313706 -0.24147676 0.0044410876 0
-0.0045276359 -0.24157776 0.0075911204 0
-0.0043538921 -0.241446 0.010361242 0
-0.0043667909 -0.24146545 0.013483534 0
-0.0042148409 -0.24149099 0.016633477 0
-0.0042691492 -0.24144545 0.019448962 0
-0.0046443199 -0.24142368 0.022591107 0
-0.0046017156 -0.24149626 0.025666982 0
-0.0042700069 -0.24061677 0.027419027 0
-0.0015943837 -0.24090375 -0.027410118 0
-0.0015582801 -0.24218298 -0.026601141 0
-0.001489756 -0.24209262 0.026490554 0
-0.0015289991 -0.24087314 0.027381873 0
0.0010209659 -0.24088202 -0.027390648 0
0.00099095551 -0.24211979 -0.026533505 0
0.0011060425 -0.24195074 0.026517626 0
0.0010833511 -0.24070095 0.027411511 0
-0.0043690419 -0.23842664 -0.02837979 0
-0.0046918355 -0.23846535 -0.025314849 0
-0.0044392562 -0.23848554 -0.022381578 0
-0.0042551248 -0.23837452 -0.019770781 0
-0.0042143543 -0.23866716 -0.016477078 0
-0.0042862059 -0.23842627 -0.013480083 0
-0.0042467066 -0.23854086 -0.010566606 0
-0.0042746547 -0.2383983 -0.0074829794 0
-0.0042861765 -0.23836304 -0.0044567967 0
-0.0042659813 -0.23847327 -0.0014319976 0
-0.0043750172 -0.23861785 0.0015675372 0
-0.0043525724 -0.23847333 0.00475646 0
-0.0041904692 -0.23854515 0.0074477498 0
-0.0042042797 -0.23824707 0.010504105 0
-0.0042398307 -0.23864532 0.013508567 0
-0.0040747127 -0.23856038 0.016308593 0
-0.0040228092 -0.23847362 0.019912373 0
-0.0043997229 -0.23845203 0.022578066 0
-0.004717831 -0.23851107 0.025523135 0
-0.0044190288 -0.23848845 0.028190251 0
-0.001540374 -0.23849311 -0.028710151 0
-0.0029351108 -0.23793331 -0.018875083 0
-0.0029662792 -0.23754303 -0.017505508 0
-0.0029574111 -0.2377817 0.017683435 0
-0.0029236516 -0.23809201 0.018583827 0
-0.0014077578 -0.2382676 0.028748201 0
0.0010496796 -0.2385089 -0.028713049 0
0.0011365251 -0.23850097 0.028616203 0
-0.0042177807 -0.23508333 -0.030563895 0
-0.0045753093 -0.23583429 -0.028620444 0
-0.0044276649 -0.23552862 -0.025514631 0
-0.0041767331 -0.23571178 -0.022383144 0
-0.0047496175 -0.23574023 -0.019709971 0
-0.0046134009 -0.23563735 -0.016311325 0
-0.0040854709 -0.23558226 -0.013375652 0
-0.0042503779 -0.23537202 -0.010631792 0
-0.0044324109 -0.23564051 -0.0077331895 0
-0.0042182207 -0.23554382 -0.004402814 0
-0.0042937263 -0.23533581 -0.0015499708 0
-0.0042183218 -0.2354342 0.0015281219 0
-0.0042168135 -0.23554099 0.0044758976 0
-0.0043943911 -0.23557156 0.0074597616 0
-0.0042796275 -0.2353218 0.0103141 0
-0.0040973886 -0.23570682 0.013434089 0
-0.0047604879 -0.23571625 0.016422743 0
-0.0047662822 -0.23586498 0.019683238 0
-0.0042417506 -0.23559807 0.022549834 0
-0.0044134916 -0.23540671 0.025430545 0
-0.0046686367 -0.23573197 0.028581148 0
-0.0040840735 -0.2350536 0.030502141 0
-0.0015730243 -0.23508155 -0.030659284 0
-0.0011311597 -0.23659773 -0.029750578 0
-0.0029452418 -0.23494303 -0.020999411 0
-0.0027510033 -0.23534791 -0.01947226 0
-0.0028710696 -0.23540744 -0.01683059 0
-0.0029968836 -0.23429283 0.014587491 0
-0.0028470503 -0.23534021 0.016927235 0
-0.0027604415 -0.23568051 0.019216083 0
-0.0029817792 -0.23480658 0.021154912 0
-0.0014414568 -0.23652177 0.029762765 0
-0.0014897257 -0.23496579 0.030638432 0
0.00095216552 -0.23509724 -0.030653683 0
0.0012421864 -0.23648745 -0.029843485 0
0.0011333919 -0.2365505 0.029695703 0
0.0012475812 -0.23506825 0.030578759 0
-0.0044044941 -0.23263127 -0.031152966 0
-0.0046411944 -0.23256288 -0.028538909 0
-0.0041588754 -0.23262751 -0.025326895 0
-0.0042393734 -0.23269673 -0.022834137 0
-0.0049999296 -0.23285283 -0.019270923 0
-0.0049999389 -0.23248929 -0.016429234 0
-0.0046474203 -0.23264191 -0.013313782 0
-0.004227567 -0.23248047 -0.010478863 0
-0.0042207632 -0.23253669 -0.0074688885 0
-0.0041920389 -0.23248586 -0.0045652478 0
-0.0041352152 -0.23245415 -0.0016635082 0
-0.0041555478 -0.23260625 0.0015879794 0
-0.0041203159 -0.23256625 0.0046617733 0
-0.0041678692 -0.23246621 0.0075336662 0
-0.0042715259 -0.23253778 0.010715547 0
-0.0044251331 -0.23294781 0.013263402 0
-0.0050000586 -0.23262016 0.016513389 0
-0.0050000693 -0.23242576 0.019473827 0
-0.0042311219 -0.23279122 0.022810768 0
-0.0042799897 -0.2325256 0.025550684 0
-0.0045718919 -0.23272815 0.028257357 0
-0.004368504 -0.23271911 0.031150771 0
-0.0014140336 -0.23266378 -0.031555805 0
-0.0028340819 -0.23236571 -0.022030944 0
-0.0024502082 -0.23213266 -0.019626543 0
-0.0026629209 -0.23247543 -0.016695434 0
-0.0029040677 -0.23226349 -0.014067248 0
-0.0028957571 -0.2319452 0.013809357 0
-0.0026572184 -0.2323754 0.016579483 0
-0.0024721581 -0.23250452 0.019515237 0
-0.0028354062 -0.23246694 0.021876946 0
-0.0017407086 -0.23252922 0.031501595 0
0.0014533995 -0.2323914 -0.031541627 0
0.0014091091 -0.23230594 0.031417675 0
0.0032537323 -0.23138316 -0.031492423 0
0.0032138536 -0.23144905 0.031410918 0
-0.0041219029 -0.22953747 -0.030752197 0
-0.0044466094 -0.22955205 -0.028505638 0
-0.0040445132 -0.22956985 -0.025829798 0
-0.0049999165 -0.22945669 -0.022463219 0
-0.0049999286 -0.22951995 -0.019331779 0
-0.0049999403 -0.22970366 -0.016328737 0
-0.0049999491 -0.2294458 -0.013552243 0
-0.0043535014 -0.22950481 -0.010423686 0
-0.0041128611 -0.22963873 -0.007532177 0
-0.0040893373 -0.22953513 -0.0046191118 0
-0.0041060094 -0.22971129 -0.0016480058 0
-0.0039599496 -0.22951734 0.0014913782 0
-0.0041062036 -0.22943166 0.0045671244 0
-0.0039802501 -0.22953044 0.0073269652 0
-0.0041789333 -0.22952662 0.010287165 0
-0.0050000474 -0.22953591 0.013283552 0
-0.0050000586 -0.22957832 0.016574197 0
-0.0050000693 -0.22960383 0.019590268 0
-0.0050000804 -0.22956246 0.022405162 0
-0.004163573 -0.22962791 0.025678517 0
-0.0045143799 -0.22960205 0.028569333 0
-0.0041536717 -0.22969864 0.030816469 0
-0.0013587393 -0.22955933 -0.030941054 0
-0.0029147149 -0.2288224 -0.02454984 0
-0.0025722818 -0.22958973 -0.022472151 0
-0.0022139729 -0.22957088 -0.019377677 0
-0.0024545395 -0.22971326 -0.016693667 0
-0.0027270799 -0.2292279 -0.013533628 0
-0.0029380969 -0.22897971 -0.011185475 0
-0.0029474581 -0.22922599 0.011182388 0
-0.0027408272 -0.22948101 0.013491186 0
-0.0024828326 -0.22964476 0.016254561 0
-0.0021751884 -0.22951938 0.019731617 0
-0.0025704585 -0.22974588 0.022270078 0
-0.0029107654 -0.22855358 0.024594137 0
-0.0014246632 -0.22958191 0.030864341 0
0.0013466449 -0.22942562 -0.030931791 0
0.0015489692 -0.22950803 0.030871395 0
0.0036216311 -0.22922902 -0.031033983 0
0.0036797628 -0.22937362 0.030960528 0
-0.0041242712 -0.22674699 -0.030514877 0
-0.0041625206 -0.2264097 -0.02874111 0
-0.0046034656 -0.2268503 -0.025810476 0
-0.0049999175 -0.2266189 -0.022308135 0
-0.0049999277 -0.22627789 -0.019492321 0
-0.0049999389 -0.22640759 -0.016598362 0
-0.0049999487 -0.2263246 -0.013667071 0
-0.0049642036 -0.22641613 -0.010619338 0
-0.004621156 -0.22680648 -0.0072507504 0
-0.004304681 -0.22678979 -0.0045563262 0
-0.0043434887 -0.2268889 -0.0016079505 0
-0.0045061959 -0.22682489 0.0013180044 0
-0.0045710844 -0.2267534 0.0043747076 0
-0.004416239 -0.2268333 0.0076192101 0
-0.004839614 -0.22668487 0.010432968 0
-0.0050000474 -0.22650842 0.013406415 0
-0.0050000586 -0.22651088 0.016455298 0
-0.0050000683 -0.22628513 0.019485263 0
-0.0050000804 -0.2264965 0.02265819 0
-0.0046551079 -0.22672746 0.025655091 0
-0.0041837688 -0.22641841 0.02853521 0
-0.0042474186 -0.2267541 0.030459452 0
-0.0014269574 -0.22685803 -0.03054649 0
-0.0015278944 -0.22594546 -0.029704481 0
-0.0027359526 -0.22642075 -0.025156569 0
-0.0022178183 -0.22656423 -0.02262705 0
-0.0019333208 -0.22657903 -0.019651568 0
-0.0022642617 -0.22664791 -0.016272901 0
-0.0025119088 -0.22649552 -0.013624281 0
-0.0027942834 -0.22652574 -0.010761631 0
-0.0029398352 -0.22591805 -0.0072766426 0
-0.0029451256 -0.22600302 -0.004543297 0
-0.0029388871 -0.22589633 -0.0016339562 0
-0.0029454262 -0.22600776 0.0018171215 0
-0.0029536316 -0.22614774 0.0045520412 0
-0.0029415768 -0.22596888 0.0075054816 0
-0.0028077948 -0.22629143 0.0103452 0
-0.0025260351 -0.22666407 0.013512693 0
-0.002220219 -0.22665617 0.016632352 0
-0.0019372618 -0.22649565 0.019499779 0
-0.0022435673 -0.22657765 0.022641083 0
-0.0027463909 -0.22615944 0.025264174 0
-0.0014773998 -0.22616844 0.029671451 0
-0.001565838 -0.2265895 0.0304059 0
0.0015725789 -0.22659908 -0.030524543 0
0.0018670784 -0.22593948 -0.029702716 0
0.0013783841 -0.2263051 0.029711476 0
0.0014725421 -0.22651981 0.030440265 0
0.0042280708 -0.22653064 -0.030470846 0
0.0037252794 -0.22566928 -0.029800104 0
0.0037387547 -0.22590987 0.02978161 0
0.0043124221 -0.22659506 0.030450715 0
0.006078471 -0.2250203 -0.030366318 0
0.006085542 -0.22508295 0.030290795 0
-0.0040100734 -0.22390051 -0.030172477 0
-0.0044641797 -0.22328979 -0.02875411 0
-0.0049999077 -0.22347769 -0.025242114 0
-0.0049999165 -0.2234596 -0.022490494 0
-0.0049999286 -0.2233704 -0.019461572 0
-0.0049999394 -0.22337596 -0.016241554 0
-0.0049999505 -0.22386274 -0.01332988 0
-0.0049999603 -0.2234598 -0.010551081 0
-0.0049999724 -0.22387426 -0.0073748808 0
-0.0049999813 -0.22362401 -0.0046423743 0
-0.0049999924 -0.22358575 -0.001514787 0
-0.0050000036 -0.22358903 0.001492953 0
-0.0050000143 -0.22360313 0.0044420976 0
-0.0050000246 -0.2234749 0.0073735062 0
-0.0050000367 -0.22361213 0.010576221 0
-0.0050000483 -0.2233541 0.013696413 0
-0.0050000586 -0.22358647 0.016465437 0
-0.0050000711 -0.22341868 0.019776864 0
-0.00500008 -0.22362234 0.022561714 0
-0.0050000916 -0.22332878 0.025600554 0
-0.0042888005 -0.22351661 0.028874515 0
-0.0037014838 -0.22421817 0.030140925 0
-0.0014024003 -0.22404604 -0.03020905 0
-0.0018026298 -0.2230123 -0.028790325 0
-0.0024710384 -0.22345603 -0.02569701 0
-0.0018033449 -0.22354756 -0.022463432 0
-0.0017161291 -0.22355925 -0.019491551 0
-0.0019971882 -0.22366615 -0.016701534 0
-0.0022870156 -0.22350281 -0.013613377 0
-0.0025917266 -0.22339897 -0.010418997 0
-0.0027915086 -0.22359885 -0.0077232178 0
-0.0027979841 -0.22348988 -0.0044070953 0
-0.0028018954 -0.22355644 -0.0015065169 0
-0.0027910371 -0.22337079 0.0016094119 0
-0.002800884 -0.22353879 0.0046121874 0
-0.0027769706 -0.22331753 0.0075232689 0
-0.0025884295 -0.22354074 0.010464504 0
-0.0022885327 -0.2234634 0.013470137 0
-0.0019987593 -0.22341803 0.016396919 0
-0.0017461886 -0.22372971 0.019219011 0
-0.0018441901 -0.22361127 0.022544162 0
-0.0024514277 -0.22363529 0.025396945 0
-0.0017453323 -0.22301999 0.028863734 0
-0.0014621895 -0.22410412 0.030120902 0
0.0014614015 -0.22393154 -0.030188939 0
0.0013487802 -0.2231788 -0.029177694 0
0.0014228679 -0.22320321 0.029154355 0
0.0016139934 -0.22421072 0.030139638 0
0.0048172306 -0.22403599 -0.030186297 0
0.0044513494 -0.22313455 -0.029434351 0
0.0044606989 -0.22306865 0.029424667 0
0.004693659 -0.22412835 0.030116001 0
0.0061977711 -0.22409365 -0.030197196 0
0.0067269071 -0.22258683 -0.029848794 0
0.0067221168 -0.22277085 0.029816134 0
0.0063701766 -0.22390456 0.03008588 0
-0.0045033093 -0.2205867 -0.028844835 0
-0.0049999068 -0.22051108 -0.025463454 0
-0.0049999175 -0.22031614 -0.02259356 0
-0.0049999282 -0.22057767 -0.019396638 0
-0.0049999389 -0.22026658 -0.016757416 0
-0.0049999496 -0.22048372 -0.013603434 0
-0.0049999612 -0.22054903 -0.010404853 0
-0.0049999719 -0.22056471 -0.0073655457 0
-0.0049999822 -0.22069196 -0.0044520721 0
-0.0049999938 -0.22033592 -0.0013651493 0
-0.0050000036 -0.22066961 0.0013458717 0
-0.0050000143 -0.22042143 0.0044443016 0
-0.0050000264 -0.2206466 0.0075809737 0
-0.0050000371 -0.22048768 0.010629536 0
-0.0050000465 -0.22042577 0.01339979 0
-0.0050000576 -0.2204646 0.016178546 0
-0.0050000693 -0.2206846 0.019519456 0
-0.0050000795 -0.22058319 0.022480199 0
-0.0050000902 -0.22062054 0.025404301 0
-0.0046992619 -0.22061369 0.028681489 0
-0.0016507227 -0.22057553 -0.028659483 0
-0.0020221681 -0.22041808 -0.02541432 0
-0.0014430741 -0.2203452 -0.022556473 0
-0.0014957456 -0.22064783 -0.019497273 0
-0.0018011695 -0.22070573 -0.01642043 0
-0.0021042316 -0.22072068 -0.013334591 0
-0.0023684034 -0.22053932 -0.010494724 0
-0.0026051274 -0.22056557 -0.0074841618 0
-0.0026209464 -0.22046605 -0.004348815 0
-0.0026246798 -0.22052965 -0.0016956935 0
-0.0026167226 -0.22039351 0.0014524657 0
-0.002640048 -0.22079173 0.0044997591 0
-0.0026164358 -0.22068231 0.0075521991 0
-0.0023483215 -0.22057049 0.010626463 0
-0.0020596331 -0.22037807 0.013428661 0
-0.0017462138 -0.220366 0.016622845 0
-0.0014768126 -0.22047612 0.019461421 0
-0.0014729642 -0.22057962 0.022512084 0
-0.0020808335 -0.22066629 0.025441695 0
-0.0016402308 -0.22072682 0.028580436 0
0.0015133509 -0.22064403 -0.029032905 0
0.0014132044 -0.22042038 0.028693378 0
0.0044559757 -0.22049396 -0.028950827 0
0.004504994 -0.22047383 0.028843852 0
0.0071270964 -0.22028854 -0.029379543 0
0.0070943721 -0.22048068 0.029323723 0
-0.0045311442 -0.21761549 -0.028475588 0
-0.0049999063 -0.21736941 -0.025400184 0
-0.0049999175 -0.21748017 -0.022445912 0
-0.0049999282 -0.21767829 -0.019563626 0
-0.0049999394 -0.21744831 -0.016465357 0
-0.0049999501 -0.21746147 -0.013514686 0
-0.0049999598 -0.21761106 -0.010748209 0
-0.004999971 -0.21757266 -0.0075882045 0
-0.0049999831 -0.21743284 -0.0042324001 0
-0.0049999929 -0.21751206 -0.0015373759 0
-0.0050000045 -0.21735011 0.0016167632 0
-0.0050000167 -0.21764505 0.0045232456 0
-0.005000025 -0.21748659 0.0072938022 0
-0.0050000367 -0.21756703 0.010569132 0
-0.0050000469 -0.21753931 0.013427118 0
-0.005000059 -0.2174675 0.01660355 0
-0.0050000697 -0.21755944 0.019398734 0
-0.00500008 -0.21750681 0.022382826 0
-0.0050000902 -0.21749309 0.025513301 0
-0.0044605033 -0.21754566 0.028472621 0
-0.0013437218 -0.21764953 -0.028300436 0
-0.0015510931 -0.21735235 -0.025499895 0
-0.001127307 -0.21746646 -0.022592206 0
-0.0012746386 -0.21756019 -0.019374406 0
-0.0015456001 -0.21769272 -0.016707392 0
-0.0018345857 -0.21743806 -0.013557342 0
-0.0021216259 -0.21733698 -0.0105456 0
-0.0023725575 -0.21724956 -0.0075992425 0
-0.0024554136 -0.21764068 -0.0045057363 0
-0.0024612958 -0.21774073 -0.0013909951 0
-0.0024560543 -0.21765126 0.0016832127 0
-0.0024378696 -0.21734107 0.0044200779 0
-0.0024029256 -0.21766712 0.0075962977 0
-0.0021467223 -0.21757162 0.010372673 0
-0.0018643888 -0.21765101 0.013319698 0
-0.0015197251 -0.21736564 0.016622351 0
-0.0012388802 -0.21742156 0.01953603 0
-0.0011092533 -0.21738891 0.02254257 0
-0.0016587538 -0.21760368 0.025710326 0
-0.001426231 -0.21777333 0.028335465 0
0.0014522773 -0.21769755 -0.028223841 0
0.0011924109 -0.21627282 -0.026872594 0
0.0013686251 -0.2165599 0.026858281 0
0.0012995171 -0.21765251 0.028248219 0
0.0045950813 -0.21754763 -0.02827711 0
0.003680361 -0.21625741 -0.026911452 0
0.0038845716 -0.21641392 0.026846245 0
0.0045381817 -0.21754718 0.028215731 0
0.0074863667 -0.21761389 -0.02876075 0
0.0073800916 -0.21752328 0.028668011 0
0.009392146 -0.2166554 -0.028864605 0
0.0094569018 -0.21695961 0.028815223 0
-0.0045296075 -0.21466926 -0.028015757 0
-0.0049999082 -0.21453634 -0.025320437 0
-0.004999917 -0.21449408 -0.022498669 0
-0.0049999272 -0.21440984 -0.019704616 0
-0.0049999384 -0.21446602 -0.016501673 0
-0.0049999491 -0.21460113 -0.013615207 0
-0.0049999603 -0.21452713 -0.010472487 0
-0.0049999706 -0.21473789 -0.0076294066 0
-0.0049999827 -0.21437395 -0.0042106225 0
-0.0049999929 -0.2148689 -0.0017213655 0
-0.0050000031 -0.21453905 0.0013488517 0
-0.0050000134 -0.21407022 0.0043705408 0
-0.0050000255 -0.2143546 0.0074736658 0
-0.0050000371 -0.21448597 0.010643281 0
-0.0050000479 -0.21442407 0.013599638 0
-0.005000059 -0.21453696 0.016551293 0
-0.0050000679 -0.21445565 0.019220291 0
-0.0050000804 -0.21451218 0.022410193 0
-0.0050000912 -0.21449852 0.02556234 0
-0.0044729705 -0.21467336 0.028179955 0
-0.001708054 -0.21459548 -0.028549315 0
-0.0010850538 -0.21454775 -0.025605252 0
-0.00081828726 -0.21460818 -0.022726949 0
-0.0010317452 -0.21447526 -0.019476304 0
-0.001326896 -0.21451132 -0.016487628 0
-0.0016026796 -0.21424298 -0.013461085 0
-0.0019062993 -0.21451861 -0.010567659 0
-0.0022183349 -0.21483874 -0.0075097936 0
-0.0022572996 -0.21426469 -0.0046612062 0
-0.0022744003 -0.21455589 -0.0015429369 0
-0.0022790609 -0.21463512 0.0015861583 0
-0.0022809107 -0.21466641 0.0043734279 0
-0.0022011977 -0.21472903 0.007552607 0
-0.001879944 -0.21449809 0.010726578 0
-0.0016112622 -0.21438788 0.013388488 0
-0.0013135883 -0.21451239 0.016527317 0
-0.0010253716 -0.21456249 0.019511867 0
-0.00079653104 -0.21441457 0.022541061 0
-0.0010059997 -0.21447441 0.025512129 0
-0.001384186 -0.21448223 0.028430998 0
0.0015134434 -0.21450132 -0.028532773 0
0.0014334641 -0.21438108 -0.026318751 0
0.0012903266 -0.21465629 0.026300944 0
0.0015106237 -0.21453261 0.02843987 0
0.004719208 -0.2147693 -0.028446039 0
0.0046239346 -0.21434496 -0.026489522 0
0.0043687192 -0.21470952 0.026445141 0
0.0048284675 -0.21449798 0.028345212 0
0.0075611915 -0.21469387 -0.028103987 0
0.0065578111 -0.21376862 -0.026876252 0
0.0065263002 -0.21340668 0.026650129 0
0.0075039044 -0.21447895 0.028021745 0
0.010046016 -0.21431364 -0.028360888 0
0.0099882092 -0.21433285 0.028251 0
-0.0042968048 -0.2116237 -0.027831227 0
-0.0049999058 -0.21157146 -0.025570087 0
-0.0049999179 -0.21120228 -0.022456134 0
-0.0049999282 -0.21142085 -0.019541334 0
-0.0049999389 -0.21131645 -0.016513817 0
-0.0049999491 -0.21164531 -0.013637037 0
-0.0049999608 -0.21158564 -0.01043757 0
-0.0049999719 -0.21180718 -0.0074747209 0
-0.0049999827 -0.21148865 -0.004546714 0
-0.0049999934 -0.21167219 -0.0014548464 0
-0.0050000045 -0.21145339 0.001511145 0
-0.0050000139 -0.21138252 0.0042842072 0
-0.005000026 -0.21157141 0.0073913555 0
-0.0050000357 -0.21171777 0.010363065 0
-0.0050000492 -0.21147339 0.013716272 0
-0.0050000586 -0.21166359 0.016531926 0
-0.0050000697 -0.21137924 0.01950579 0
-0.00500008 -0.21138591 0.022649152 0
-0.0050000916 -0.21161802 0.025479337 0
-0.0043179663 -0.21147458 0.02776671 0
-0.0013731266 -0.21141469 -0.027990701 0
-0.00062911201 -0.21156128 -0.025065225 0
-0.00053061941 -0.21146117 -0.022697767 0
-0.00078778632 -0.21156912 -0.019727018 0
-0.0010993851 -0.21137169 -0.016387913 0
-0.0013929325 -0.2114514 -0.013445185 0
-0.0017143735 -0.2115971 -0.010267715 0
-0.0019878526 -0.21155173 -0.0074323188 0
-0.0020968677 -0.21153091 -0.0044307997 0
-0.002073267 -0.21112858 -0.0015725858 0
-0.0021003843 -0.21159047 0.0015519005 0
-0.0020998393 -0.21158096 0.004514555 0
-0.0019669407 -0.21145077 0.0074623106 0
-0.0016516792 -0.21114093 0.010466879 0
-0.0013763552 -0.21142976 0.013505246 0
-0.0010923304 -0.21134922 0.016347129 0
-0.0008135087 -0.21163593 0.019418804 0
-0.0005211932 -0.21148196 0.022651343 0
-0.00056896423 -0.21182747 0.025012389 0
-0.0013707151 -0.21153553 0.027913462 0
0.0015237019 -0.21136139 -0.027981322 0
0.0014648199 -0.21148604 -0.025471158 0
0.0013849759 -0.21176098 0.025453253 0
0.0014767016 -0.21154091 0.027914425 0
0.0046276799 -0.21165559 -0.028032983 0
0.0044357367 -0.21148886 -0.025583791 0
0.004666937 -0.2115908 0.025558041 0
0.0045720898 -0.2113554 0.027881863 0
0.0076168235 -0.21163677 -0.027935516 0
0.0073927464 -0.2114823 -0.026411863 0
0.0075230789 -0.21118645 0.02626089 0
0.0075291516 -0.21142423 0.0278576 0
0.010593044 -0.21157339 -0.027818345 0
0.0094196256 -0.2106522 -0.026815344 0
0.0096759396 -0.21061227 0.026789177 0
0.010618056 -0.21128798 0.02769631 0
0.012207367 -0.21076661 -0.027848324 0
0.012274859 -0.21021004 0.02756069 0
-0.0042196377 -0.20839666 -0.027405201 0
-0.0049999072 -0.20888324 -0.025404822 0
-0.0049999175 -0.20853539 -0.022434546 0
-0.0049999282 -0.20842563 -0.019400597 0
-0.0049999394 -0.20855679 -0.016382892 0
-0.004999951 -0.20829318 -0.013505143 0
-0.0049999622 -0.20874338 -0.010346687 0
-0.0049999715 -0.20865539 -0.0075424933 0
-0.0049999831 -0.2083244 -0.0042520007 0
-0.0049999938 -0.20870136 -0.0012615881 0
-0.0050000036 -0.20845291 0.0014173581 0
-0.0050000167 -0.20852315 0.004761518 0
-0.0050000255 -0.20833188 0.0073341033 0
-0.0050000376 -0.20843028 0.010721059 0
-0.0050000479 -0.2082774 0.013455829 0
-0.0050000586 -0.20865186 0.01660751 0
-0.0050000707 -0.208441 0.019398265 0
-0.0050000804 -0.2085866 0.022545455 0
-0.0050000907 -0.20860669 0.025574531 0
-0.0042088032 -0.20849571 0.027339449 0
-0.0013929844 -0.20836014 -0.027454242 0
-0.00028289916 -0.20893306 -0.024456352 0
-0.00029453717 -0.20871195 -0.022600865 0
-0.00060817448 -0.20866242 -0.019316332 0
-0.0008727308 -0.20861764 -0.016573634 0
-0.0011459783 -0.2084021 -0.013609464 0
-0.0014324266 -0.20825341 -0.010562 0
-0.0017396326 -0.20838684 -0.0075206431 0
-0.0019159706 -0.20845491 -0.0044051837 0
-0.0019169628 -0.2084651 -0.0015128511 0
-0.0019175245 -0.20847453 0.0013966676 0
-0.0019022166 -0.20825076 0.0044351118 0
-0.0017374139 -0.20870116 0.0077052247 0
-0.0014586765 -0.20851232 0.010409453 0
-0.0011572334 -0.20868312 0.01362372 0
-0.00089645782 -0.20863505 0.016253043 0
-0.00058690435 -0.20886806 0.019598242 0
-0.00027762639 -0.2086792 0.022630725 0
-0.00024288637 -0.2088784 0.024339441 0
-0.0015481308 -0.20828596 0.027342742 0
0.0017162884 -0.20840122 -0.027461445 0
0.0015247738 -0.2084797 -0.024590988 0
0.0016548266 -0.20842062 0.024475267 0
0.00145888 -0.20842886 0.027367856 0
0.0044294139 -0.20864721 -0.02750463 0
0.0046406053 -0.20853181 -0.024688659 0
0.0047593685 -0.2083597 0.024577372 0
0.0046007182 -0.20840947 0.027364461 0
0.0073875277 -0.20838623 -0.027458796 0
0.0076045846 -0.20836511 -0.025471209 0
0.0075192028 -0.20849966 0.025388179 0
0.0074011786 -0.20859778 0.027397536 0
0.010693877 -0.20860624 -0.027425552 0
0.010275563 -0.2084524 -0.026385982 0
0.010427863 -0.20865601 0.026404258 0
0.01061926 -0.20869328 0.027375557 0
0.012844999 -0.20843071 -0.027351743 0
0.012472616 -0.20755281 -0.026823383 0
0.012552001 -0.20796993 0.026886744 0
0.012775322 -0.20834845 0.027302304 0
-0.0040833284 -0.20620981 -0.0270766 0
-0.0044977693 -0.20521176 -0.025745245 0
-0.0049999179 -0.20532623 -0.022443794 0
-0.0049999286 -0.2054704 -0.019321503 0
-0.0049999389 -0.20540896 -0.016430303 0
-0.0049999496 -0.20545085 -0.013518011 0
-0.0049999603 -0.20556599 -0.010584714 0
-0.0049999724 -0.20549834 -0.0072366362 0
-0.0049999836 -0.20555817 -0.0044005169 0
-0.0049999938 -0.20546879 -0.0014257731 0
-0.0050000036 -0.20544638 0.0016067383 0
-0.0050000162 -0.20524122 0.0046322206 0
-0.0050000288 -0.20545961 0.0076878914 0
-0.0050000367 -0.2055894 0.010469488 0
-0.0050000483 -0.20554455 0.013623475 0
-0.0050000595 -0.20543146 0.01659799 0
-0.0050000688 -0.20542926 0.019586405 0
-0.0050000809 -0.20547643 0.022641251 0
-0.0044720401 -0.20527975 0.025813408 0
-0.0041007181 -0.20667659 0.02706008 0
-0.0012553572 -0.20630845 -0.027093915 0
-0.0011755202 -0.2047803 -0.026542187 0
-9.8297656e-05 -0.20573409 -0.022265865 0
-0.00035586787 -0.20556225 -0.019496083 0
-0.00062995037 -0.20532413 -0.016505888 0
-0.00095262862 -0.20557998 -0.01340111 0
-0.0012296849 -0.20555794 -0.010548031 0
-0.0015303796 -0.20545492 -0.0073901406 0
-0.0017361861 -0.20559555 -0.0045751263 0
-0.0017344134 -0.2053545 -0.0013129603 0
-0.00174701 -0.20556897 0.0014753719 0
-0.00173681 -0.20559928 0.004250552 0
-0.0015170343 -0.20544796 0.0074451431 0
-0.0012004609 -0.20520222 0.010492342 0
-0.00095944322 -0.20559071 0.013256917 0
-0.00060236512 -0.20539416 0.016756261 0
-0.00031909917 -0.2055801 0.019796388 0
-0.00012093313 -0.20593435 0.022096323 0
-0.0013192372 -0.20506221 0.026526723 0
-0.0014042456 -0.20666401 0.027057881 0
0.0013012566 -0.20639807 -0.027109634 0
0.0016160704 -0.20508541 -0.026023943 0
0.0016317965 -0.2052369 -0.02288753 0
0.0016345482 -0.20517929 0.022748692 0
0.0016197439 -0.20541683 0.026198039 0
0.0014253352 -0.20649201 0.027027681 0
0.0042116176 -0.2062134 -0.027077198 0
0.0043863282 -0.20495635 -0.02642709 0
0.0046255328 -0.20531937 -0.023022436 0
0.0044854097 -0.20545122 0.023022885 0
0.0045806952 -0.20520423 0.026106864 0
0.0052212956 -0.20669523 0.027063392 0
0.0076864627 -0.20641279 -0.027112201 0
0.0077166008 -0.20546301 -0.025466796 0
0.0071599637 -0.20485532 -0.023464359 0
0.007367054 -0.20485161 0.023450967 0
0.0076055126 -0.20550562 0.025651453 0
0.0076762536 -0.20664263 0.027054159 0
0.010082048 -0.20643148 -0.027115481 0
0.010493326 -0.20518458 -0.025724061 0
0.0092487792 -0.20444581 -0.023990838 0
0.0096628228 -0.20417997 0.023858674 0
0.010422845 -0.20530459 0.025907118 0
0.01067016 -0.20661607 0.027049502 0
0.013291729 -0.20637634 -0.027094284 0
0.013234483 -0.20531729 -0.026389109 0
0.013303139 -0.20531352 0.026358522 0
0.013072032 -0.20664108 0.027053906 0
-0.0043418803 -0.20286901 -0.024871701 0
-0.0049319034 -0.20239212 -0.022308417 0
-0.0049999272 -0.20229684 -0.019504463 0
-0.0049999389 -0.20236662 -0.016407864 0
-0.0049999496 -0.20233901 -0.013343246 0
-0.0049999594 -0.20265689 -0.010791057 0
-0.0049999719 -0.20252629 -0.007502717 0
-0.0049999813 -0.20260622 -0.0047122021 0
-0.0049999929 -0.20244682 -0.0015967471 0
-0.0050000045 -0.20248346 0.0014973725 0
-0.0050000157 -0.2023389 0.0045563714 0
-0.0050000255 -0.20235842 0.0075322501 0
-0.0050000371 -0.20272422 0.010493545 0
-0.0050000474 -0.20237699 0.013412206 0
-0.005000059 -0.20259936 0.016496984 0
-0.0050000693 -0.20238514 0.019502053 0
-0.0048538051 -0.20238291 0.022623558 0
-0.0041452944 -0.20267385 0.024764821 0
-0.0015132808 -0.20281981 -0.02505078 0
-0.0011716178 -0.20167302 -0.023198677 0
-0.00016244531 -0.20272185 -0.019274332 0
-0.0003907028 -0.20260291 -0.01684559 0
-0.00070293032 -0.20250271 -0.013571852 0
-0.0010047753 -0.20245939 -0.010448498 0
-0.0012929806 -0.20246369 -0.007501645 0
-0.0015504747 -0.20260674 -0.0044376696 0
-0.0015729881 -0.20260379 -0.0015892938 0
-0.0015749469 -0.202637 0.0015334842 0
-0.0015318893 -0.20251043 0.0046529872 0
-0.0012774412 -0.20237345 0.0075196531 0
-0.00099134468 -0.20249651 0.010540112 0
-0.00072928757 -0.20265229 0.013340062 0
-0.0004102317 -0.2023343 0.016356783 0
-0.00015542522 -0.20263718 0.01919622 0
-0.0012614683 -0.20151034 0.023597382 0
-0.0016182014 -0.20284986 0.024984039 0
0.0014420032 -0.20288254 -0.02509943 0
0.0015506704 -0.20299755 -0.021853359 0
0.0014839261 -0.20196167 -0.020348666 0
0.0015577351 -0.20207857 0.020353168 0
0.0016938781 -0.20298786 0.021862518 0
0.0014712159 -0.20267256 0.024846975 0
0.0044509419 -0.20270671 -0.024962895 0
0.0044582388 -0.20275526 -0.022087242 0
0.0044336133 -0.20164897 -0.020173699 0
0.0043334961 -0.20199206 0.020313479 0
0.0046630497 -0.2024527 0.022477942 0
0.0047004209 -0.20296131 0.025070192 0
0.0075798933 -0.20256697 -0.024854317 0
0.0077840714 -0.20222683 -0.022393484 0
0.0067614401 -0.20145033 -0.020663921 0
0.0075197737 -0.20123409 0.020717772 0
0.0076863691 -0.20263162 0.022208821 0
0.007336779 -0.20293036 0.025046285 0
0.010449085 -0.20273182 -0.024857568 0
0.01045404 -0.20212562 -0.023031095 0
0.010221398 -0.20221922 0.022836458 0
0.010789372 -0.20294486 0.024936097 0
0.013237416 -0.20281787 -0.02480912 0
0.012847402 -0.20153609 -0.023341957 0
0.012854621 -0.20172478 0.023424448 0
0.013250779 -0.20303752 0.024887951 0
-0.0043101045 -0.19968808 -0.02234078 0
-0.0049999277 -0.19954401 -0.01974735 0
-0.0049999394 -0.19957536 -0.01637266 0
-0.0049999491 -0.19936261 -0.013456805 0
-0.0049999603 -0.19929038 -0.010496975 0
-0.0049999715 -0.19952665 -0.0074262316 0
-0.0049999822 -0.1995904 -0.0047589801 0
-0.0049999943 -0.19952574 -0.0013144627 0
-0.0050000041 -0.199478 0.0016369857 0
-0.0050000157 -0.1993158 0.0044497726 0
-0.0050000255 -0.19950671 0.0074978801 0
-0.0050000362 -0.199477 0.010376996 0
-0.0050000474 -0.19964944 0.013471196 0
-0.005000059 -0.19935283 0.016519871 0
-0.0050000688 -0.19947594 0.019443527 0
-0.0043244595 -0.1997835 0.022271277 0
-0.0013329317 -0.19965027 -0.022589279 0
-6.0352137e-05 -0.20029348 -0.018437101 0
-0.00020693723 -0.199432 -0.016268827 0
-0.00051405327 -0.19974178 -0.0133652 0
-0.00078525668 -0.19962864 -0.010501356 0
-0.0010783353 -0.19942348 -0.0073422687 0
-0.0013613979 -0.19982542 -0.0044749435 0
-0.0013856135 -0.19941095 -0.0014584364 0
-0.0013817351 -0.19934468 0.00161204 0
-0.0013282781 -0.19924629 0.0042730235 0
-0.0010928405 -0.19952284 0.0072048279 0
-0.00075791904 -0.19955154 0.010651642 0
-0.00047586273 -0.19941837 0.013432814 0
-0.00017627694 -0.19933589 0.016432386 0
-3.6007877e-05 -0.2005244 0.01878494 0
-0.001535815 -0.19958581 0.02246071 0
0.0017206967 -0.19933465 -0.022344196 0
0.0014052166 -0.20002916 -0.018850656 0
0.0015678686 -0.19851379 -0.017676013 0
0.0014105416 -0.19854651 0.017624315 0
0.0015620547 -0.19995692 0.018714005 0
0.0014344571 -0.19949907 0.022393702 0
0.0045258082 -0.19957463 -0.022530572 0
0.0046258601 -0.20003362 -0.018925104 0
0.0041950578 -0.19843188 -0.017645853 0
0.0043275324 -0.19843931 0.017600968 0
0.0044208756 -0.19999877 0.01881312 0
0.0045015644 -0.19953425 0.022420876 0
0.0075090504 -0.19939418 -0.022390444 0
0.007438472 -0.19970605 -0.019585345 0
0.0075412118 -0.19962092 0.01948013 0
0.0075149694 -0.1995028 0.022396561 0
0.010648322 -0.19966619 -0.02225907 0
0.010039164 -0.19897459 -0.020069119 0
0.010302021 -0.1990391 0.020144917 0
0.010521917 -0.19957034 0.022075886 0
0.012715694 -0.19996855 -0.022383846 0
0.012534659 -0.1984157 -0.020644112 0
0.012628973 -0.19956848 0.022142634 0
-0.0043269224 -0.19781059 -0.021160653 0
-0.0044940775 -0.19656003 -0.019579016 0
-0.0049999394 -0.19649363 -0.016402906 0
-0.0049999505 -0.19670989 -0.013564675 0
-0.0049999612 -0.19616954 -0.010541478 0
-0.0049999719 -0.19638482 -0.0073823133 0
-0.0049999827 -0.19652866 -0.0042841691 0
-0.0049999943 -0.19662057 -0.0013036525 0
-0.0050000045 -0.19645248 0.0014336015 0
-0.0050000157 -0.19614495 0.0047279298 0
-0.0050000274 -0.19638754 0.0078321481 0
-0.0050000367 -0.1967352 0.010505784 0
-0.0050000469 -0.19628924 0.013479035 0
-0.005000059 -0.19647978 0.016656063 0
-0.0045963041 -0.19665329 0.019688791 0
-0.0017394525 -0.19778489 -0.021140676 0
-0.0016592827 -0.1963834 -0.02005226 0
-7.5543394e-05 -0.19665933 -0.015464629 0
-0.00023665192 -0.19649494 -0.013688033 0
-0.00057432591 -0.19687954 -0.010529583 0
-0.00083411759 -0.19648819 -0.007566934 0
-0.0011175824 -0.19644237 -0.0045444923 0
-0.0012108533 -0.19643304 -0.0015311829 0
-0.001210305 -0.19642347 0.0016013678 0
-0.001123954 -0.19658588 0.0045443908 0
-0.00084513135 -0.1965871 0.0074695195 0
-0.00051986665 -0.19641805 0.010664781 0
-0.00021436797 -0.19629456 0.013693151 0
-6.0534512e-05 -0.19714773 0.015925309 0
-0.0014726867 -0.19643047 0.020021463 0
-0.0013075495 -0.19781476 0.021091603 0
0.0013415784 -0.19778393 -0.021139942 0
0.0013772954 -0.19629696 -0.019985136 0
0.0014697299 -0.19651093 -0.016123477 0
0.00087716436 -0.19503093 -0.014976241 0
0.00063303194 -0.19509879 0.014960673 0
0.0012671059 -0.19656081 0.016090196 0
0.0014109311 -0.19653627 0.020103293 0
0.0011323991 -0.19773521 0.021030121 0
0.0051305406 -0.19770505 -0.021078654 0
0.0044213198 -0.19644441 -0.020099677 0
0.0046890448 -0.19666387 -0.016330753 0
0.0037114653 -0.19502866 -0.014974469 0
0.0043065082 -0.19504683 0.014920558 0
0.0044624014 -0.19625667 0.015918117 0
0.0044359271 -0.19654033 0.020106403 0
0.0040192972 -0.19780941 0.021087494 0
0.0080114054 -0.19775462 -0.021117149 0
0.0074286475 -0.19650397 -0.019756403 0
0.0074350997 -0.19637457 -0.017001564 0
0.0074125747 -0.19632705 0.016883411 0
0.0075841309 -0.1966922 0.019951614 0
0.0068438752 -0.1978156 0.021092273 0
0.010630243 -0.19783683 -0.021180993 0
0.010732447 -0.1966683 -0.019522792 0
0.010240794 -0.19563091 -0.017558673 0
0.0099029355 -0.19586727 0.017533347 0
0.010780267 -0.19649187 0.019396203 0
0.010459701 -0.19781414 0.021089263 0
0.012063606 -0.19798625 -0.021297015 0
0.012143884 -0.19720452 -0.0199947 0
0.012195174 -0.19742614 0.020193785 0
-0.003954818 -0.19441289 -0.018520487 0
-0.0046261773 -0.19337054 -0.016722929 0
-0.0049999487 -0.19370395 -0.013778187 0
-0.0049999603 -0.19355665 -0.010528183 0
-0.0049999715 -0.19361043 -0.0074276528 0
-0.0049999827 -0.19335686 -0.0043843924 0
-0.0049999924 -0.1936774 -0.0014889261 0
-0.0050000041 -0.19348851 0.0015257354 0
-0.0050000157 -0.19370435 0.0046575232 0
-0.0050000264 -0.19361091 0.0077013872 0
-0.0050000357 -0.19336055 0.010467487 0
-0.0050000474 -0.19361094 0.013476225 0
-0.0046936767 -0.19338834 0.016666844 0
-0.0039844518 -0.19434547 0.018400071 0
-0.0014234575 -0.19440617 -0.018516805 0
-0.0015384236 -0.19298021 -0.017409416 0
-9.9898338e-05 -0.19384155 -0.013031144 0
-0.0002908633 -0.19313434 -0.010528198 0
-0.0006053751 -0.19341525 -0.0075264997 0
-0.00089414063 -0.19345936 -0.0045969086 0
-0.0010322382 -0.19339018 -0.0014640399 0
-0.0010402801 -0.19352631 0.001245945 0
-0.0009379632 -0.193537 0.0041535976 0
-0.00058516895 -0.19326966 0.0075645735 0
-0.00032812337 -0.19360337 0.010450733 0
-0.00010096437 -0.19392024 0.013018289 0
-0.001264733 -0.1929567 0.017336052 0
-0.0017533629 -0.19429167 0.018368054 0
0.001793689 -0.19443814 -0.018541614 0
0.0016712605 -0.19281182 -0.017278656 0
0.0014675921 -0.19319172 -0.013550586 0
0.0015663757 -0.19349529 0.013721839 0
0.001487844 -0.19291361 0.017302772 0
0.0014390029 -0.19426738 0.018349292 0
0.0045536575 -0.19436672 -0.018486165 0
0.0046481732 -0.19290926 -0.017222438 0
0.0042739823 -0.19348434 -0.013812253 0
0.0045036757 -0.19356516 0.01384497 0
0.0046337503 -0.19275372 0.017179172 0
0.0043486729 -0.19437523 0.018432681 0
0.0079764342 -0.19434087 -0.018466052 0
0.0076771877 -0.19344208 -0.016603457 0
0.0071970727 -0.19299005 -0.014281875 0
0.0073772524 -0.19294269 0.014254468 0
0.0075034951 -0.19342303 0.016545629 0
0.0074050957 -0.19443771 0.018480301 0
0.010457944 -0.19436832 -0.018400637 0
0.010199523 -0.19336408 -0.016653171 0
0.0094664227 -0.19242796 -0.014763008 0
0.0095600626 -0.19234471 0.014673509 0
0.010225491 -0.19312249 0.016375676 0
0.01031718 -0.19438522 0.01841186 0
-0.0042099045 -0.19101222 -0.015764723 0
-0.0048829564 -0.19048874 -0.01363469 0
-0.0049999617 -0.19081928 -0.010275824 0
-0.0049999719 -0.190367 -0.0073230779 0
-0.0049999831 -0.19041246 -0.00447914 0
-0.0049999929 -0.19071136 -0.0014343577 0
-0.0050000045 -0.19070089 0.0016193354 0
-0.0050000143 -0.19045554 0.0044611543 0
-0.0050000255 -0.19047056 0.0074427277 0
-0.0050000367 -0.19042927 0.010492519 0
-0.0047321478 -0.19047536 0.013479937 0
-0.0041248845 -0.1910367 0.015740933 0
-0.001459057 -0.19079272 -0.015710635 0
-0.0016692256 -0.18983434 -0.014220072 0
-0.00012946472 -0.19081201 -0.010380205 0
-0.00038770758 -0.19053696 -0.0075235516 0
-0.00067891134 -0.19051735 -0.0045274091 0
-0.00085920817 -0.19051281 -0.0015812034 0
-0.00086834212 -0.19062145 0.0014881872 0
-0.00069146755 -0.19057615 0.0043957997 0
-0.00039454483 -0.19051476 0.0073852823 0
-0.00012052555 -0.19084893 0.010445347 0
-0.0011327768 -0.18974163 0.014540491 0
-0.0014876387 -0.19094892 0.01578391 0
0.0018218483 -0.19096006 -0.015840586 0
0.0015648487 -0.19037516 -0.013599382 0
0.0016084766 -0.19022928 -0.011254176 0
0.0015849031 -0.1900939 0.011094001 0
0.0014948185 -0.19027629 0.013680865 0
0.0015879263 -0.19096017 0.015792668 0
0.0044317609 -0.19097741 -0.015854031 0
0.0044983299 -0.19060296 -0.013395395 0
0.0045068227 -0.18998942 -0.011116073 0
0.0044622859 -0.19020873 0.0112608 0
0.0042987047 -0.19051045 0.013472361 0
0.0045690653 -0.1909966 0.015820287 0
0.0071771885 -0.19080056 -0.015716722 0
0.0076225093 -0.19054714 -0.013197653 0
0.0074710213 -0.18933797 -0.011561614 0
0.0074448334 -0.1894533 0.011585894 0
0.0076774377 -0.1904207 0.013435745 0
0.0076263724 -0.19088778 0.015730431 0
0.0097409971 -0.19119878 -0.01584675 0
0.0095498972 -0.19031617 -0.013729876 0
0.0095757628 -0.19024529 0.01390826 0
0.0096712569 -0.1911713 0.01585057 0
-0.0043439576 -0.18750189 -0.012857317 0
-0.0049999612 -0.18762788 -0.01042024 0
-0.0049999715 -0.18763091 -0.0075385598 0
-0.0049999827 -0.18758558 -0.0044176024 0
-0.0049999943 -0.18753959 -0.0013811821 0
-0.0050000036 -0.18738966 0.001383053 0
-0.0050000157 -0.18743946 0.0046374453 0
-0.005000026 -0.18776174 0.0076461374 0
-0.0049740029 -0.18757695 0.010595971 0
-0.004439726 -0.18756753 0.012999108 0
-0.0016314269 -0.18754053 -0.013185014 0
-3.9733666e-05 -0.18830854 -0.0093582077 0
-0.0001803779 -0.18766205 -0.007417412 0
-0.00047785553 -0.18762575 -0.0043441877 0
-0.00066414941 -0.18744391 -0.0014985799 0
-0.00066763221 -0.18736658 0.0013007976 0
-0.00042571028 -0.18735185 0.0046229246 0
-0.00019665409 -0.18755284 0.0071203737 0
-4.1392042e-05 -0.18880102 0.0096722674 0
-0.0017461486 -0.18759291 0.01318957 0
0.0015548365 -0.18770941 -0.013316152 0
0.0015942472 -0.18810122 -0.0096045863 0
0.0014781073 -0.18657143 -0.0084187789 0
0.0016690332 -0.18689354 0.0086214719 0
0.0012691702 -0.18805377 0.0098731667 0
0.0015248479 -0.18743186 0.013064813 0
0.0044682301 -0.18752964 -0.013176518 0
0.0045570135 -0.18819207 -0.0097192191 0
0.0044218297 -0.18656336 -0.008465766 0
0.0041788579 -0.18661046 0.0084229028 0
0.0049641705 -0.1880431 0.0097694844 0
0.0045511429 -0.18761705 0.013203648 0
0.0074907211 -0.18745676 -0.013069758 0
0.007684608 -0.1871421 -0.010216171 0
0.0064812987 -0.18612736 -0.0086729955 0
0.0065138596 -0.18614618 0.0086551113 0
0.0075062942 -0.18741542 0.010366732 0
0.0077076443 -0.18766274 0.013137179 0
0.0091262208 -0.18868263 -0.013429685 0
0.0091405287 -0.18867621 -0.011920086 0
0.0091101239 -0.18856846 0.013229345 0
-0.0046196557 -0.18453473 -0.010373068 0
-0.0049999715 -0.1845212 -0.0076509509 0
-0.0049999827 -0.18453956 -0.0045555271 0
-0.0049999929 -0.18452016 -0.0016154915 0
-0.0050000036 -0.18436645 0.0014584694 0
-0.0050000143 -0.18431291 0.0043273219 0
-0.005000026 -0.1844459 0.0074707451 0
-0.0044553289 -0.18465488 0.010550836 0
-0.0014943084 -0.1845289 -0.010846162 0
-7.0808303e-05 -0.18520515 -0.0066345688 0
-0.00021801863 -0.18450175 -0.0045824824 0
-0.00046557153 -0.18441775 -0.0016559571 0
-0.0004924052 -0.18465248 0.001327903 0
-0.00022250869 -0.18437178 0.0043982496 0
-6.8574991e-05 -0.18541929 0.0067815846 0
-0.0017003291 -0.18447439 0.01077876 0
0.0014352136 -0.18456256 -0.010872336 0
0.0014747147 -0.18453251 -0.0068382476 0
0.0014852787 -0.18324119 -0.0058372822 0
0.0015516075 -0.18323277 0.005793225 0
0.0015763515 -0.18457524 0.0068304283 0
0.0015626326 -0.18468672 0.010940246 0
0.0044255801 -0.18431689 -0.010681547 0
0.0044749696 -0.18455946 -0.0069286325 0
0.0047208224 -0.18318306 -0.0058340789 0
0.0044759572 -0.18316832 0.005795713 0
0.0046962956 -0.18465561 0.0069728587 0
0.0044541392 -0.184264 0.01060645 0
0.0072636101 -0.18476567 -0.01039483 0
0.0070858854 -0.1843189 -0.0077832392 0
0.0072078784 -0.18441036 0.0078878896 0
0.007275322 -0.18475144 0.010734399 0
-0.0043305396 -0.1826469 -0.0093620243 0
-0.0044805096 -0.18131979 -0.0077529578 0
-0.0049999822 -0.18153353 -0.0045582699 0
-0.0049999929 -0.18128242 -0.0013808809 0
-0.0050000031 -0.18132986 0.0012141806 0
-0.0050000143 -0.18172657 0.0044115311 0
-0.0044725095 -0.18145697 0.0076974677 0
-0.0040008677 -0.18257803 0.0092668645 0
-0.0014617257 -0.1825065 -0.0092756609 0
-0.0015214479 -0.18093222 -0.0080530727 0
-7.3917334e-05 -0.18175855 -0.0039311862 0
-0.00028215305 -0.18165195 -0.0015404007 0
-0.00027915905 -0.18141347 0.0013090232 0
-7.5661294e-05 -0.18178657 0.003902429 0
-0.001549188 -0.18104155 0.0081233773 0
-0.0013102146 -0.1826034 0.0093319276 0
0.0012229491 -0.182528 -0.0092923352 0
0.0018093796 -0.18110667 -0.0081885289 0
0.0017808288 -0.18141063 -0.0044182693 0
0.001479894 -0.18165053 0.0045708437 0
0.0014972731 -0.1810368 0.0081131486 0
0.0012995891 -0.1825715 0.0093024326 0
0.004339762 -0.18258394 -0.009335761 0
0.0044591865 -0.18106893 -0.0081592221 0
0.004638914 -0.18149249 -0.0045658136 0
0.0043738638 -0.18144917 0.0044661765 0
0.0043425397 -0.18115428 0.0081977639 0
0.0048266747 -0.18263645 0.0093448274 0
0.0066784704 -0.18265696 -0.0092189144 0
0.0066040978 -0.18173625 -0.0073153912 0
0.0063430946 -0.18107408 -0.0052579786 0
0.0063914349 -0.18098813 0.0051521831 0
0.0066082282 -0.18157811 0.007423772 0
0.0068583637 -0.18262555 0.0093097305 0
-0.0039347694 -0.17914692 -0.006617032 0
-0.0048077996 -0.17850801 -0.004628052 0
-0.0049999929 -0.17858708 -0.0015633531 0
-0.0050000045 -0.17866361 0.0015978448 0
-0.0048133018 -0.17827226 0.0047038882 0
-0.0041079246 -0.1791456 0.0066199442 0
-0.0015051477 -0.17910473 -0.0066338615 0
-0.0017080294 -0.17762867 -0.0054875785 0
-0.00012086682 -0.17890699 -0.001143369 0
-0.00011836096 -0.17883675 0.001097025 0
-0.0013685713 -0.1775396 0.005410471 0
-0.0016183888 -0.17907502 0.0066004568 0
0.001691247 -0.17900793 -0.0065586613 0
0.0016678118 -0.17826681 -0.0048152963 0
0.0015912 -0.17837317 -0.0020637591 0
0.0016406769 -0.17837827 0.0020427175 0
0.0013306855 -0.17828268 0.0051072668 0
0.0013124059 -0.17906454 0.0065857358 0
0.0044889217 -0.17926988 -0.0067408802 0
0.0049913684 -0.17832212 -0.0043961387 0
0.0044043297 -0.1782918 -0.0021356053 0
0.0044732005 -0.17811157 0.0020010551 0
0.004983169 -0.17835835 0.0045846174 0
0.0050040754 -0.17926374 0.0066025713 0
0.0060368115 -0.17992377 -0.0061850846 0
0.0060366611 -0.17992336 -0.0052537383 0
0.006060164 -0.1799003 0.0056300261 0
-0.0046360013 -0.17544812 -0.0042381436 0
-0.0049999934 -0.17556001 -0.0015881308 0
-0.0050000045 -0.17567952 0.0016486564 0
-0.0046077864 -0.17567599 0.0043504969 0
-0.0016855348 -0.17549063 -0.0049993703 0
-1.8817027e-05 -0.176204 -0.00012528358 0
-2.671334e-05 -0.17668162 0.00042861846 0
-0.0016505835 -0.17556311 0.0049674925 0
0.001818241 -0.17525358 -0.0049993577 0
0.0012249803 -0.17680179 -0.00048484319 0
0.0010111645 -0.17680123 0.00034589015 0
0.0015342907 -0.17570861 0.0049352981 0
0.0045415983 -0.17580684 -0.0045162626 0
0.0048838453 -0.17559619 -0.0014682248 0
0.0048667183 -0.17570646 0.001499243 0
0.0045584971 -0.17551631 0.0044512427 0
-0.004481738 -0.17242035 -0.0044316803 0
-0.0049999924 -0.1726502 -0.0015223842 0
-0.0050000036 -0.17235047 0.0014495667 0
-0.0044368347 -0.17248817 0.0045926753 0
-0.0014269343 -0.17239548 -0.0049993801 0
-0.0016226125 -0.17247093 0.0049668448 0
0.0013431697 -0.17257859 -0.0049993685 0
0.0015497293 -0.17242159 0.0049351323 0
0.0045246202 -0.17239626 -0.0045771981 0
0.0050000041 -0.17243391 -0.0014106284 0
0.0049999934 -0.17246979 0.00164994 0
0.004484944 -0.17260675 0.0044816243 0
-0.0046111676 -0.16938306 -0.0045656674 0
-0.0049999938 -0.16950184 -0.001595982 0
-0.0050000036 -0.16954201 0.0015921108 0
-0.0045411931 -0.16942386 0.0045316699 0
-0.0014175706 -0.16945244 -0.0049993903 0
-0.0013655792 -0.16937228 0.0049642641 0
0.0015491045 -0.16960452 -0.0049993792 0
0.0015274965 -0.1695022 0.0049353442 0
0.0043062605 -0.16935565 -0.0046142666 0
0.0050000045 -0.16944243 -0.0017750175 0
0.0049999934 -0.16954523 0.001393637 0
0.0044461796 -0.16960643 0.0044743665 0
-0.0045279614 -0.16636167 -0.0044840137 0
-0.0049999924 -0.1665571 -0.0016637793 0
-0.0050000041 -0.16648202 0.0015246955 0
-0.0045393086 -0.16640092 0.0044817296 0
-0.0013281332 -0.16648552 -0.0049994006 0
-0.0015411691 -0.16661438 0.0049660089 0
0.0018090085 -0.16642192 -0.0049993894 0
0.0015285749 -0.16659001 0.0049353233 0
0.0043846839 -0.16643967 -0.0045328392 0
0.0050000036 -0.16667402 -0.0013810702 0
0.0049999929 -0.16650577 0.0016896423 0
0.0045107715 -0.16632232 0.0044322023 0
-0.004509056 -0.1637083 -0.0045120493 0
-0.0049999929 -0.16345595 -0.0015476756 0
-0.0050000036 -0.16361542 0.0015551125 0
-0.0044235019 -0.16370966 0.0046059075 0
-0.0015135163 -0.163495 -0.0049994122 0
-0.0017802845 -0.1636547 0.0049683875 0
0.0016728266 -0.16338919 -0.0049994015 0
0.0015061668 -0.16355199 0.0049355351 0
0.0042454959 -0.16338238 -0.004597628 0
0.0050000031 -0.16350649 -0.0012678008 0
0.0049999924 -0.16372408 0.0014984437 0
0.0045430725 -0.16354601 0.0044277608 0
-0.0044440771 -0.16058488 -0.0044777552 0
-0.004999992 -0.16050148 -0.0016301491 0
-0.0050000041 -0.16057938 0.0015895659 0
-0.0045542279 -0.16054578 0.0044667157 0
-0.0016765977 -0.16062061 -0.0049994239 0
-0.0014224625 -0.16033854 0.0049647992 0
0.0016693384 -0.16046402 -0.0049994118 0
0.0016732767 -0.16058189 0.0049338546 0
0.0044179754 -0.1603819 -0.0045840219 0
0.0050000045 -0.16021681 -0.0015450036 0
0.0049999929 -0.16039801 0.0018267116 0
0.0045227078 -0.16046831 0.0044919676 0
-0.0044823014 -0.15757631 -0.0044843308 0
-0.0049999938 -0.15746623 -0.0014306973 0
-0.0050000036 -0.1576248 0.0014525603 0
-0.0045654238 -0.15738966 0.0045158858 0
-0.0015269931 -0.15746029 -0.0049994341 0
-0.0016632994 -0.15759656 0.0049671968 0
0.0014689004 -0.15763853 -0.0049994229 0
0.0014059836 -0.15743078 0.0049365154 0
0.0046029217 -0.15753192 -0.0043717469 0
0.0050000045 -0.15742479 -0.001531776 0
0.0049999929 -0.15757191 0.0015993515 0
0.0044652028 -0.15740344 0.0044300398 0
-0.004431969 -0.15429588 -0.0046426035 0
-0.0049999943 -0.15440775 -0.001590208 0
-0.0050000036 -0.15475537 0.0014751281 0
-0.0045216409 -0.15437159 0.0045198747 0
-0.0017144916 -0.1544271 -0.0049994467 0
-0.0016854256 -0.15443762 0.0049674059 0
0.0012991099 -0.15433918 -0.0049994341 0
0.001590963 -0.15437937 0.0049346541 0
0.0045272964 -0.15445779 -0.0044031306 0
0.0050000036 -0.15466903 -0.0014033052 0
0.0049999943 -0.15441398 0.0013186515 0
0.0045208768 -0.15441635 0.0044330992 0
-0.0045864182 -0.15130526 -0.004401858 0
-0.0049999943 -0.15139593 -0.0015940085 0
-0.0050000041 -0.15131059 0.0014706595 0
-0.0044488483 -0.15151447 0.0044480045 0
-0.0017781331 -0.15158744 -0.0049994565 0
-0.0013647529 -0.15127815 0.0049641901 0
0.0015798425 -0.15143421 -0.0049994448 0
0.0015367764 -0.15137614 0.0049351859 0
0.0044688825 -0.15174925 -0.0045699296 0
0.0050000045 -0.15160947 -0.0015684732 0
0.0049999938 -0.15135603 0.0013447187 0
0.0044543264 -0.1514954 0.0043995897 0
-0.0045516202 -0.1485489 -0.0044092685 0
-0.0049999929 -0.14856111 -0.0015075486 0
-0.0050000036 -0.14814685 0.0013770637 0
-0.0044600768 -0.14860335 0.0044721812 0
-0.0013815555 -0.14841697 -0.0049994662 0
-0.0014282024 -0.1484582 0.0049648131 0
0.0014264113 -0.14830591 -0.0049994565 0
0.0015460044 -0.14839748 0.0049350825 0
0.0045646564 -0.1485862 -0.0045272405 0
0.0050000041 -0.14866003 -0.0014710969 0
0.0049999934 -0.14871994 0.0014073545 0
0.0046467474 -0.14845476 0.0043736808 0
-0.0045915595 -0.14564706 -0.0044756276 0
-0.0049999924 -0.14526646 -0.0017456271 0
-0.0050000041 -0.14546433 0.0013701126 0
-0.0041833757 -0.14539075 0.0046303407 0
-0.0015307758 -0.14541885 -0.0049994774 0
-0.0017805226 -0.14550266 0.0049683265 0
0.0015360487 -0.14538328 -0.0049994662 0
0.0014785138 -0.1455543 0.004935747 0
0.0046213688 -0.14540742 -0.0043693935 0
0.0050000045 -0.14553066 -0.0013553444 0
0.0049999934 -0.14528537 0.0015177163 0
0.0045141382 -0.14545071 0.0043602828 0
-0.0045877229 -0.14247182 -0.0044173133 0
-0.0049999934 -0.14225546 -0.0013861081 0
-0.0050000041 -0.14239846 0.0014358819 0
-0.0046146461 -0.14246404 0.0043730638 0
-0.0015664526 -0.14258614 -0.0049994891 0
-0.0015969103 -0.14271696 0.0049664797 0
0.0013632702 -0.1423673 -0.0049994779 0
0.001549847 -0.14245677 0.0049350229 0
0.0044133039 -0.14262111 -0.0045779883 0
0.0050000036 -0.14262746 -0.0014753033 0
0.0049999934 -0.14258468 0.0015181649 0
0.0044169431 -0.14252801 0.004411655 0
-0.0043857303 -0.13931803 -0.0046053594 0
-0.0049999948 -0.13958582 -0.0015718287 0
-0.0050000036 -0.13951999 0.0013844165 0
-0.0043330165 -0.13953349 0.0047004395 0
-0.0015303344 -0.13946068 -0.0049994993 0
-0.0015528783 -0.13967842 0.004966029 0
