# .PCD v0.7 - Point Cloud Data file format
VERSION 0.7
FIELDS x y z rgb
SIZE 4 4 4 4
TYPE F F F F
COUNT 1 1 1 1
WIDTH 1168
HEIGHT 1
VIEWPOINT 0 0 0 1 0 0 0
POINTS 1168
DATA ascii
-0.0049999957 -0.16593021 -0.0012165136 0
-0.0050000041 -0.16660689 0.001304821 0
-0.0045162677 -0.16645832 0.004507645 0
-0.0015240056 -0.16644022 -0.0049994038 0
-0.0013728045 -0.16664715 0.0049643256 0
0.0016089471 -0.16638166 -0.0049993922 0
0.0013260473 -0.16682149 0.004937348 0
0.004420314 -0.16646607 -0.0045081596 0
0.0050000055 -0.16667679 -0.0013594358 0
0.0049999934 -0.1666815 0.0019213111 0
0.0045212652 -0.16651101 0.0042591263 0
-0.0044203573 -0.16354001 -0.0044513005 0
-0.0049999929 -0.16357188 -0.0016492857 0
-0.0050000073 -0.16336533 0.0017630304 0
-0.0044164546 -0.1639252 0.0044642044 0
-0.0014196514 -0.16339363 -0.0049994132 0
-0.0018811979 -0.1634036 0.0049693962 0
0.0015282865 -0.1635042 -0.0049994034 0
0.0013854022 -0.16333185 0.0049367421 0
0.0045116246 -0.16355753 -0.0046275984 0
0.0050000059 -0.16377503 -0.0014271728 0
0.0049999957 -0.16362578 0.0012509462 0
0.004284102 -0.16340832 0.0046629184 0
-0.0045490013 -0.16054034 -0.0045150979 0
-0.0049999938 -0.16060598 -0.0016037155 0
-0.0050000055 -0.1605235 0.0014481848 0
-0.0044942172 -0.16045998 0.0043843682 0
-0.0014917792 -0.16090752 -0.0049994234 0
-0.0012659839 -0.16052982 0.0049632359 0
0.0018925201 -0.16048849 -0.0049994122 0
0.0013541369 -0.16062993 0.0049370453 0
0.0043905852 -0.16070201 -0.0044349688 0
0.0050000059 -0.16070922 -0.0016650993 0
0.0049999943 -0.16055773 0.0014980742 0
0.004411743 -0.1606814 0.0046179402 0
-0.0045585088 -0.15732804 -0.0044302759 0
-0.0049999957 -0.15732224 -0.0013968906 0
-0.0050000059 -0.15725283 0.0014119379 0
-0.0045820279 -0.15731926 0.0043768925 0
-0.0016464723 -0.15769395 -0.0049994355 0
-0.0013604746 -0.15748054 0.0049641696 0
0.0016276076 -0.15772089 -0.0049994234 0
0.0014507495 -0.15763904 0.0049360679 0
0.0045837718 -0.15737949 -0.0046846964 0
0.0050000069 -0.15760683 -0.0018516046 0
0.0049999948 -0.15768082 0.0012737956 0
0.0044530146 -0.15733555 0.0044945786 0
-0.004420172 -0.15465777 -0.0045973342 0
-0.0049999943 -0.15448003 -0.0015310041 0
-0.0050000055 -0.15434262 0.0014936692 0
-0.004437515 -0.15436237 0.0045811576 0
-0.0011099658 -0.15439582 -0.0049994448 0
-0.0016457285 -0.15472621 0.0049670106 0
0.0015671124 -0.15430926 -0.004999435 0
0.0016384166 -0.15422736 0.0049341796 0
0.0043577026 -0.15448853 -0.0046141525 0
0.0050000055 -0.15452124 -0.0015777544 0
0.0049999948 -0.1544887 0.0015635745 0
0.0046131662 -0.15462068 0.0043954537 0
-0.0047604986 -0.15140894 -0.0043450836 0
-0.0049999952 -0.15149131 -0.0013050985 0
-0.0050000069 -0.15175873 0.0016764961 0
-0.0044687502 -0.15158807 0.0044955495 0
-0.0016410418 -0.15124384 -0.0049994593 0
-0.0014556999 -0.15162866 0.0049651009 0
0.0012356243 -0.15168409 -0.0049994471 0
0.0014627732 -0.15151401 0.0049359258 0
0.004540558 -0.15149392 -0.0044546505 0
0.0050000055 -0.15139917 -0.0013282623 0
0.0049999948 -0.15172221 0.0013685942 0
0.0046261908 -0.15149702 0.0045208689 0
-0.0043396815 -0.1483039 -0.0046190261 0
-0.0049999948 -0.14870891 -0.0016680878 0
-0.0050000045 -0.14863548 0.0011800986 0
-0.0044595171 -0.14869243 0.0045824293 0
-0.0014719559 -0.14853363 -0.0049994676 0
-0.0015243093 -0.14829026 0.0049657742 0
0.0013929807 -0.1484306 -0.0049994583 0
0.001763166 -0.14862923 0.004932913 0
0.0046138768 -0.14850233 -0.004473961 0
0.005000005 -0.14861362 -0.0011777643 0
0.0049999943 -0.14796889 0.0016712905 0
0.0043857889 -0.14862584 0.0045056464 0
-0.0045104888 -0.14537162 -0.0046200179 0
-0.0049999948 -0.14550704 -0.0014506584 0
-0.0050000059 -0.14549792 0.0015519257 0
-0.0043977988 -0.14547281 0.0046093939 0
-0.0015229362 -0.1451645 -0.0049994807 0
-0.0017217753 -0.14573273 0.0049677393 0
0.0016640957 -0.14530675 -0.0049994676 0
0.0013542454 -0.14570393 0.0049369899 0
0.0045925626 -0.14550632 -0.0044207135 0
0.0050000069 -0.1454324 -0.0018499057 0
0.0049999948 -0.14527418 0.001577368 0
0.0042346804 -0.14547271 0.0046349321 0
-0.0047243708 -0.1425558 -0.00422739 0
-0.0049999948 -0.14260125 -0.0014686063 0
-0.0050000064 -0.14229852 0.0016950082 0
-0.0045401827 -0.14244112 0.0044632619 0
-0.0012839012 -0.14239506 -0.0049994895 0
-0.0014466855 -0.14251024 0.0049649775 0
0.0016422016 -0.14253253 -0.0049994783 0
0.001532978 -0.14237764 0.0049351905 0
0.0044398759 -0.14231391 -0.0044664834 0
0.0050000055 -0.14245613 -0.001388858 0
0.0049999943 -0.1426367 0.0016470588 0
0.0045996429 -0.1422888 0.0045294384 0
-0.0045449622 -0.13933738 -0.0043985276 0
-0.0049999952 -0.13922286 -0.0014688937 0
-0.0050000073 -0.13969533 0.0018243749 0
-0.0047285617 -0.1397097 0.0043196813 0
-0.0021477898 -0.13952391 -0.0049995021 0
-0.0016602535 -0.13932434 0.0049671009 0
0.0015780355 -0.13950866 -0.0049994895 0
0.0017546297 -0.13956806 0.0049329652 0
0.0045582741 -0.13954824 -0.0044692042 0
0.0050000059 -0.13975406 -0.001606386 0
0.0049999962 -0.13961242 0.0011917849 0
0.0044500059 -0.13921951 0.0044384357 0
-0.0043537323 -0.13668561 -0.0045190668 0
-0.0049999952 -0.1362312 -0.0015321599 0
-0.0050000055 -0.13653091 0.0014949942 0
-0.0045136698 -0.13672982 0.0046907612 0
-0.0016570914 -0.13658883 -0.0049995119 0
-0.0014152331 -0.13650732 0.0049646413 0
0.0017478422 -0.13644075 -0.0049994993 0
0.0016445917 -0.13633288 0.0049340543 0
0.0045143659 -0.13633622 -0.0045108516 0
0.0050000055 -0.13643758 -0.0014360392 0
0.0049999938 -0.1366476 0.0016581818 0
0.0044126962 -0.13614264 0.0045195394 0
-0.0045727389 -0.13350379 -0.0045133405 0
-0.0049999966 -0.13328485 -0.0011362376 0
-0.0050000055 -0.13355388 0.0013346148 0
-0.0044942782 -0.13343449 0.0044720257 0
-0.0017241668 -0.13385616 -0.0049995221 0
-0.0015697249 -0.13366255 0.0049661752 0
0.0013087826 -0.13363387 -0.0049995109 0
0.0015847761 -0.13356841 0.0049346411 0
0.0046108258 -0.13363053 -0.004574873 0
0.0050000069 -0.13348365 -0.0016846569 0
0.0049999943 -0.13345386 0.0015601057 0
0.004512311 -0.13352419 0.0044656023 0
-0.0045711063 -0.13032185 -0.0043742228 0
-0.0049999962 -0.13053383 -0.0013008228 0
-0.0050000045 -0.13076636 0.0013046503 0
-0.004484144 -0.13053721 0.0044700978 0
-0.0013485759 -0.13032207 -0.0049995338 0
-0.0013635241 -0.13031815 0.0049641021 0
0.0012609749 -0.13045149 -0.004999524 0
0.0017493323 -0.13060811 0.0049329861 0
0.0045526191 -0.13046308 -0.0042911922 0
0.0050000059 -0.13068788 -0.0013701776 0
0.0049999957 -0.13057102 0.001312918 0
0.0045013255 -0.13057691 0.0044013564 0
-0.0044147917 -0.12757805 -0.0044116839 0
-0.0049999948 -0.12763134 -0.0014456786 0
-0.0050000064 -0.12747853 0.0016204732 0
-0.0042944071 -0.12759101 0.0045856093 0
-0.0010557463 -0.12721871 -0.0049995435 0
-0.0015290043 -0.12765925 0.0049657458 0
0.001281046 -0.1274184 -0.0049995338 0
0.0016984069 -0.12768769 0.0049334844 0
0.0043172063 -0.12769462 -0.0046561351 0
0.0050000059 -0.12718984 -0.0013858853 0
0.0049999952 -0.12726925 0.0014000948 0
0.004421616 -0.12752537 0.0047866395 0
-0.0044203419 -0.12451538 -0.0046833642 0
-0.0049999952 -0.12427115 -0.0016004912 0
-0.005000005 -0.12460175 0.0011970822 0
-0.0044891764 -0.12432559 0.004497638 0
-0.0014809476 -0.12450294 -0.0049995547 0
-0.0013596282 -0.12454534 0.004964042 0
0.0017980502 -0.12462948 -0.0049995417 0
0.0015191999 -0.12475607 0.0049352651 0
0.0046267407 -0.12461364 -0.0043835263 0
0.0050000064 -0.12477709 -0.0015079825 0
0.0049999938 -0.12441006 0.0016088375 0
0.0046629743 -0.12421469 0.0044029155 0
-0.0093098748 -0.12000003 -0.0081811193 0
-0.009758669 -0.12000001 -0.0032235628 0
-0.0093401857 -0.12 -0.001132727 0
-0.0096087959 -0.11999999 0.0016111017 0
-0.0093994709 -0.11999998 0.0041954145 0
-0.0092669735 -0.11999997 0.0070990701 0
-0.0075499341 -0.12000003 -0.0075395689 0
-0.0076042945 -0.12000001 -0.0044307527 0
-0.0074659293 -0.12 -0.0015124427 0
-0.0070730792 -0.11999999 0.0016276221 0
-0.0073386361 -0.11999998 0.0046993652 0
-0.0072191143 -0.11999997 0.0072599086 0
-0.0065764626 -0.11999996 0.00948969 0
-0.0040505272 -0.12000003 -0.0091595985 0
-0.0048545622 -0.12000003 -0.0073547526 0
-0.0045569036 -0.12120389 -0.0044778832 0
-0.005007809 -0.1213739 -0.0011733178 0
-0.0051225745 -0.12127079 0.0018489872 0
-0.0044586994 -0.1214435 0.0044863122 0
-0.005002284 -0.11999998 0.0076936921 0
-0.004872276 -0.11999997 0.0091524543 0
-0.001534612 -0.12000003 -0.009167322 0
-0.0014746309 -0.12000003 -0.0077547142 0
-0.0015047904 -0.12157902 -0.005037732 0
-0.001473784 -0.12113891 0.0050367932 0
-0.0017466443 -0.11999997 0.0074947425 0
-0.0015893818 -0.11999996 0.0096235797 0
0.0013083091 -0.12000002 -0.0069277566 0
0.0015752543 -0.12143213 -0.0050004791 0
0.0014766405 -0.12104194 0.0050818506 0
0.0014626202 -0.11999997 0.0075890515 0
0.0017311273 -0.11999996 0.0095989229 0
0.0055714054 -0.12000003 -0.0095020374 0
0.0042983256 -0.12000003 -0.0077549377 0
0.0045053326 -0.12123297 -0.0046133487 0
0.0050170273 -0.12115169 -0.0014839103 0
0.0050518052 -0.12132879 0.0013743282 0
0.0045582871 -0.12134167 0.004589403 0
0.0046421699 -0.11999997 0.0074388739 0
0.0075759152 -0.12000003 -0.0094868718 0
0.0075012282 -0.12000003 -0.0073089204 0
0.0072209747 -0.12000001 -0.0048864875 0
0.0076133031 -0.12 -0.0017124615 0
0.007767498 -0.11999999 0.0016751633 0
0.0078837657 -0.11999998 0.0046518692 0
0.0076416908 -0.11999997 0.0077080303 0
0.009072178 -0.12000002 -0.005494175 0
0.0093663633 -0.12 -0.0022106685 0
0.0095517188 -0.11999997 0.0076741991 0
-0.0097602373 -0.11884034 -0.0097280731 0
-0.0098630264 -0.11870401 -0.0074796728 0
-0.0098955184 -0.1186474 -0.0044587371 0
-0.0098881405 -0.11862488 -0.0015552089 0
-0.0098574627 -0.11881758 0.0014094991 0
-0.009742613 -0.1191702 0.004750425 0
-0.0099403346 -0.11861619 0.0070967562 0
-0.0097023835 -0.11845085 0.0096491985 0
-0.0074641532 -0.11868083 -0.0099372203 0
-0.007582813 -0.12000002 -0.0069821929 0
-0.0075956364 -0.11999998 -0.0044728266 0
-0.0074769757 -0.12 -0.0012549605 0
-0.0080844052 -0.11999999 0.0010621069 0
-0.0073193018 -0.11999998 0.0044719493 0
-0.0075337193 -0.11999993 0.0073013282 0
-0.0076018469 -0.11879816 0.0098752109 0
-0.0046907207 -0.11862501 -0.0098445928 0
-0.0047770813 -0.12000003 -0.0072503015 0
-0.0046978975 -0.12000001 -0.0049598319 0
-0.0054236362 -0.12 -0.0017784558 0
-0.0055422215 -0.11999999 0.0017831867 0
-0.0047489195 -0.11999998 0.0048094792 0
-0.0043468261 -0.11999996 0.0073590223 0
-0.0046016299 -0.11860963 0.0099565582 0
-0.001262216 -0.11901618 -0.0099063199 0
-0.0012385115 -0.12000003 -0.0077699693 0
-0.0020894108 -0.12000002 -0.0054937298 0
-0.0020129087 -0.11999997 0.0055002919 0
-0.0015175018 -0.11999997 0.0075956509 0
-0.0015268838 -0.11849029 0.009875495 0
0.0013612685 -0.1187964 -0.0098861651 0
0.0015317701 -0.12000003 -0.0072230804 0
0.00046526748 -0.12000001 -0.0054067224 0
0.0015771992 -0.11999997 0.0053328085 0
0.001283593 -0.11999996 0.0076248706 0
0.0011786078 -0.1189266 0.0099226898 0
0.0044795005 -0.11884036 -0.0098484121 0
0.0044412413 -0.12000003 -0.0076824599 0
0.0048523261 -0.12 -0.0049317228 0
0.0051452247 -0.12 -0.001535842 0
0.00558643 -0.12 0.00099290581 0
0.0051398124 -0.11999998 0.0046808608 0
0.0045211124 -0.11999997 0.0074175871 0
0.0045453152 -0.11855531 0.0098692095 0
0.0075358078 -0.11867392 -0.0099125477 0
0.0076954006 -0.12 -0.0076869638 0
0.0077128704 -0.12 -0.0046792505 0
0.0075593889 -0.12 -0.0017483718 0
0.0073828967 -0.11999999 0.0015255237 0
0.0074282931 -0.11999998 0.0038583544 0
0.0071373121 -0.11999997 0.0076431753 0
0.0073519144 -0.11871653 0.0099402526 0
0.0096919863 -0.11874976 -0.0097006541 0
0.0098884897 -0.11897111 -0.0074316533 0
0.0099470578 -0.11875612 -0.00452581 0
0.0099052098 -0.11917423 -0.0014639535 0
0.0098706996 -0.11899804 0.0015025265 0
0.009955015 -0.11872242 0.0045656571 0
0.0099132676 -0.11859191 0.0076110535 0
0.0096943108 -0.11863551 0.0096822781 0
-0.0098607698 -0.11546355 -0.0096640233 0
-0.0099999737 -0.11554559 -0.0074512199 0
-0.0099999849 -0.11539269 -0.0044637965 0
-0.0099999951 -0.11544513 -0.0016199833 0
-0.010000007 -0.11544373 0.0014709926 0
-0.010000015 -0.11521682 0.0043185218 0
-0.010000025 -0.11591931 0.0073929583 0
-0.009833199 -0.1157449 0.0097721796 0
-0.0074073263 -0.11577342 -0.0099996086 0
-0.0076070447 -0.11520123 0.01000039 0
-0.0044274675 -0.11536065 -0.0099996002 0
-0.0045679049 -0.11562274 0.010000402 0
-0.0013206823 -0.11537772 -0.0099995881 0
-0.0015376239 -0.1156866 0.010000412 0
0.0013056922 -0.11512863 -0.0099995798 0
0.0013819367 -0.11560696 0.01000042 0
0.0045150598 -0.11531129 -0.0099995676 0
0.0043596737 -0.11533885 0.010000435 0
0.0077337441 -0.11557322 -0.0099995555 0
0.0076216138 -0.1153159 0.010000443 0
0.009701822 -0.11618457 -0.0098145567 0
0.010000028 -0.115072 -0.0073440848 0
0.010000017 -0.11515807 -0.004599133 0
0.010000007 -0.11541932 -0.0017132926 0
0.0099999951 -0.11558677 0.0014615438 0
0.0099999839 -0.11553142 0.0050124652 0
0.0099999756 -0.11555672 0.0070953062 0
0.0096546384 -0.11544099 0.0098089147 0
-0.0097122621 -0.11276957 -0.0097714653 0
-0.0099999756 -0.11246728 -0.0075755208 0
-0.0099999849 -0.11253403 -0.0046725627 0
-0.0099999961 -0.11228254 -0.0013851229 0
-0.010000007 -0.11249883 0.001569145 0
-0.010000017 -0.11250593 0.0045381519 0
-0.010000026 -0.11237097 0.0074859373 0
-0.0097940164 -0.11205132 0.0097694602 0
-0.0074521238 -0.11229498 -0.0099996217 0
-0.0075754598 -0.11248189 0.010000381 0
-0.0044773743 -0.11291305 -0.0099996086 0
-0.0044307681 -0.11277682 0.010000392 0
-0.0015740826 -0.11243264 -0.0099995974 0
-0.0013873129 -0.112312 0.010000404 0
0.0018486413 -0.11219624 -0.0099995881 0
0.0014710043 -0.11264917 0.010000414 0
0.0045486335 -0.11223172 -0.0099995779 0
0.0044436739 -0.11244582 0.010000424 0
0.0077742804 -0.11286924 -0.0099995648 0
0.0075798631 -0.11250971 0.010000433 0
0.0096119456 -0.11239602 -0.0098516587 0
0.010000028 -0.11232891 -0.0074250349 0
0.010000018 -0.11248641 -0.004763044 0
0.010000006 -0.11242094 -0.0014413527 0
0.0099999951 -0.11258246 0.0015351648 0
0.0099999867 -0.11261438 0.0042351107 0
0.0099999756 -0.11275487 0.0072849202 0
0.0098193819 -0.1128213 0.0097512165 0
-0.0098135704 -0.10947178 -0.009618938 0
-0.0099999746 -0.10929934 -0.0074290233 0
-0.0099999849 -0.10946572 -0.0044804607 0
-0.009999997 -0.1096717 -0.001308836 0
-0.010000006 -0.10995904 0.0015052455 0
-0.010000018 -0.10984591 0.00475671 0
-0.010000027 -0.1096001 0.0076160468 0
-0.0097482214 -0.10898929 0.0097925356 0
-0.0073341159 -0.10940085 -0.0099996328 0
-0.007379049 -0.10986526 0.010000371 0
-0.0046512638 -0.10928842 -0.0099996207 0
-0.004731202 -0.10962194 0.010000381 0
-0.001413667 -0.10966029 -0.0099996077 0
-0.0011584989 -0.10948708 0.010000393 0
0.0016289947 -0.10967914 -0.0099995993 0
0.0013910295 -0.10973496 0.010000403 0
0.0049054427 -0.10957324 -0.0099995863 0
0.0044578929 -0.10977922 0.010000415 0
0.0076814815 -0.10950591 -0.0099995751 0
0.0073679187 -0.10951686 0.010000424 0
0.0097878668 -0.11004335 -0.0097830333 0
0.010000028 -0.10948242 -0.0076282709 0
0.010000018 -0.10966697 -0.0046198084 0
0.010000007 -0.10956123 -0.0016298438 0
0.0099999961 -0.10935466 0.0016489319 0
0.0099999858 -0.10932455 0.0044942256 0
0.0099999737 -0.10962824 0.0078053544 0
0.0098070763 -0.10929073 0.0096675623 0
-0.0099033145 -0.10677314 -0.009575964 0
-0.0099999746 -0.10645182 -0.0075156786 0
-0.0099999839 -0.10645113 -0.0047488408 0
-0.0099999951 -0.1067997 -0.0016158409 0
-0.010000006 -0.10652767 0.0016155599 0
-0.010000018 -0.10617197 0.0046208897 0
-0.010000028 -0.10631265 0.0075749909 0
-0.0098171374 -0.10643613 0.0096253669 0
-0.0075996299 -0.10613218 -0.0099996449 0
-0.0073668649 -0.10664389 0.010000361 0
-0.0045355791 -0.10650366 -0.009999631 0
-0.0044639292 -0.10640014 0.01000037 0
-0.0015030964 -0.10659397 -0.0099996217 0
-0.0017831918 -0.10679466 0.010000382 0
0.0015717928 -0.10632741 -0.0099996114 0
0.0011250408 -0.10647332 0.01000039 0
0.0046264664 -0.1064226 -0.0099995993 0
0.0043112105 -0.10621905 0.010000402 0
0.0074960999 -0.10637207 -0.0099995891 0
0.0076102167 -0.10657343 0.010000411 0
0.0096977428 -0.10631624 -0.0097904382 0
0.010000027 -0.10674908 -0.0074598477 0
0.010000018 -0.10666463 -0.0045384611 0
0.010000007 -0.10669402 -0.0016807175 0
0.0099999951 -0.10678595 0.001266441 0
0.0099999849 -0.10638283 0.0046968828 0
0.0099999746 -0.10684034 0.0075288964 0
0.0097480109 -0.10599838 0.009728035 0
-0.0097448537 -0.10330752 -0.0097106881 0
-0.0099999737 -0.10337471 -0.0075109862 0
-0.0099999839 -0.10358775 -0.0047618197 0
-0.0099999951 -0.1035588 -0.0014935519 0
-0.010000004 -0.1035752 0.0014742592 0
-0.010000017 -0.10337558 0.0043594525 0
-0.010000029 -0.10327237 0.0074536167 0
-0.0096474718 -0.10397638 0.0098427916 0
-0.0075843558 -0.10373716 -0.0099996515 0
-0.0077964165 -0.10302833 0.010000344 0
-0.0043395464 -0.10349492 -0.0099996421 0
-0.0040586889 -0.10357887 0.010000362 0
-0.0012827357 -0.10400946 -0.0099996282 0
-0.001327233 -0.1034562 0.01000037 0
0.0015045294 -0.10338841 -0.0099996207 0
0.0014763634 -0.1035481 0.010000382 0
0.0040108147 -0.10366432 -0.0099996114 0
0.0043811104 -0.10378258 0.010000392 0
0.0074286745 -0.10347398 -0.0099995984 0
0.0075547243 -0.10318688 0.0100004 0
0.0097734369 -0.10335261 -0.0096658934 0
0.010000029 -0.1036255 -0.0075954534 0
0.010000018 -0.10345039 -0.0047344118 0
0.010000007 -0.10350779 -0.0015201106 0
0.0099999942 -0.10333626 0.0018515147 0
0.0099999839 -0.10359836 0.0046130163 0
0.0099999746 -0.10359661 0.0074928426 0
0.0097245071 -0.10376929 0.009753502 0
-0.009658535 -0.10014634 -0.009846231 0
-0.0099999746 -0.10062855 -0.0075536966 0
-0.0099999839 -0.10033284 -0.0046777003 0
-0.0099999942 -0.10041406 -0.0012541544 0
-0.010000006 -0.10058733 0.0014038335 0
-0.010000017 -0.1008279 0.0046641803 0
-0.010000027 -0.10019033 0.0073654926 0
-0.0095665101 -0.10063665 0.0098225307 0
-0.0075342893 -0.10067641 -0.0099996636 0
-0.0075958879 -0.10083928 0.010000339 0
-0.0040414277 -0.10049057 -0.0099996505 0
-0.0045142379 -0.1005685 0.010000349 0
-0.002137098 -0.10041457 -0.0099996459 0
-0.0011507613 -0.10061123 0.01000036 0
0.0015601121 -0.10038541 -0.0099996328 0
0.0018456634 -0.10088373 0.010000372 0
0.0042290203 -0.10035118 -0.0099996235 0
0.0043151113 -0.10055277 0.010000382 0
0.0075091114 -0.10040389 -0.0099996096 0
0.0077499957 -0.10069277 0.010000393 0
0.0097858887 -0.10001342 -0.0095998961 0
0.010000028 -0.10027728 -0.007418178 0
0.010000017 -0.10084394 -0.0045026387 0
0.010000006 -0.10068402 -0.0016471505 0
0.0099999951 -0.10029978 0.0014871951 0
0.0099999858 -0.1004293 0.0041327015 0
0.0099999746 -0.10027226 0.007320941 0
0.0096859932 -0.10075253 0.0097962394 0
-0.0097001875 -0.097513624 -0.0097841453 0
-0.0099999718 -0.097639158 -0.0074854619 0
-0.0099999839 -0.097379684 -0.0043265284 0
-0.0099999961 -0.097349323 -0.0013427612 0
-0.010000006 -0.097695164 0.0013855045 0
-0.010000017 -0.097412795 0.0045297015 0
-0.010000027 -0.097501315 0.0070840879 0
-0.0097671747 -0.097515628 0.0097921183 0
-0.0074018752 -0.097669661 -0.0099996729 0
-0.0075713946 -0.097126976 0.010000326 0
-0.0046000038 -0.097375825 -0.0099996664 0
-0.004292794 -0.097098313 0.010000336 0
-0.0016082176 -0.097213767 -0.0099996543 0
-0.00115997 -0.097650476 0.01000035 0
0.0015184083 -0.097487181 -0.0099996403 0
0.0017746714 -0.097622097 0.010000361 0
0.0047806739 -0.097553253 -0.00999963 0
0.0046188906 -0.097559333 0.01000037 0
0.0075688842 -0.097340547 -0.0099996207 0
0.007241664 -0.097452976 0.010000377 0
0.0097237974 -0.097949803 -0.0097991992 0
0.010000029 -0.097563922 -0.0078696618 0
0.010000016 -0.09747728 -0.0046985964 0
0.010000006 -0.097597726 -0.0014479437 0
0.009999997 -0.097311273 0.0013443948 0
0.0099999839 -0.09749081 0.0047349636 0
0.0099999746 -0.097366028 0.0074422457 0
0.0098238708 -0.097793169 0.009762465 0
-0.0096080424 -0.094682865 -0.0098249409 0
-0.0099999737 -0.094738029 -0.0071032657 0
-0.0099999821 -0.094749205 -0.0047259578 0
-0.0099999961 -0.094687492 -0.0015067878 0
-0.010000006 -0.094345115 0.0012441002 0
-0.010000017 -0.094698951 0.0042669461 0
-0.010000029 -0.09438049 0.0076190238 0
-0.0097971885 -0.094679773 0.0097390823 0
-0.0074647279 -0.094347589 -0.0099996841 0
-0.0074599562 -0.094350755 0.010000315 0
-0.0045187194 -0.094547994 -0.0099996729 0
-0.004628045 -0.094665065 0.010000326 0
-0.0014085508 -0.09411525 -0.0099996636 0
-0.0016085022 -0.094238713 0.010000337 0
0.0016406414 -0.094652079 -0.0099996515 0
0.0015838667 -0.094559312 0.010000349 0
0.0043626898 -0.094326936 -0.009999644 0
0.0046907202 -0.0943074 0.010000359 0
0.0072165448 -0.094434172 -0.0099996338 0
0.0073610884 -0.094709761 0.01000037 0
0.0098719643 -0.094607331 -0.0095866332 0
0.010000029 -0.094390854 -0.0076115732 0
0.010000015 -0.094407924 -0.0044172355 0
0.010000006 -0.094694182 -0.0014537779 0
0.0099999942 -0.094467625 0.0015790331 0
0.0099999849 -0.094040424 0.0042668683 0
0.0099999728 -0.094483159 0.0076527838 0
0.0096343793 -0.094617955 0.0098135909 0
-0.0097526284 -0.091772728 -0.0097229751 0
-0.0099999737 -0.09163405 -0.0075062225 0
-0.0099999839 -0.091483556 -0.0047133924 0
-0.0099999961 -0.091369949 -0.00148331 0
-0.010000005 -0.0918345 0.0016247908 0
-0.010000018 -0.091526307 0.0047430345 0
-0.010000026 -0.091621205 0.0074843704 0
-0.0097157601 -0.091432668 0.0098206848 0
-0.0075482205 -0.091441073 -0.009999698 0
-0.0079117855 -0.091210634 0.010000302 0
-0.0046208035 -0.091233373 -0.0099996878 0
-0.0043610339 -0.091205768 0.010000315 0
-0.0012124146 -0.091669902 -0.0099996729 0
-0.0015922752 -0.091630943 0.010000328 0
0.0016017027 -0.091603987 -0.0099996636 0
0.0015693001 -0.091693468 0.010000339 0
0.0044334745 -0.091465488 -0.0099996524 0
0.0042409799 -0.091606088 0.010000346 0
0.0075944751 -0.091552094 -0.0099996421 0
0.0073526381 -0.091291845 0.010000358 0
0.0097214654 -0.091313183 -0.009737175 0
0.010000028 -0.091516018 -0.0075264405 0
0.010000016 -0.091553092 -0.0045499583 0
0.010000004 -0.091553062 -0.001178617 0
0.0099999961 -0.091373883 0.001432856 0
0.009999983 -0.091193639 0.0046614446 0
0.0099999737 -0.091582678 0.0076650223 0
0.0096555939 -0.091318049 0.0097934389 0
-0.0097570252 -0.088308536 -0.0097600371 0
-0.0099999737 -0.088578306 -0.0076280846 0
-0.0099999849 -0.088554338 -0.0046111755 0
-0.0099999951 -0.088472322 -0.0016609131 0
-0.010000004 -0.08860451 0.0015656879 0
-0.010000017 -0.088307008 0.0043340884 0
-0.010000029 -0.088622622 0.0077638938 0
-0.0095714461 -0.088598959 0.0099584768 0
-0.007436764 -0.088445358 -0.0099997064 0
-0.0074529592 -0.088523187 0.010000293 0
-0.0044417158 -0.088399217 -0.0099996943 0
-0.0046759848 -0.088401273 0.010000305 0
-0.0015082146 -0.088223681 -0.0099996859 0
-0.0014268522 -0.088548288 0.010000315 0
0.0016110203 -0.08864297 -0.0099996729 0
0.0016526034 -0.088192105 0.010000326 0
0.0046450091 -0.088392735 -0.0099996636 0
0.004574256 -0.088359542 0.010000338 0
0.0076038605 -0.088451847 -0.0099996515 0
0.0073293638 -0.088797614 0.010000348 0
0.0098141981 -0.088850386 -0.0096712206 0
0.010000027 -0.088511899 -0.0075742556 0
0.010000015 -0.088514313 -0.0043435721 0
0.010000006 -0.088473566 -0.0015827399 0
0.0099999951 -0.088208325 0.0016587267 0
0.0099999839 -0.088205159 0.0045850542 0
0.0099999718 -0.088521302 0.0075413361 0
0.0097823013 -0.088499069 0.0096683986 0
-0.0097164651 -0.084995091 -0.0097654331 0
-0.0099999728 -0.08574523 -0.007668816 0
-0.0099999858 -0.085498072 -0.0043631359 0
-0.009999997 -0.085392796 -0.0014135342 0
-0.010000008 -0.085587651 0.0017235193 0
-0.010000018 -0.085334808 0.0045623453 0
-0.010000029 -0.085509315 0.0077224774 0
-0.0096436562 -0.085776858 0.0098239528 0
-0.0072547314 -0.085612312 -0.0099997148 0
-0.007710096 -0.085434966 0.010000282 0
-0.0046893852 -0.085539237 -0.0099997092 0
-0.0043008681 -0.085823163 0.010000296 0
-0.0013974358 -0.085576512 -0.0099996952 0
-0.001474195 -0.0855892 0.010000305 0
0.0013043918 -0.085842989 -0.009999685 0
0.0015345374 -0.085314162 0.010000315 0
0.0045849332 -0.085454531 -0.0099996729 0
0.0044897771 -0.085291304 0.010000327 0
0.0074230628 -0.085152932 -0.0099996664 0
0.0078180768 -0.085250571 0.010000338 0
0.0097855777 -0.085646227 -0.0096786711 0
0.010000028 -0.085562199 -0.0075087319 0
0.010000017 -0.085208789 -0.0043499116 0
0.010000007 -0.085501336 -0.0017255038 0
0.0099999951 -0.085517392 0.0014502967 0
0.0099999849 -0.085612595 0.0046297736 0
0.0099999728 -0.085403405 0.007346232 0
0.0096740546 -0.085277677 0.0097079575 0
-0.0096548907 -0.082248725 -0.0098223602 0
-0.0099999746 -0.082534894 -0.0075065177 0
-0.0099999849 -0.082678907 -0.0043301238 0
-0.0099999961 -0.082108319 -0.0012714067 0
-0.010000005 -0.082608402 0.0016151562 0
-0.010000016 -0.082292065 0.004607779 0
-0.010000028 -0.082500599 0.0073653297 0
-0.0098092929 -0.082714535 0.0097819325 0
-0.0076901568 -0.082293786 -0.0099997316 0
-0.0074212607 -0.08271005 0.010000271 0
-0.0047407602 -0.082591064 -0.0099997176 0
-0.0049837558 -0.082388438 0.010000281 0
-0.0016833675 -0.082644284 -0.0099997083 0
-0.00152916 -0.082342207 0.010000294 0
0.0015174404 -0.082312696 -0.0099996962 0
0.0014288165 -0.082557321 0.010000305 0
0.004421338 -0.08220116 -0.0099996878 0
0.0046079196 -0.082486749 0.010000316 0
0.0076007284 -0.082521252 -0.0099996729 0
0.0073722932 -0.082810208 0.010000327 0
0.0097904531 -0.082228519 -0.0098424321 0
0.010000027 -0.082636885 -0.007602951 0
0.010000019 -0.082442403 -0.0045716628 0
0.010000006 -0.082699962 -0.0011864209 0
0.009999997 -0.082615197 0.0014014562 0
0.009999983 -0.082532518 0.0045073922 0
0.0099999756 -0.082705736 0.0073125935 0
0.0097622797 -0.082655124 0.0096762571 0
-0.0097419526 -0.079180397 -0.0098969666 0
-0.0099999728 -0.079086199 -0.0075664478 0
-0.0099999839 -0.079675645 -0.0046212678 0
-0.0099999942 -0.079641439 -0.001722967 0
-0.010000007 -0.079083666 0.0017386305 0
-0.010000017 -0.079754084 0.0042766072 0
-0.010000026 -0.079398893 0.0072160545 0
-0.0097268922 -0.079646684 0.0098353364 0
-0.0074930107 -0.079391927 -0.0099997399 0
-0.007512725 -0.079388171 0.01000026 0
-0.0050446084 -0.079670884 -0.0099997297 0
-0.0048058955 -0.07952977 0.010000271 0
-0.0014625019 -0.079563312 -0.0099997167 0
-0.0012659191 -0.079849146 0.010000284 0
0.0012209621 -0.079497389 -0.0099997073 0
0.0014062473 -0.079955995 0.010000296 0
0.0046733697 -0.079623029 -0.0099996962 0
0.0045150854 -0.079543501 0.010000306 0
0.0076807425 -0.079459444 -0.009999685 0
0.007637287 -0.078935482 0.010000315 0
0.0097693074 -0.08006864 -0.0097246422 0
0.010000028 -0.079734609 -0.0075864056 0
0.010000017 -0.079720236 -0.0044114287 0
0.010000006 -0.079487093 -0.0016094145 0
0.0099999951 -0.079369962 0.0016805448 0
0.0099999839 -0.079553425 0.0044200826 0
0.0099999709 -0.079341359 0.0074497187 0
0.0095778173 -0.079213455 0.0098433373 0
-0.0097783031 -0.076293103 -0.0097459983 0
-0.0099999737 -0.076789886 -0.0074516931 0
-0.0099999839 -0.076729 -0.0048836051 0
-0.0099999961 -0.076325625 -0.0012883075 0
-0.010000007 -0.076361537 0.0015575791 0
-0.010000017 -0.076584816 0.0046966947 0
-0.010000028 -0.076474145 0.0074685779 0
-0.0097293658 -0.076220423 0.0097685605 0
-0.0072861011 -0.076423407 -0.0099997502 0
-0.0075587803 -0.076449208 0.01000025 0
-0.0042944616 -0.076496579 -0.0099997409 0
-0.0048256898 -0.076556124 0.01000026 0
-0.0017444536 -0.076525241 -0.0099997297 0
-0.0015962024 -0.076460429 0.010000271 0
0.0012657159 -0.076439433 -0.0099997194 0
0.0017682228 -0.076780297 0.010000285 0
0.0044319462 -0.076614253 -0.0099997083 0
0.0046222238 -0.076588646 0.010000294 0
0.0077450536 -0.076346286 -0.0099996962 0
0.0073441919 -0.076400213 0.010000305 0
0.0098049371 -0.07671994 -0.009704411 0
0.010000026 -0.076549374 -0.00719532 0
0.010000017 -0.076381899 -0.0043553137 0
0.010000006 -0.076549657 -0.0014769579 0
0.009999997 -0.076582678 0.0011824277 0
0.0099999849 -0.076701485 0.0043953964 0
0.0099999746 -0.076651335 0.0072586183 0
0.0096787084 -0.076671377 0.0099105239 0
-0.0098631475 -0.073468484 -0.0095839836 0
-0.0099999737 -0.073669702 -0.0073797889 0
-0.0099999858 -0.073675498 -0.0044525205 0
-0.0099999961 -0.073604025 -0.0015477738 0
-0.010000004 -0.073460884 0.0013636763 0
-0.010000014 -0.07327237 0.0043753088 0
-0.010000028 -0.073616698 0.0074037649 0
-0.0098552862 -0.073505931 0.0097540785 0
-0.0072645573 -0.073248468 -0.0099997614 0
-0.0073298551 -0.073746271 0.010000241 0
-0.0047286386 -0.073713779 -0.0099997502 0
-0.0047246777 -0.073271967 0.010000249 0
-0.0015945294 -0.073643349 -0.0099997409 0
-0.0012698702 -0.073355183 0.010000262 0
0.0015303056 -0.073649481 -0.0099997288 0
0.001451202 -0.073425695 0.010000272 0
0.0046807434 -0.073446788 -0.0099997185 0
0.0046404577 -0.073472939 0.010000282 0
0.0071090083 -0.073439695 -0.0099997083 0
0.00737995 -0.073392473 0.010000294 0
0.0097363694 -0.073447764 -0.0097588655 0
0.010000029 -0.073166654 -0.0078173829 0
0.010000019 -0.073621117 -0.0047941823 0
0.010000004 -0.073641181 -0.0014089501 0
0.0099999961 -0.07370276 0.0013266642 0
0.0099999858 -0.07322225 0.004409946 0
0.00999997 -0.073565789 0.0077039315 0
0.0097417524 -0.073643118 0.0097823516 0
-0.0095801344 -0.070238858 -0.0098713581 0
-0.0099999718 -0.070549749 -0.0077271736 0
-0.009999983 -0.070638172 -0.0049065459 0
-0.0099999961 -0.070578121 -0.0014682686 0
-0.010000007 -0.070413031 0.0018155631 0
-0.010000017 -0.070448108 0.0043858564 0
-0.010000028 -0.070370808 0.0074045346 0
-0.0097943256 -0.070269838 0.0096446089 0
-0.0073041683 -0.070659913 -0.0099997688 0
-0.007496071 -0.07061027 0.010000229 0
-0.0043081208 -0.070685484 -0.0099997604 0
-0.0045342958 -0.070484959 0.010000237 0
-0.0016711159 -0.070269495 -0.009999752 0
-0.0013768944 -0.070803121 0.010000253 0
0.0013539733 -0.070383951 -0.0099997399 0
0.0015280256 -0.070056669 0.010000259 0
0.0045181587 -0.070328876 -0.0099997297 0
0.0044002049 -0.070300974 0.010000269 0
0.0074002561 -0.070498161 -0.0099997194 0
0.0076074437 -0.07072676 0.010000283 0
0.0096931579 -0.070841722 -0.009899471 0
0.010000029 -0.070189707 -0.0076719536 0
0.010000015 -0.070287138 -0.0040704086 0
0.010000007 -0.0705861 -0.0014374889 0
0.0099999979 -0.070408277 0.0011564253 0
0.0099999839 -0.070564419 0.0046952707 0
0.0099999737 -0.070525706 0.0074600489 0
0.0097480202 -0.070549771 0.0097885337 0
-0.009724156 -0.0674536 -0.009716915 0
-0.0099999728 -0.067493752 -0.0076907552 0
-0.0099999839 -0.067348786 -0.0045744888 0
-0.0099999914 -0.067644365 -0.0017927052 0
-0.010000004 -0.067664489 0.0013754301 0
-0.010000016 -0.067825332 0.0044831755 0
-0.010000025 -0.067620136 0.0072643715 0
-0.0096998382 -0.067463957 0.0097875642 0
-0.0076693506 -0.06760139 -0.0099997846 0
-0.0072834492 -0.06740123 0.010000219 0
-0.0047790739 -0.067380719 -0.0099997744 0
-0.0047188173 -0.06746912 0.010000227 0
-0.0015831299 -0.06719479 -0.0099997632 0
-0.0017657694 -0.067816973 0.01000024 0
0.0014516748 -0.067582868 -0.0099997493 0
0.001690599 -0.067478769 0.010000251 0
0.0045982008 -0.067437544 -0.0099997399 0
0.0045045847 -0.067583136 0.010000262 0
0.0075077116 -0.067500107 -0.0099997288 0
0.0076761176 -0.067497827 0.010000273 0
0.0096852882 -0.067699745 -0.0097442362 0
0.010000029 -0.067863062 -0.0075552664 0
0.010000016 -0.067516603 -0.0043756166 0
0.010000007 -0.067742519 -0.0014943244 0
0.0099999942 -0.067505322 0.0015207331 0
0.0099999849 -0.067566663 0.0044127768 0
0.0099999728 -0.067410648 0.0078547122 0
0.0098220371 -0.067797273 0.0097668357 0
-0.009708452 -0.064704292 -0.009750043 0
-0.0099999709 -0.064430162 -0.0075598639 0
-0.0099999849 -0.064099267 -0.0042578387 0
-0.0099999942 -0.064445786 -0.0015585319 0
-0.010000007 -0.06463939 0.0016842351 0
-0.010000017 -0.064614452 0.0045944848 0
-0.010000026 -0.064325616 0.0071775788 0
-0.0096090315 -0.064561628 0.0097369645 0
-0.0076720505 -0.064737692 -0.009999794 0
-0.0075208759 -0.064740956 0.010000208 0
-0.0047959639 -0.064656734 -0.0099997856 0
-0.0044777817 -0.064396545 0.010000218 0
-0.0015332861 -0.064669602 -0.0099997725 0
-0.0018142533 -0.064494021 0.010000229 0
0.0015763943 -0.064627595 -0.0099997614 0
0.0016050078 -0.064503506 0.01000024 0
0.0043928307 -0.064464703 -0.0099997502 0
0.0044972338 -0.064866118 0.010000252 0
0.0076328036 -0.064327903 -0.0099997399 0
0.0077258078 -0.064764664 0.010000263 0
0.0098064626 -0.064694852 -0.0097549288 0
0.010000027 -0.064428791 -0.0072896616 0
0.010000016 -0.064761914 -0.0043603987 0
0.010000007 -0.064714395 -0.001594702 0
0.0099999951 -0.064519651 0.0015784235 0
0.0099999839 -0.064523898 0.0046430882 0
0.0099999718 -0.064306907 0.0079277698 0
0.0097442446 -0.064820729 0.0098438049 0
-0.0096575283 -0.061616149 -0.009808952 0
-0.0099999718 -0.061680138 -0.0076179877 0
-0.009999983 -0.061475549 -0.0045016427 0
-0.0099999942 -0.061375394 -0.0015701635 0
-0.010000006 -0.061310839 0.0015259646 0
-0.010000015 -0.061831493 0.0041706082 0
-0.010000027 -0.061380409 0.007422504 0
-0.0097094085 -0.06141416 0.009691787 0
-0.007359928 -0.061488912 -0.0099998061 0
-0.0075981566 -0.061392218 0.010000193 0
-0.0046007396 -0.061535567 -0.009999794 0
-0.0045960755 -0.061712299 0.010000207 0
-0.0015481579 -0.061428394 -0.0099997846 0
-0.0014805594 -0.061720923 0.010000217 0
0.0016330431 -0.061477587 -0.0099997735 0
0.0014252173 -0.061638657 0.010000231 0
0.0042771343 -0.061710488 -0.0099997623 0
0.0046438845 -0.061299473 0.010000239 0
0.0072996463 -0.061597634 -0.009999753 0
0.007644224 -0.061441977 0.010000251 0
0.0097825332 -0.061579123 -0.0097478954 0
0.010000031 -0.061479792 -0.0079922611 0
0.010000017 -0.061683919 -0.0045949542 0
0.010000006 -0.061336931 -0.0015187822 0
0.0099999951 -0.061470237 0.0014883605 0
0.0099999849 -0.061510578 0.0046716528 0
0.0099999728 -0.061298266 0.0074157347 0
0.0095897261 -0.061694875 0.0098972702 0
-0.0096979719 -0.05852516 -0.00974291 0
-0.0099999756 -0.058488663 -0.0071972157 0
-0.009999983 -0.058543477 -0.0046213986 0
-0.0099999942 -0.058517963 -0.0015613966 0
-0.010000006 -0.058471113 0.0016708111 0
-0.010000018 -0.058701526 0.0045657647 0
-0.010000028 -0.058221001 0.0073859538 0
-0.009685426 -0.058611475 0.0097709876 0
-0.0074114716 -0.05868442 -0.0099998154 0
-0.00778908 -0.05866424 0.010000185 0
-0.0042975578 -0.058437198 -0.0099998061 0
-0.0044409684 -0.058386967 0.010000197 0
-0.0016363345 -0.05836935 -0.009999793 0
-0.0013920648 -0.058663931 0.010000208 0
0.0010744145 -0.058344752 -0.0099997856 0
0.0014205737 -0.058270708 0.010000218 0
0.0045317924 -0.058321547 -0.0099997725 0
0.0045541273 -0.058422968 0.010000227 0
0.007639247 -0.058776196 -0.0099997604 0
0.007906259 -0.058335893 0.010000242 0
0.0095399749 -0.058353566 -0.0098266266 0
0.010000028 -0.05809309 -0.007681604 0
0.010000017 -0.058040924 -0.0048992005 0
0.010000007 -0.058672015 -0.0017652155 0
0.0099999942 -0.058574025 0.001759988 0
0.0099999849 -0.05839416 0.0044924389 0
0.0099999728 -0.058518331 0.0075791576 0
0.0096485745 -0.058571182 0.0098131588 0
-0.0095975585 -0.055234764 -0.0098628365 0
-0.0099999746 -0.055338915 -0.0070861089 0
-0.009999983 -0.055703294 -0.0045068301 0
-0.0099999951 -0.055088501 -0.0015300828 0
-0.010000006 -0.055473499 0.0016668385 0
-0.010000017 -0.055720296 0.0042649065 0
-0.010000026 -0.055765036 0.0072374819 0
-0.0096556284 -0.055393927 0.0097712176 0
-0.0074147861 -0.055585943 -0.0099998266 0
-0.0074547622 -0.055357367 0.010000174 0
-0.0043962169 -0.055344496 -0.0099998172 0
-0.004526021 -0.055857081 0.010000186 0
-0.001424537 -0.055460963 -0.0099998061 0
-0.0012399176 -0.055763002 0.010000197 0
0.0012628256 -0.055710353 -0.0099997949 0
0.0015044512 -0.05571539 0.010000209 0
0.0047070975 -0.055761449 -0.0099997818 0
0.004263537 -0.055306755 0.010000218 0
0.007362538 -0.055597175 -0.0099997716 0
0.007450467 -0.055598266 0.01000023 0
0.0097009102 -0.055586681 -0.009775483 0
0.010000028 -0.055455681 -0.0077559734 0
0.010000017 -0.055536166 -0.0044013802 0
0.010000005 -0.055540983 -0.0011942401 0
0.0099999961 -0.055522889 0.0013916007 0
0.0099999858 -0.055430949 0.0043390635 0
0.0099999718 -0.055467092 0.0076978114 0
0.0097358767 -0.055571795 0.0097207529 0
-0.0097897621 -0.052125432 -0.0096902363 0
-0.0099999756 -0.052495014 -0.007304891 0
-0.0099999858 -0.052661762 -0.0043480908 0
-0.0099999951 -0.052198224 -0.0018101125 0
-0.010000006 -0.052395657 0.0012833823 0
-0.010000018 -0.052362267 0.0045933239 0
-0.010000029 -0.052650861 0.0075561553 0
-0.0096470704 -0.052537303 0.0098239342 0
-0.0081153885 -0.05264698 -0.0099998396 0
-0.0074535762 -0.052288514 0.010000164 0
-0.0046422472 -0.052622613 -0.0099998275 0
-0.0046215942 -0.052467421 0.010000174 0
-0.0014820152 -0.052487623 -0.0099998163 0
-0.0015524313 -0.052574422 0.010000186 0
0.0018021347 -0.052517105 -0.0099998042 0
0.0012434655 -0.052634783 0.010000196 0
0.0042459494 -0.052413993 -0.0099997949 0
0.004559123 -0.052466225 0.010000207 0
0.007419189 -0.052426953 -0.0099997837 0
0.0074226246 -0.052355893 0.010000218 0
0.0097778654 -0.052173734 -0.0097618662 0
0.010000027 -0.05283564 -0.007353026 0
0.010000017 -0.052799962 -0.0045341756 0
0.010000006 -0.052433465 -0.0012602507 0
0.0099999951 -0.052814879 0.001630595 0
0.0099999839 -0.052436728 0.0042968085 0
0.0099999737 -0.052384451 0.0075715999 0
0.0096822707 -0.052447226 0.0096308989 0
-0.0096430434 -0.049662016 -0.0099232253 0
-0.0099999746 -0.049976062 -0.0072273775 0
-0.009999983 -0.049537532 -0.0046945428 0
-0.0099999961 -0.049472254 -0.0013330072 0
-0.010000005 -0.049429722 0.0014488089 0
-0.010000017 -0.049781084 0.004404834 0
-0.010000029 -0.04938364 0.0075954939 0
-0.0097027645 -0.049500171 0.009807921 0
-0.0074623646 -0.049689557 -0.0099998489 0
-0.0075380472 -0.049684629 0.010000153 0
-0.0043595042 -0.049421716 -0.0099998368 0
-0.0046550524 -0.049598482 0.010000164 0
-0.0015686118 -0.049218975 -0.0099998284 0
-0.0014865997 -0.049238879 0.010000174 0
0.0012047944 -0.049046583 -0.0099998191 0
0.0015118507 -0.04954531 0.010000187 0
0.0045815441 -0.04960699 -0.0099998042 0
0.0046000276 -0.049562644 0.010000197 0
0.0075834799 -0.049385957 -0.0099997949 0
0.0075294692 -0.049776033 0.010000208 0
0.0097498503 -0.049592894 -0.0097212642 0
0.010000028 -0.049208917 -0.0073000765 0
0.010000015 -0.049438231 -0.0044815056 0
0.010000004 -0.049180675 -0.0012932455 0
0.0099999942 -0.049603928 0.0017471511 0
0.009999983 -0.049464077 0.004543941 0
0.0099999746 -0.049391557 0.0075189667 0
0.0094975475 -0.049925357 0.0098917596 0
-0.009720413 -0.046345409 -0.0096699698 0
-0.0099999737 -0.046496466 -0.0074278843 0
-0.0099999839 -0.046456218 -0.0045580477 0
-0.0099999961 -0.046429697 -0.0014270924 0
-0.010000008 -0.046620969 0.0018268258 0
-0.010000017 -0.046772484 0.0045699342 0
-0.010000027 -0.046160109 0.0075654653 0
-0.009919594 -0.046473105 0.0095391702 0
-0.0072226198 -0.046607729 -0.0099998582 0
-0.0073435181 -0.046605352 0.010000141 0
-0.0046521956 -0.046296339 -0.0099998508 0
-0.004719804 -0.046383511 0.010000152 0
-0.0015684605 -0.046479899 -0.0099998368 0
-0.0014894123 -0.046367615 0.010000163 0
0.0016729818 -0.046438385 -0.0099998266 0
0.0016545735 -0.046420768 0.010000174 0
0.0046797041 -0.046527155 -0.0099998154 0
0.0043100948 -0.046411902 0.010000184 0
0.0074470551 -0.046633888 -0.0099998042 0
0.0074415039 -0.046441134 0.010000196 0
0.0097557027 -0.046286471 -0.0097713415 0
0.010000028 -0.046535041 -0.007355276 0
0.010000017 -0.046605594 -0.0046194717 0
0.010000006 -0.046476234 -0.0014566504 0
0.0099999933 -0.046746999 0.0016870803 0
0.0099999858 -0.046569325 0.0043620327 0
0.0099999756 -0.046762362 0.0073059192 0
0.0097667137 -0.046927549 0.0097617721 0
-0.0098895691 -0.04328806 -0.0097313942 0
-0.0099999746 -0.043607056 -0.0075375978 0
-0.0099999849 -0.043549478 -0.0044127661 0
-0.0099999961 -0.043980949 -0.0015450859 0
-0.010000006 -0.043598972 0.0014806603 0
-0.010000015 -0.043723553 0.0041953516 0
-0.010000026 -0.043575943 0.0073267003 0
-0.0098336721 -0.043190695 0.0097751645 0
-0.0073314891 -0.043436214 -0.0099998694 0
-0.00723961 -0.043444809 0.010000133 0
-0.0045846617 -0.04379632 -0.0099998601 0
-0.0047160285 -0.043434244 0.010000142 0
-0.001414531 -0.043160666 -0.0099998489 0
-0.0013746603 -0.043817662 0.010000155 0
0.0014003372 -0.043690387 -0.0099998387 0
0.001390844 -0.043572597 0.010000162 0
0.0045941938 -0.043477964 -0.0099998266 0
0.0045941398 -0.043365918 0.010000176 0
0.0074386559 -0.043626402 -0.0099998126 0
0.007399078 -0.04347894 0.010000186 0
0.0098033845 -0.043451138 -0.0097862883 0
0.010000029 -0.04356106 -0.0075825909 0
0.010000017 -0.043419968 -0.0045757103 0
0.010000006 -0.043547448 -0.0015607877 0
0.009999997 -0.043631427 0.0013256822 0
0.0099999839 -0.043231055 0.0046381913 0
0.0099999728 -0.0439138 0.0072542345 0
0.0097704055 -0.04340091 0.0096769696 0
-0.009824235 -0.040711965 -0.0096360622 0
-0.0099999737 -0.040186375 -0.0073331129 0
-0.009999983 -0.040451452 -0.0050323624 0
-0.009999997 -0.040658567 -0.001198052 0
-0.010000004 -0.040438008 0.0013558543 0
-0.010000017 -0.040700525 0.0044600181 0
-0.01000003 -0.040555704 0.0077395691 0
-0.0097473115 -0.040597104 0.009865908 0
-0.0073573589 -0.040176705 -0.0099998824 0
-0.0071266843 -0.040636234 0.010000122 0
-0.0047013853 -0.040379643 -0.0099998703 0
-0.0046788231 -0.040292859 0.010000129 0
-0.0015499903 -0.040680859 -0.0099998582 0
-0.0017348136 -0.04039897 0.01000014 0
0.0015171454 -0.040144276 -0.0099998508 0
0.0011013661 -0.040442556 0.010000151 0
0.0049013654 -0.040619656 -0.0099998359 0
0.0047168168 -0.040541731 0.010000163 0
0.007545372 -0.040497757 -0.0099998275 0
0.0078819757 -0.040725268 0.010000177 0
0.0097807255 -0.040555362 -0.0097018834 0
0.01000003 -0.040539246 -0.0075936136 0
0.010000018 -0.040164892 -0.0047257687 0
0.010000007 -0.040239546 -0.0014375122 0
0.0099999923 -0.040703107 0.0018079196 0
0.0099999849 -0.040343668 0.0044652442 0
0.0099999737 -0.040323216 0.0075616194 0
0.0098016197 -0.040897239 0.0097832913 0
-0.0096835233 -0.038049143 -0.0097395154 0
-0.0099999746 -0.037378538 -0.0074783233 0
-0.0099999858 -0.037675567 -0.0043513291 0
-0.0099999951 -0.037774567 -0.0013097101 0
-0.010000008 -0.037573691 0.0014312317 0
-0.010000017 -0.0375809 0.0045434223 0
-0.010000028 -0.037367553 0.007562418 0
-0.0098699871 -0.037584186 0.0096816551 0
-0.0075271809 -0.037416562 -0.0099998936 0
-0.007775146 -0.037354484 0.010000109 0
-0.0044128117 -0.037342455 -0.0099998815 0
-0.0046290783 -0.037517507 0.010000119 0
-0.0017355111 -0.03750769 -0.0099998722 0
-0.0016160584 -0.037227985 0.010000131 0
0.0014535773 -0.037506834 -0.0099998601 0
0.0013574824 -0.037343211 0.010000139 0
0.0047064936 -0.037524968 -0.0099998461 0
0.0045048203 -0.037498817 0.010000154 0
0.0078832842 -0.037563991 -0.0099998359 0
0.0079304883 -0.037635054 0.010000166 0
0.0096454276 -0.037558198 -0.0098334141 0
0.010000029 -0.037515942 -0.007343079 0
0.010000017 -0.037539992 -0.0042005791 0
0.010000006 -0.037514858 -0.0015815434 0
0.0099999923 -0.037269268 0.0015709174 0
0.0099999839 -0.03760875 0.0046150438 0
0.0099999718 -0.037491918 0.0074641723 0
0.0097249132 -0.037560381 0.0097620087 0
-0.0097878296 -0.034369905 -0.009686647 0
-0.0099999746 -0.034357786 -0.0075414544 0
-0.0099999839 -0.034516539 -0.0045619551 0
-0.0099999942 -0.034445848 -0.0017479314 0
-0.010000007 -0.034674026 0.0015952359 0
-0.010000017 -0.034679215 0.0044351546 0
-0.01000003 -0.034406226 0.0076249042 0
-0.009731194 -0.034725592 0.0098642306 0
-0.00706936 -0.034686729 -0.0099999001 0
-0.0074065514 -0.034817874 0.010000098 0
-0.0045225103 -0.034596026 -0.0099998936 0
-0.0046512065 -0.034402229 0.01000011 0
-0.0015553097 -0.034424916 -0.0099998824 0
-0.0014641228 -0.034625445 0.010000122 0
0.0014164335 -0.034390211 -0.0099998694 0
0.001381173 -0.034756593 0.010000131 0
0.0045789471 -0.034599546 -0.0099998582 0
0.0047784057 -0.034402344 0.010000143 0
0.0074896067 -0.034544591 -0.0099998489 0
0.0074122534 -0.034446262 0.010000153 0
0.0098277088 -0.034681462 -0.0097677605 0
0.010000028 -0.034467757 -0.0073645413 0
0.010000017 -0.034272611 -0.0046421508 0
0.010000006 -0.034273688 -0.0011718789 0
0.0099999951 -0.034379825 0.0015050693 0
0.0099999849 -0.034503359 0.0046397154 0
0.0099999737 -0.034295257 0.0072547393 0
0.0097711422 -0.034337573 0.0098149143 0
-0.0098187756 -0.031877667 -0.00967131 0
-0.0099999718 -0.031284921 -0.0077743046 0
-0.0099999858 -0.031459354 -0.004457586 0
-0.0099999951 -0.03137999 -0.0016309144 0
-0.010000005 -0.031081427 0.0012441362 0
-0.010000017 -0.031307649 0.0043751127 0
-0.010000029 -0.031422485 0.0075559998 0
-0.0098418649 -0.031392403 0.0096943798 0
-0.0075286669 -0.031358328 -0.0099999122 0
-0.0071935006 -0.031487372 0.010000088 0
-0.0044025583 -0.031328954 -0.0099999039 0
-0.0044059856 -0.031312935 0.010000098 0
-0.0011441219 -0.031482857 -0.0099998908 0
-0.001258566 -0.031336389 0.010000109 0
0.0014882202 -0.031437829 -0.0099998815 0
0.0015673569 -0.031257957 0.01000012 0
0.0046438198 -0.03159352 -0.0099998675 0
0.0045175836 -0.031368241 0.010000131 0
0.007669203 -0.031550448 -0.0099998591 0
0.0073571922 -0.031378906 0.010000142 0
0.009799771 -0.03158338 -0.0097628199 0
0.010000029 -0.031471409 -0.0075472039 0
0.010000017 -0.031435661 -0.0047342665 0
0.010000006 -0.031512629 -0.0014139574 0
0.0099999961 -0.031405605 0.0013819295 0
0.0099999849 -0.031523801 0.0042518536 0
0.0099999756 -0.031448524 0.0073311711 0
0.0096901273 -0.031605206 0.0099741807 0
-0.0096723391 -0.028008103 -0.0098600453 0
-0.0099999737 -0.028605727 -0.0076507274 0
-0.009999983 -0.028678896 -0.0045438614 0
-0.0099999933 -0.028451219 -0.0015266233 0
-0.010000007 -0.028405914 0.0014722401 0
-0.010000016 -0.028451143 0.0044020615 0
-0.010000029 -0.02852633 0.0074863262 0
-0.0097803436 -0.028286461 0.0096898768 0
-0.0074496563 -0.028571665 -0.0099999234 0
-0.0072613847 -0.028243506 0.010000077 0
-0.0045503383 -0.028751984 -0.0099999132 0
-0.0047773873 -0.028345216 0.010000085 0
-0.0016067352 -0.028196421 -0.0099999048 0
-0.0016112523 -0.02847454 0.010000097 0
0.0015697083 -0.028903043 -0.0099998908 0
0.0012386768 -0.028519869 0.010000109 0
0.0046452535 -0.028192485 -0.0099998806 0
0.0042985058 -0.02843195 0.01000012 0
0.0077869049 -0.028583089 -0.0099998694 0
0.0077829557 -0.028527699 0.010000131 0
0.0098283226 -0.028676745 -0.0096539799 0
0.010000026 -0.028273884 -0.0075881849 0
0.010000017 -0.028379599 -0.0045099151 0
0.010000005 -0.028680336 -0.0015258136 0
0.0099999933 -0.028316947 0.0014613472 0
0.0099999849 -0.028430874 0.0046922672 0
0.0099999737 -0.028404035 0.0075622699 0
0.0097714234 -0.028720014 0.0097745061 0
-0.00990305 -0.02530982 -0.0097314874 0
-0.0099999737 -0.025316084 -0.0076824129 0
-0.0099999849 -0.025546804 -0.0042465557 0
-0.0099999961 -0.025421236 -0.0013606674 0
-0.010000006 -0.025566645 0.00153399 0
-0.010000017 -0.025671137 0.0044376035 0
-0.01000003 -0.025281984 0.0076526902 0
-0.0097369738 -0.025510989 0.0098978477 0
-0.0077053332 -0.025127241 -0.0099999364 0
-0.007777534 -0.025695665 0.010000066 0
-0.0046823542 -0.02559082 -0.0099999262 0
-0.0047001336 -0.02556036 0.010000076 0
-0.0013575898 -0.025365874 -0.0099999132 0
-0.0014210534 -0.025457637 0.010000087 0
0.0017388198 -0.025023172 -0.0099999029 0
0.0017169518 -0.025493313 0.010000099 0
0.0042215926 -0.025526881 -0.0099998936 0
0.0044892328 -0.025412874 0.010000109 0
0.0074325413 -0.025441295 -0.0099998778 0
0.0074515874 -0.025498323 0.010000121 0
0.0097948993 -0.025711607 -0.0097173434 0
0.010000028 -0.025878003 -0.0074571948 0
0.010000017 -0.025360962 -0.0045167711 0
0.010000006 -0.025490945 -0.0016054111 0
0.0099999951 -0.025463073 0.0015994078 0
0.0099999858 -0.02582188 0.0044867573 0
0.0099999756 -0.025380025 0.007174551 0
0.0097205341 -0.025533054 0.0097744828 0
-0.0096943034 -0.022475099 -0.0097830286 0
-0.0099999728 -0.022605669 -0.0074234586 0
-0.0099999849 -0.022637064 -0.004507578 0
-0.0099999951 -0.022675807 -0.0018263652 0
-0.010000004 -0.022577185 0.0012592959 0
-0.010000017 -0.022611875 0.0044684447 0
-0.01000003 -0.022811199 0.0076776086 0
-0.0095735444 -0.022535924 0.0097319065 0
-0.0074305148 -0.021925151 -0.0099999467 0
-0.0072053652 -0.0225491 0.010000056 0
-0.0043504443 -0.022691607 -0.0099999355 0
-0.0043840958 -0.022732364 0.010000068 0
