# .PCD v0.7 - Point Cloud Data file format
VERSION 0.7
FIELDS x y z rgb
SIZE 4 4 4 4
TYPE F F F F
COUNT 1 1 1 1
WIDTH 1170
HEIGHT 1
VIEWPOINT 0 0 0 1 0 0 0
POINTS 1170
DATA ascii
-0.001421319 -0.21136722 0.0049649728 0
0.0012877459 -0.21135856 -0.0049992297 0
0.0014279883 -0.21179037 0.0049364916 0
0.0045440434 -0.21130621 -0.0044805412 0
0.0050000055 -0.21152507 -0.0014517185 0
0.0049999948 -0.2112619 0.001241832 0
0.0043215309 -0.21165495 0.0046824897 0
-0.0044086776 -0.20876671 -0.0044042072 0
-0.0049999948 -0.20855324 -0.0016551416 0
-0.0050000041 -0.20815526 0.0011102917 0
-0.00452663 -0.20856191 0.0044634468 0
-0.0011184902 -0.20798939 -0.0049992506 0
-0.0011544424 -0.20813015 0.0049622934 0
0.001546477 -0.2082191 -0.0049992409 0
0.0015211974 -0.20849542 0.0049355491 0
0.004807156 -0.20834462 -0.0041823937 0
0.0050000041 -0.20880629 -0.0013078807 0
0.0049999938 -0.20846203 0.0015846366 0
0.0043914299 -0.20858228 0.0043781139 0
-0.0047139772 -0.20573415 -0.0042403927 0
-0.0049999962 -0.20561242 -0.0011789361 0
-0.0050000041 -0.20578189 0.0011854175 0
-0.0045631966 -0.20545046 0.004309848 0
-0.0017262571 -0.20534864 -0.0049992632 0
-0.0014050705 -0.20558555 0.0049647898 0
0.0015421151 -0.20560102 -0.0049992511 0
0.0014180929 -0.20538233 0.004936567 0
0.0044230823 -0.20559952 -0.0046254271 0
0.0050000059 -0.20554918 -0.0017336331 0
0.0049999948 -0.20545377 0.0014252017 0
0.004854307 -0.20550272 0.0041371533 0
-0.0043706801 -0.20239383 -0.0046771322 0
-0.0049999943 -0.20258752 -0.001721541 0
-0.0050000064 -0.20257428 0.0015331566 0
-0.0044877022 -0.20266657 0.0046169716 0
-0.0013813862 -0.20272963 -0.0049992721 0
-0.0011704665 -0.20236745 0.0049624331 0
0.0017850647 -0.20238888 -0.0049992613 0
0.0016474457 -0.20279747 0.0049342657 0
0.0043846131 -0.2028361 -0.004409601 0
0.0050000055 -0.20237513 -0.0012575386 0
0.0049999934 -0.20242018 0.0017686161 0
0.0042913263 -0.20242718 0.0045305747 0
-0.0045296284 -0.19923621 -0.0043791644 0
-0.0049999962 -0.19918998 -0.0011904227 0
-0.0050000045 -0.19949602 0.0012953745 0
-0.0042788158 -0.1995759 0.0046071461 0
-0.0013448221 -0.19967729 -0.0049992828 0
-0.0013625943 -0.1992487 0.0049643423 0
0.0016310186 -0.19931403 -0.0049992721 0
0.0015025849 -0.19968352 0.0049357018 0
0.0045907525 -0.19948767 -0.0043973983 0
0.0050000031 -0.19968835 -0.0010483048 0
0.0049999957 -0.1994839 0.0011504735 0
0.0042790091 -0.19915003 0.0046175825 0
-0.0047672214 -0.19630805 -0.0042166887 0
-0.0049999952 -0.19638884 -0.0015810414 0
-0.0050000064 -0.1966453 0.001545249 0
-0.0044633481 -0.19645146 0.0046606148 0
-0.0014489053 -0.19685726 -0.004999293 0
-0.0015520662 -0.19643344 0.0049662264 0
0.0013524499 -0.1968168 -0.0049992823 0
0.0014160424 -0.19647048 0.0049365554 0
0.0045235152 -0.19623724 -0.0044268509 0
0.0050000055 -0.19669561 -0.0015537364 0
0.0049999957 -0.19635606 0.0013743708 0
0.004399532 -0.1964117 0.0044490444 0
-0.0043892656 -0.19325511 -0.0045960448 0
-0.0049999948 -0.19338927 -0.0014849484 0
-0.005000005 -0.19350092 0.0013234596 0
-0.0044089518 -0.19365685 0.0045531089 0
-0.0014082778 -0.19335629 -0.0049993061 0
-0.0019337593 -0.19346692 0.0049700313 0
0.0015467764 -0.19340906 -0.0049992949 0
0.0015166689 -0.19342224 0.0049355393 0
0.0044521438 -0.19363713 -0.0045136013 0
0.0050000055 -0.19358325 -0.0014593656 0
0.0049999957 -0.19331776 0.0012468681 0
0.004358388 -0.19356942 0.0046575335 0
-0.0045245648 -0.19059378 -0.0043637548 0
-0.0049999934 -0.19063874 -0.0018193471 0
-0.0050000055 -0.1904107 0.0015542915 0
-0.0044914205 -0.19050609 0.0045705959 0
-0.0014789844 -0.19026302 -0.0049993172 0
-0.0014540441 -0.19045408 0.0049652252 0
0.00086210546 -0.1906974 -0.0049993065 0
0.0012772527 -0.1906697 0.0049379221 0
0.0043802182 -0.19036876 -0.0047476413 0
0.005000005 -0.19052371 -0.0013775475 0
0.0049999943 -0.19036907 0.0017983613 0
0.0044931653 -0.19041088 0.0044878884 0
-0.0044118953 -0.18747291 -0.0044039288 0
-0.0049999948 -0.18716253 -0.0014203456 0
-0.0050000055 -0.18704543 0.0014223291 0
-0.0046455939 -0.18755676 0.0044594957 0
-0.001319426 -0.18755147 -0.0049993251 0
-0.0016991963 -0.18732338 0.0049676634 0
0.0011476941 -0.18742046 -0.0049993172 0
0.001656878 -0.18758112 0.0049341163 0
0.0046096505 -0.18748136 -0.0045547178 0
0.0050000041 -0.18761209 -0.0012261419 0
0.0049999948 -0.18762453 0.0015858762 0
0.0045675044 -0.18748184 0.0043184604 0
-0.0044501619 -0.18471362 -0.0046588737 0
-0.0049999938 -0.18468012 -0.0016231071 0
-0.0050000069 -0.18471608 0.0016557575 0
-0.0046818876 -0.18444391 0.0045102867 0
-0.0018470872 -0.18456715 -0.0049993382 0
-0.0016240848 -0.1845205 0.0049669021 0
0.001650297 -0.18448371 -0.0049993256 0
0.0013889543 -0.18463412 0.0049367845 0
0.0045220023 -0.18466437 -0.0047175698 0
0.0050000055 -0.18464525 -0.0013444544 0
0.0049999957 -0.18446292 0.0013274067 0
0.004488281 -0.18445688 0.0045737904 0
-0.0045470218 -0.18165468 -0.0043722484 0
-0.0049999966 -0.18112791 -0.0010180833 0
-0.0050000069 -0.18115261 0.001787056 0
-0.0045040278 -0.1817632 0.0044869226 0
-0.0015322329 -0.18162528 -0.0049993484 0
-0.0018404061 -0.18126361 0.0049690534 0
0.0014926761 -0.18152903 -0.0049993373 0
0.0015026007 -0.1813509 0.0049356357 0
0.0041059409 -0.18107633 -0.0047102575 0
0.0050000059 -0.18169507 -0.0016663362 0
0.0049999952 -0.18171531 0.0014438956 0
0.0042037843 -0.18157056 0.0045111659 0
-0.004595513 -0.17848489 -0.0043678121 0
-0.0049999952 -0.17823401 -0.0012914231 0
-0.0050000055 -0.1781002 0.0015211278 0
-0.0044618179 -0.17860934 0.0045843883 0
-0.0014940907 -0.17846437 -0.0049993591 0
-0.0013165277 -0.17865755 0.0049638078 0
0.0013924087 -0.17858621 -0.0049993489 0
0.0015748561 -0.17841439 0.0049349032 0
0.0047358931 -0.17833358 -0.0042336727 0
0.0050000059 -0.17857467 -0.0015180671 0
0.0049999948 -0.17887382 0.0016375723 0
0.0046087843 -0.17841691 0.004447795 0
-0.0047199964 -0.17578627 -0.0044126809 0
-0.0049999943 -0.17537832 -0.0013567882 0
-0.0050000045 -0.17544682 0.0013501964 0
-0.0042429897 -0.17553048 0.0045577688 0
-0.0015400278 -0.17530558 -0.0049993712 0
-0.0016914991 -0.17549486 0.0049675447 0
0.001529259 -0.17530109 -0.0049993596 0
0.0013810523 -0.17564495 0.0049368301 0
0.0045761946 -0.17584273 -0.0044688 0
0.0050000064 -0.17554718 -0.001740901 0
0.0049999943 -0.17587495 0.0017551079 0
0.0046775932 -0.17482024 0.0045534126 0
-0.0045557204 -0.17227843 -0.0045917183 0
-0.0049999948 -0.17264821 -0.0013980699 0
-0.005000005 -0.17201503 0.001412978 0
-0.0044894083 -0.17246208 0.0044852719 0
-0.0018308178 -0.17253108 -0.0049993829 0
-0.0014535935 -0.17230374 0.004965154 0
0.0012992715 -0.17230004 -0.0049993722 0
0.00155545 -0.17242444 0.0049350755 0
0.0047284043 -0.17239316 -0.0043507898 0
0.0050000041 -0.17240837 -0.0012447381 0
0.0049999948 -0.17256328 0.0014334489 0
0.0046291002 -0.17259015 0.0043064184 0
-0.0045219031 -0.16949254 -0.004481052 0
-0.0049999957 -0.16962551 -0.0014426118 0
-0.0050000069 -0.16913456 0.0017767817 0
-0.0044605793 -0.1689603 0.0042536119 0
-0.0015432474 -0.16972663 -0.0049993908 0
-0.0013237965 -0.16922323 0.0049638464 0
0.001572247 -0.16940719 -0.004999382 0
0.0013030984 -0.16955408 0.0049375873 0
0.0044562612 -0.16956294 -0.0044347029 0
0.0050000045 -0.16925117 -0.0012543891 0
0.0049999938 -0.16904883 0.0016138807 0
0.0044402843 -0.16936116 0.004340142 0
-0.004506377 -0.16629446 -0.0046162764 0
-0.0049999952 -0.16681153 -0.0015339537 0
-0.0050000055 -0.1663965 0.0013107477 0
-0.0044407281 -0.16612953 0.0045148195 0
-0.0010410472 -0.16661374 -0.004999401 0
-0.0017880239 -0.16654229 0.004968476 0
0.0011559943 -0.16647297 -0.0049993931 0
0.0013802029 -0.16643281 0.0049368055 0
0.004332596 -0.16650696 -0.0044659507 0
0.0050000055 -0.16679826 -0.0014274578 0
0.0049999952 -0.16668224 0.0012458265 0
0.0044390941 -0.16704164 0.0046599908 0
-0.0042948988 -0.16307791 -0.0045281355 0
-0.0049999943 -0.1636796 -0.0016118801 0
-0.0050000064 -0.1637013 0.0016092531 0
-0.0045442255 -0.16360806 0.0043627894 0
-0.0015834911 -0.16373087 -0.0049994136 0
-0.001495975 -0.16358095 0.0049655461 0
0.0019936725 -0.16374235 -0.0049994001 0
0.0016796662 -0.16327308 0.004933801 0
0.004547745 -0.16369866 -0.0044194236 0
0.0050000055 -0.16348666 -0.0016461881 0
0.0049999957 -0.16358069 0.0013594717 0
0.0045449967 -0.16343389 0.0044753999 0
-0.0042767981 -0.16065438 -0.0046944981 0
-0.0049999948 -0.16032551 -0.0014491666 0
-0.0050000059 -0.16065164 0.0013597178 0
-0.0046235952 -0.16062939 0.0043003573 0
-0.0012181196 -0.16052562 -0.0049994234 0
-0.0016142402 -0.16077362 0.0049667186 0
0.00145767 -0.16052911 -0.0049994141 0
0.001348565 -0.16064535 0.0049371007 0
0.0045245285 -0.16073132 -0.0043925042 0
0.0050000064 -0.16070031 -0.0017979208 0
0.0049999952 -0.1605324 0.0015105814 0
0.0045224763 -0.16035856 0.0044532726 0
-0.0045987582 -0.15737244 -0.0044735679 0
-0.0049999938 -0.15702499 -0.0016903427 0
-0.0050000036 -0.15728989 0.0010883597 0
-0.0043809107 -0.15744504 0.0045689144 0
-0.0015547351 -0.15734592 -0.0049994369 0
-0.0016944796 -0.15724768 0.0049675079 0
0.0016382092 -0.15770169 -0.0049994229 0
0.0017896723 -0.15742782 0.0049326792 0
0.0043112645 -0.15750186 -0.0048674606 0
0.0050000069 -0.15770476 -0.0018728129 0
0.0049999952 -0.15751146 0.0014732507 0
0.0045209713 -0.15752429 0.0043599443 0
-0.0045975917 -0.15480751 -0.0044221971 0
-0.0049999943 -0.15422812 -0.0018601944 0
-0.0050000073 -0.15442879 0.0018730393 0
-0.004273782 -0.15457468 0.0047506941 0
-0.0014954292 -0.15438403 -0.0049994467 0
-0.0014809496 -0.15475731 0.0049653635 0
0.0015906673 -0.15468304 -0.0049994346 0
0.0017434447 -0.15452012 0.0049331309 0
0.0042255581 -0.15440249 -0.0044719358 0
0.0050000059 -0.15463319 -0.0015660296 0
0.0049999957 -0.15466782 0.0014555124 0
0.0043654288 -0.15430026 0.0044928058 0
-0.0046662972 -0.15150946 -0.0042980555 0
-0.0049999948 -0.1512142 -0.0013421912 0
-0.0050000073 -0.15143421 0.0017627325 0
-0.0046720272 -0.15152594 0.0045048497 0
-0.0018725732 -0.15138252 -0.0049994588 0
-0.0017305866 -0.15150104 0.0049678483 0
0.0012327839 -0.15131159 -0.0049994481 0
0.001262144 -0.15157759 0.004937931 0
0.0045684474 -0.15136024 -0.0043828017 0
0.005000005 -0.15147404 -0.001320514 0
0.0049999952 -0.15146874 0.0013767795 0
0.0048659067 -0.15180595 0.0043646256 0
-0.0046792682 -0.14863658 -0.0044468078 0
-0.0049999948 -0.14824016 -0.0014860104 0
-0.005000005 -0.14853051 0.0014197803 0
-0.0047129323 -0.14865884 0.0044812104 0
-0.0015096747 -0.14870803 -0.0049994676 0
-0.0017831695 -0.1485247 0.0049683633 0
0.0018721638 -0.14842495 -0.0049994555 0
0.0015717089 -0.14881359 0.0049348269 0
0.0045404523 -0.14841133 -0.0045545939 0
0.005000005 -0.14856505 -0.0012400917 0
0.0049999934 -0.14786701 0.0017594175 0
0.0043751756 -0.14879677 0.00445328 0
-0.0045389133 -0.14570242 -0.0044541927 0
-0.0049999948 -0.14544231 -0.0015850477 0
-0.0050000073 -0.14520893 0.0017559486 0
-0.004350319 -0.14543869 0.0046837805 0
-0.0013771344 -0.14560889 -0.0049994779 0
-0.0018014383 -0.14539553 0.0049685333 0
0.0017170239 -0.14540038 -0.0049994686 0
0.0016462475 -0.14556985 0.0049340706 0
0.0047471384 -0.14552206 -0.0043219742 0
0.0050000069 -0.14547953 -0.0019724891 0
0.0049999952 -0.14528786 0.0015087962 0
0.0045765205 -0.1456569 0.00427185 0
-0.0045532258 -0.14267233 -0.0045099361 0
-0.0049999966 -0.14264828 -0.001152417 0
-0.0050000064 -0.14259574 0.0015120095 0
-0.0045630098 -0.14262523 0.0044821687 0
-0.0015822037 -0.14244384 -0.00499949 0
-0.0017250043 -0.14285345 0.0049677608 0
0.0015978421 -0.1423007 -0.0049994793 0
0.0019811569 -0.14256866 0.0049307114 0
0.0044907504 -0.14211874 -0.0044679102 0
0.0050000036 -0.14259011 -0.0011158374 0
0.0049999948 -0.14260419 0.0015969169 0
0.0046745976 -0.14242652 0.0042953347 0
-0.0044439044 -0.13961545 -0.0044952445 0
-0.0049999948 -0.13957703 -0.0014819357 0
-0.0050000055 -0.13954166 0.0016634008 0
-0.0046187933 -0.13942154 0.0043786014 0
-0.0013649041 -0.13935357 -0.0049995012 0
-0.0013177693 -0.13940026 0.0049636774 0
0.0014720649 -0.13923942 -0.0049994914 0
0.0014341276 -0.13948654 0.0049361684 0
0.0045093177 -0.13973762 -0.0044156737 0
0.0050000064 -0.13979188 -0.0016414187 0
0.0049999952 -0.13946357 0.0013082899 0
0.0047856518 -0.13952571 0.0041666823 0
-0.004515464 -0.13640915 -0.0045013689 0
-0.0049999948 -0.13651259 -0.0014609209 0
-0.0050000041 -0.13625869 0.0012545072 0
-0.0044824732 -0.1366559 0.0046173055 0
-0.0016348105 -0.13672405 -0.0049995114 0
-0.0018294654 -0.13610134 0.004968781 0
0.0015672122 -0.13645568 -0.0049995012 0
0.0015911225 -0.13608953 0.0049345866 0
0.0043812636 -0.13661702 -0.0046189209 0
0.0050000059 -0.13647169 -0.0014912246 0
0.0049999943 -0.13675576 0.0016771702 0
0.0045290366 -0.13678551 0.0044250926 0
-0.0045965021 -0.13335626 -0.0044387863 0
-0.0049999938 -0.13355431 -0.0016871187 0
-0.0050000073 -0.13334911 0.0017794456 0
-0.004304071 -0.13358799 0.0046998882 0
-0.0018521874 -0.13366434 -0.0049995221 0
-0.0013271382 -0.1333122 0.0049637491 0
0.0015826134 -0.13333039 -0.0049995123 0
0.0014492281 -0.13329527 0.0049359952 0
0.0045329588 -0.13345177 -0.004552939 0
0.0050000055 -0.13377699 -0.0017065351 0
0.0049999952 -0.13342828 0.0015884213 0
0.0046278983 -0.13342576 0.0042755008 0
-0.0044726417 -0.13048203 -0.004476212 0
-0.0049999938 -0.13041952 -0.001515782 0
-0.0050000041 -0.13061976 0.0011797898 0
-0.0046197334 -0.13040309 0.004490491 0
-0.0013594142 -0.13038272 -0.0049995328 0
-0.0016428408 -0.13064849 0.0049668951 0
0.0018069289 -0.13009369 -0.0049995226 0
0.0011126291 -0.13056597 0.0049393508 0
0.0045920354 -0.13055603 -0.0043081641 0
0.0050000045 -0.1303934 -0.0011583468 0
0.0049999962 -0.13064873 0.0010321791 0
0.0044605448 -0.13047563 0.0044771158 0
-0.0045760721 -0.12720498 -0.004372404 0
-0.0049999962 -0.12739883 -0.0012885019 0
-0.0050000055 -0.12757 0.0015333146 0
-0.0044941679 -0.12757073 0.0044667204 0
-0.0015945594 -0.12739219 -0.0049995449 0
-0.0013227578 -0.12764941 0.0049636848 0
0.0017031139 -0.12724708 -0.0049995333 0
0.0015016615 -0.12730077 0.0049354499 0
0.0044321199 -0.12768058 -0.0046661827 0
0.0050000055 -0.1270442 -0.0014504604 0
0.0049999948 -0.12724988 0.001440007 0
0.0045969901 -0.1271657 0.0045179306 0
-0.0045178491 -0.12468064 -0.0045542321 0
-0.0049999957 -0.12426431 -0.001311762 0
-0.0050000064 -0.12449119 0.0017513536 0
-0.0046014972 -0.12491769 0.0042854687 0
-0.0015804465 -0.12442145 -0.0049995556 0
-0.0012006471 -0.12413526 0.0049624518 0
0.0010496423 -0.12477244 -0.0049995449 0
0.001364199 -0.12417488 0.0049368129 0
0.0045196447 -0.12465075 -0.0044074375 0
0.0050000055 -0.12463024 -0.0014581818 0
0.0049999934 -0.12433098 0.0017469624 0
0.0044200406 -0.12433522 0.0044180793 0
-0.0095628621 -0.12000003 -0.0097058918 0
-0.0095846085 -0.12 -0.0013825911 0
-0.0096727926 -0.11999999 0.0014106205 0
-0.0092507582 -0.11999997 0.0085000871 0
-0.0078784395 -0.12000003 -0.0092098592 0
-0.0077784145 -0.12000003 -0.0075175082 0
-0.0076539242 -0.12000001 -0.0043657525 0
-0.0073318584 -0.12 -0.0010413462 0
-0.0076720463 -0.11999999 0.001582006 0
-0.0067978431 -0.11999998 0.0044882512 0
-0.0072962698 -0.11999997 0.0076825856 0
-0.0077647283 -0.11999996 0.0095999306 0
-0.0038178561 -0.12000003 -0.0077664633 0
-0.0045110555 -0.12147799 -0.0046261908 0
-0.0049999952 -0.1214066 -0.0013856661 0
-0.0050547789 -0.12146072 0.0013845373 0
-0.0046306336 -0.12151457 0.0043949331 0
-0.003964487 -0.11999997 0.0078188907 0
-0.0051865783 -0.11999996 0.009473335 0
-0.0022666433 -0.12000003 -0.0098599587 0
-0.0011836829 -0.12000003 -0.0075490209 0
-0.0016668868 -0.12133393 -0.0050214557 0
-0.0016226907 -0.1213559 0.0049666595 0
-0.0016489865 -0.11999997 0.0077178711 0
0.0021076538 -0.12000003 -0.0091032479 0
0.001778952 -0.12000003 -0.0072947401 0
0.0014499279 -0.12135866 -0.0049995561 0
0.0014270195 -0.12133873 0.0050053415 0
0.0014397736 -0.11999997 0.0079022544 0
0.0012308682 -0.11999996 0.0095372768 0
0.0059882961 -0.12000003 -0.0097494489 0
0.0042525497 -0.12000003 -0.0073143616 0
0.0044925837 -0.12085392 -0.0045403354 0
0.0050233644 -0.12122484 -0.001442541 0
0.0050632469 -0.12153551 0.0012342371 0
0.0044262032 -0.12144247 0.0044558193 0
0.004969079 -0.11999997 0.0079232296 0
0.0046706526 -0.11999996 0.0093366578 0
0.007175446 -0.12000003 -0.0093963761 0
0.0083066905 -0.12000003 -0.0074025355 0
0.0067789843 -0.12000003 -0.0043538143 0
0.0071361493 -0.12 -0.0006232814 0
0.008073952 -0.11999999 0.001141517 0
0.0076302672 -0.11999997 0.0052190186 0
0.0069024535 -0.11999997 0.0076634004 0
0.0094803087 -0.12000003 -0.0096614491 0
0.009298671 -0.12000002 -0.0062214076 0
0.0092468001 -0.12000001 -0.0041078688 0
0.009125594 -0.11999998 0.0041770441 0
0.0090793017 -0.11999997 0.0075495634 0
-0.0096164849 -0.11906096 -0.0097862845 0
-0.009876525 -0.11914367 -0.0073911981 0
-0.0099274991 -0.11826322 -0.0042439662 0
-0.0098971007 -0.11881892 -0.0014601877 0
-0.0098370519 -0.11921119 0.001727023 0
-0.0099588046 -0.11875591 0.0044672033 0
-0.0099278521 -0.11846017 0.0072915894 0
-0.0097741345 -0.11853557 0.0097013768 0
-0.0074407253 -0.11861391 -0.0098684113 0
-0.0075205816 -0.12000002 -0.0077602831 0
-0.0076311184 -0.12000001 -0.0046244254 0
-0.0073170131 -0.12 -0.0016355951 0
-0.007759681 -0.11999999 0.0017967995 0
-0.0076526813 -0.11999998 0.0043955608 0
-0.0077258418 -0.11999997 0.0073052957 0
-0.007487474 -0.11903555 0.0098468084 0
-0.0044719232 -0.11886236 -0.009899212 0
-0.0045003328 -0.12000003 -0.0072236271 0
-0.0050330609 -0.12000001 -0.0046156924 0
-0.005440644 -0.12 -0.0016160163 0
-0.0055194153 -0.11999999 0.0020997056 0
-0.0043537421 -0.11999997 0.00551472 0
-0.004388087 -0.11999997 0.0070929206 0
-0.0046839565 -0.11856962 0.0099488478 0
-0.0015196465 -0.11851459 -0.0099158045 0
-0.0016742602 -0.12000002 -0.0078649065 0
-0.0015902879 -0.12000001 -0.0053162151 0
-0.0015983551 -0.11999997 0.0053800638 0
-0.0017467587 -0.11999997 0.0071854899 0
-0.0016476134 -0.11853624 0.0099016167 0
0.0018027182 -0.11876164 -0.0099037094 0
0.001897767 -0.12000003 -0.0075022457 0
0.001355765 -0.12000002 -0.005444176 0
0.00051830476 -0.11999997 0.0055830767 0
0.0010496137 -0.11999996 0.0075864415 0
0.0013125669 -0.11897735 0.0099443598 0
0.0044870335 -0.11881072 -0.0099240355 0
0.0049987035 -0.12000002 -0.0080129392 0
0.0045449352 -0.12000002 -0.005344545 0
0.0054833805 -0.12 -0.0013827549 0
0.0057055573 -0.11999999 0.0018922266 0
0.0052897255 -0.11999998 0.00415684 0
0.0047917729 -0.11999997 0.0078276275 0
0.0049004005 -0.11853603 0.0099298283 0
0.0075058481 -0.11878674 -0.0099254837 0
0.0077333245 -0.12000003 -0.0074755158 0
0.0073647597 -0.12 -0.0042632562 0
0.0070647569 -0.12 -0.0019840351 0
0.0074422956 -0.11999999 0.0015472546 0
0.0078234868 -0.11999998 0.0040326435 0
0.0075999415 -0.11999997 0.0072994484 0
0.0074802903 -0.11902853 0.0098068584 0
0.0097398665 -0.11831114 -0.0097190645 0
0.0099327136 -0.1188644 -0.0073456601 0
0.0097752241 -0.11860217 -0.0047914074 0
0.0099095395 -0.11890895 -0.0010118405 0
0.0099008139 -0.11878479 0.0013026559 0
0.0098895682 -0.11886015 0.0047341087 0
0.0098858997 -0.11883143 0.0076571605 0
0.0097617609 -0.11832513 0.0095946705 0
-0.0099294493 -0.11555512 -0.009756186 0
-0.0099999718 -0.11546951 -0.0077785649 0
-0.0099999849 -0.11559477 -0.0046963762 0
-0.0099999951 -0.11516318 -0.0010331363 0
-0.010000006 -0.11565949 0.0018902989 0
-0.010000018 -0.11520778 0.0049710111 0
-0.010000027 -0.115205 0.0076596108 0
-0.0098486841 -0.11560001 0.0095865289 0
-0.0074849562 -0.11549374 -0.0099996105 0
-0.0077788006 -0.11498132 0.010000388 0
-0.0047270269 -0.11542892 -0.0099995984 0
-0.0043491288 -0.11532734 0.010000402 0
-0.0013211494 -0.11553711 -0.0099995872 0
-0.0012265178 -0.11564191 0.010000415 0
0.0012919075 -0.11557791 -0.009999576 0
0.0014682226 -0.11554283 0.010000425 0
0.0042999675 -0.11531065 -0.0099995658 0
0.00453278 -0.11536847 0.010000436 0
0.0073752124 -0.11519687 -0.0099995574 0
0.0075934608 -0.11544903 0.010000447 0
0.0097634355 -0.11564365 -0.0098351603 0
0.010000027 -0.11585801 -0.0072021694 0
0.010000016 -0.11550888 -0.0042815525 0
0.010000006 -0.11547698 -0.0013166679 0
0.0099999961 -0.11524116 0.0013400761 0
0.0099999821 -0.11551888 0.0048541641 0
0.0099999718 -0.11561193 0.0077838325 0
0.00975479 -0.11595773 0.0096734213 0
-0.0099262511 -0.11246908 -0.0096003097 0
-0.0099999737 -0.11237732 -0.0071661668 0
-0.0099999849 -0.11229329 -0.0045967731 0
-0.0099999923 -0.11264253 -0.0016831876 0
-0.010000006 -0.11245855 0.0015369081 0
-0.010000018 -0.11278844 0.0045687854 0
-0.010000028 -0.11244972 0.0076063108 0
-0.0098155253 -0.11219458 0.0096971756 0
-0.0074165082 -0.11234923 -0.0099996217 0
-0.0075047822 -0.11250796 0.01000038 0
-0.0042259074 -0.11251036 -0.0099996077 0
-0.0047214106 -0.11259821 0.010000391 0
-0.0015235619 -0.11236095 -0.0099995993 0
-0.0017024882 -0.11233956 0.0100004 0
0.0019749065 -0.1122766 -0.0099995863 0
0.0015584629 -0.11225748 0.01000041 0
0.0044427291 -0.11286738 -0.0099995751 0
0.0045643542 -0.11263941 0.010000424 0
0.0076816776 -0.1123274 -0.0099995667 0
0.0074752136 -0.11268716 0.010000436 0
0.0099172192 -0.11261459 -0.0096368464 0
0.010000026 -0.11221646 -0.0074060652 0
0.010000017 -0.11271784 -0.0044577504 0
0.010000007 -0.11238218 -0.0015879726 0
0.0099999933 -0.11230797 0.0017470078 0
0.0099999839 -0.11225901 0.0046456563 0
0.0099999718 -0.11293729 0.0076745851 0
0.0098423325 -0.1125256 0.0097401682 0
-0.0097321235 -0.10936211 -0.0097746365 0
-0.0099999728 -0.10917593 -0.0072445231 0
-0.009999983 -0.10967655 -0.004272074 0
-0.0099999951 -0.10947315 -0.0017314085 0
-0.010000004 -0.1098665 0.0011038625 0
-0.010000017 -0.10942029 0.0043881014 0
-0.010000027 -0.1093506 0.0074429135 0
-0.0097484188 -0.10963783 0.0097563472 0
-0.0077350461 -0.10957085 -0.009999631 0
-0.0073753647 -0.10960671 0.01000037 0
-0.0044009443 -0.10957992 -0.0099996207 0
-0.0044002444 -0.10951037 0.010000383 0
-0.0015929667 -0.10916813 -0.0099996105 0
-0.0014288822 -0.10957722 0.010000392 0
0.0013621543 -0.10954168 -0.0099995984 0
0.0014320812 -0.1097638 0.010000404 0
0.0043564127 -0.10935264 -0.00999959 0
0.0040847003 -0.10964878 0.01000041 0
0.0078590866 -0.10932824 -0.0099995751 0
0.0073556146 -0.10948782 0.010000424 0
0.0097729489 -0.10931218 -0.0098093618 0
0.010000028 -0.10919105 -0.0072944937 0
0.010000017 -0.1094285 -0.004627218 0
0.010000006 -0.10960466 -0.0014624505 0
0.0099999942 -0.10980285 0.0017396453 0
0.009999983 -0.10957325 0.0048220987 0
0.0099999728 -0.1095107 0.0074039698 0
0.009878221 -0.11007303 0.0096681304 0
-0.0098654274 -0.10638066 -0.0096900864 0
-0.0099999709 -0.10602499 -0.0077722808 0
-0.009999983 -0.10649239 -0.0044252556 0
-0.0099999951 -0.10613044 -0.0013182152 0
-0.010000005 -0.10625051 0.001342541 0
-0.010000016 -0.10669041 0.0046102279 0
-0.010000025 -0.10647742 0.007218861 0
-0.0097674578 -0.10685552 0.0097334161 0
-0.0077311662 -0.10652465 -0.0099996412 0
-0.0074607469 -0.10641665 0.010000358 0
-0.0044967239 -0.10653042 -0.00999963 0
-0.0042097392 -0.10658688 0.01000037 0
-0.0013903973 -0.10616095 -0.0099996207 0
-0.0016039263 -0.10649186 0.010000382 0
0.0016130098 -0.10652418 -0.0099996096 0
0.0012296289 -0.10663031 0.010000391 0
0.0040210453 -0.10673137 -0.0099995974 0
0.0043502357 -0.10631912 0.0100004 0
0.0077943457 -0.10668749 -0.0099995853 0
0.0075678816 -0.10669434 0.010000414 0
0.0097241346 -0.10702531 -0.0097748348 0
0.010000028 -0.10626525 -0.0075902734 0
0.010000016 -0.1063419 -0.004342848 0
0.010000007 -0.10662039 -0.001469926 0
0.0099999933 -0.10625906 0.0015327057 0
0.009999983 -0.10656899 0.0045221765 0
0.0099999728 -0.1062227 0.0075151399 0
0.009793967 -0.10641722 0.0097459238 0
-0.0097498503 -0.10339722 -0.0098655112 0
-0.0099999746 -0.10348648 -0.0072143637 0
-0.0099999839 -0.10307407 -0.0042462554 0
-0.0099999951 -0.10372278 -0.0015811987 0
-0.010000007 -0.10359073 0.0015919331 0
-0.010000017 -0.10351621 0.0046436768 0
-0.010000029 -0.10344147 0.0077565429 0
-0.009730218 -0.10362377 0.0096216723 0
-0.0074804914 -0.10359674 -0.0099996524 0
-0.0077247121 -0.10306691 0.010000345 0
-0.0047104042 -0.10317764 -0.0099996421 0
-0.004218122 -0.10343032 0.010000361 0
-0.0016341666 -0.10361852 -0.0099996319 0
-0.0013697521 -0.10345893 0.01000037 0
0.0014395702 -0.10356916 -0.0099996207 0
0.0015630987 -0.10355716 0.010000381 0
0.0042634443 -0.10352045 -0.0099996105 0
0.0043553151 -0.10352888 0.010000389 0
0.0075892769 -0.10379539 -0.0099995993 0
0.0076659108 -0.10365392 0.010000402 0
0.0098149106 -0.10401872 -0.0096623385 0
0.010000029 -0.10358516 -0.0074610203 0
0.010000017 -0.10348602 -0.0044022505 0
0.010000003 -0.10409493 -0.0010921097 0
0.0099999942 -0.10336734 0.0017161125 0
0.0099999849 -0.10332782 0.0040400745 0
0.0099999737 -0.10339025 0.0072709378 0
0.0097543802 -0.10354941 0.0096941385 0
-0.009792299 -0.10038882 -0.009816492 0
-0.0099999718 -0.10048801 -0.0079110833 0
-0.009999983 -0.10094945 -0.0046425033 0
-0.0099999951 -0.1005023 -0.0014540482 0
-0.010000006 -0.10055623 0.0015419966 0
-0.010000016 -0.10044683 0.0046393638 0
-0.010000029 -0.10056344 0.0077441176 0
-0.0097255399 -0.10043991 0.0097567784 0
-0.0076053273 -0.10031199 -0.0099996636 0
-0.0074039558 -0.10078179 0.010000339 0
-0.0046486766 -0.10036201 -0.0099996543 0
-0.0046414281 -0.10089345 0.010000349 0
-0.0014909764 -0.1004867 -0.0099996421 0
-0.0014084214 -0.10057604 0.01000036 0
0.0014282166 -0.10037205 -0.0099996328 0
0.0017636785 -0.10107596 0.010000371 0
0.0047893738 -0.10045237 -0.0099996207 0
0.0042233383 -0.10061263 0.010000381 0
0.0074117486 -0.1004952 -0.0099996105 0
0.0076226494 -0.10074575 0.010000394 0
0.0097343428 -0.10066845 -0.0098134447 0
0.010000027 -0.10061266 -0.0072963317 0
0.010000013 -0.10058243 -0.0036862444 0
0.010000008 -0.10031483 -0.0019220259 0
0.0099999942 -0.10042369 0.0017899896 0
0.0099999858 -0.10029835 0.0040918863 0
0.0099999737 -0.10034473 0.0076641692 0
0.0097959274 -0.10035142 0.0097282715 0
-0.0095075285 -0.098170012 -0.0099072065 0
-0.0099999728 -0.097467467 -0.0075220205 0
-0.0099999858 -0.09743882 -0.004329714 0
-0.0099999942 -0.097424857 -0.0011984565 0
-0.010000006 -0.097228423 0.0017348864 0
-0.010000017 -0.097221382 0.0045028273 0
-0.010000026 -0.097340159 0.0072885645 0
-0.0096801966 -0.097756311 0.0098374188 0
-0.0076014246 -0.097541764 -0.0099996766 0
-0.007481595 -0.097077146 0.010000324 0
-0.0043785633 -0.097356327 -0.0099996636 0
-0.0045688376 -0.097429141 0.010000335 0
-0.0014496371 -0.09742941 -0.0099996533 0
-0.0011347823 -0.097481757 0.010000349 0
0.0015911502 -0.097362921 -0.0099996431 0
0.0017826267 -0.097799696 0.01000036 0
0.0043440592 -0.097425327 -0.009999631 0
0.0048585166 -0.097455263 0.010000371 0
0.0074940673 -0.097914882 -0.009999617 0
0.0071461499 -0.097379521 0.010000381 0
0.0097845579 -0.097771034 -0.0097416807 0
0.010000028 -0.097917572 -0.0074400399 0
0.010000017 -0.097317398 -0.0047536893 0
0.010000005 -0.097100697 -0.0016106305 0
0.0099999951 -0.097553328 0.0015040474 0
0.0099999812 -0.097474881 0.0048075775 0
0.0099999737 -0.097312979 0.0076531512 0
0.0098765576 -0.097635776 0.0094841104 0
-0.0097581763 -0.094325997 -0.0097498316 0
-0.0099999746 -0.094492465 -0.0070872647 0
-0.0099999839 -0.094503261 -0.0046506296 0
-0.0099999942 -0.094483413 -0.0016625704 0
-0.010000004 -0.094691768 0.0013356271 0
-0.010000016 -0.094541274 0.0042423462 0
-0.010000028 -0.094725668 0.0075090956 0
-0.0096726101 -0.095142134 0.0097815972 0
-0.0076160212 -0.094515786 -0.0099996878 0
-0.007428525 -0.094590321 0.010000315 0
-0.0045938683 -0.094183445 -0.0099996757 0
-0.0047621909 -0.094671875 0.010000327 0
-0.0015007777 -0.094973803 -0.0099996617 0
-0.00163693 -0.094287351 0.010000337 0
0.0014452136 -0.094518609 -0.0099996533 0
0.001528144 -0.094541669 0.010000349 0
0.0048479978 -0.094331115 -0.0099996421 0
0.0045776274 -0.09456934 0.01000036 0
0.007472117 -0.094684474 -0.0099996319 0
0.0071980874 -0.094538972 0.010000369 0
0.0099152345 -0.094728231 -0.0095525663 0
0.010000027 -0.094548836 -0.0073739444 0
0.010000018 -0.094664961 -0.0045953272 0
0.010000004 -0.093986057 -0.0012487526 0
0.0099999942 -0.09454488 0.0018240581 0
0.0099999839 -0.094313957 0.0043585212 0
0.0099999746 -0.094395466 0.0073647327 0
0.0097308094 -0.094523512 0.0097737722 0
-0.0097289849 -0.09157414 -0.0098341489 0
-0.0099999709 -0.091643885 -0.0078511704 0
-0.0099999849 -0.091586716 -0.0043154014 0
-0.0099999951 -0.091663577 -0.0014464587 0
-0.010000008 -0.091589458 0.0017368996 0
-0.010000017 -0.091259971 0.0046177325 0
-0.010000029 -0.09146475 0.0077232332 0
-0.0096996753 -0.091954239 0.0097904624 0
-0.0073071234 -0.091355376 -0.0099996952 0
-0.0079094591 -0.091252446 0.010000302 0
-0.0049662697 -0.091513343 -0.0099996869 0
-0.0043087937 -0.091344655 0.010000315 0
-0.0014223345 -0.091107637 -0.0099996747 0
-0.0010750254 -0.091878489 0.010000329 0
0.0016589878 -0.091523536 -0.0099996626 0
0.0016517024 -0.091581449 0.010000338 0
0.0043905345 -0.091431931 -0.0099996533 0
0.0045708348 -0.091708012 0.01000035 0
0.0072591761 -0.091316849 -0.009999644 0
0.0070776381 -0.091297254 0.010000358 0
0.0096283359 -0.091806136 -0.0096682748 0
0.010000029 -0.091463655 -0.0075706346 0
0.010000018 -0.091426887 -0.0046553016 0
0.010000005 -0.091567606 -0.0014454357 0
0.0099999951 -0.091559023 0.0014795094 0
0.0099999839 -0.09143462 0.0045773271 0
0.0099999728 -0.091788739 0.007787725 0
0.0096461214 -0.091301806 0.0098339058 0
-0.0097854957 -0.088346392 -0.0098145381 0
-0.0099999737 -0.088582925 -0.0073754955 0
-0.0099999849 -0.088441715 -0.004612376 0
-0.0099999961 -0.088970207 -0.0012414452 0
-0.010000007 -0.08868406 0.0016315895 0
-0.010000017 -0.088550605 0.0044241371 0
-0.01000003 -0.08877223 0.0077740597 0
-0.0095913839 -0.088499159 0.0099376123 0
-0.007517728 -0.088158876 -0.0099997092 0
-0.007446995 -0.088600203 0.010000294 0
-0.0046792333 -0.088500254 -0.0099996962 0
-0.0047387001 -0.088409245 0.010000303 0
-0.0014968421 -0.088443331 -0.0099996869 0
-0.001309976 -0.088797234 0.010000315 0
0.001471821 -0.08857701 -0.0099996757 0
0.0020112016 -0.088467211 0.010000327 0
0.0045603062 -0.088822797 -0.0099996636 0
0.0045939325 -0.088457391 0.010000338 0
0.0076528033 -0.088525645 -0.0099996533 0
0.0074050771 -0.08886867 0.010000348 0
0.0097479681 -0.088729642 -0.0098268753 0
0.010000028 -0.088245928 -0.0073894602 0
0.010000017 -0.088401362 -0.0042791073 0
0.010000007 -0.088312015 -0.0016135109 0
0.0099999951 -0.088405259 0.00099769782 0
0.009999983 -0.088288225 0.0046266029 0
0.0099999709 -0.088890009 0.0077509885 0
0.0097424602 -0.088822968 0.0097556794 0
-0.0098667108 -0.085973419 -0.0097618308 0
-0.0099999718 -0.085364863 -0.0074585187 0
-0.0099999849 -0.085193045 -0.0044277823 0
-0.0099999933 -0.085309915 -0.0015885668 0
-0.010000005 -0.085791901 0.0016004002 0
-0.010000017 -0.08565744 0.004615461 0
-0.010000029 -0.085609026 0.0075996285 0
-0.0096213399 -0.08560776 0.0097860228 0
-0.0071935081 -0.085402466 -0.0099997176 0
-0.0077098687 -0.085312121 0.010000283 0
-0.0046138 -0.085721515 -0.0099997055 0
-0.0044352594 -0.085932657 0.010000296 0
-0.0014327222 -0.085732065 -0.0099996971 0
-0.001608951 -0.085495785 0.010000302 0
0.001543987 -0.085201927 -0.009999685 0
0.0013924154 -0.085574269 0.010000315 0
0.0045699454 -0.085350424 -0.0099996747 0
0.004648936 -0.085300244 0.010000326 0
0.0072146412 -0.085397057 -0.0099996664 0
0.0075299609 -0.085269243 0.010000337 0
0.0098338583 -0.084960222 -0.0096025281 0
0.010000027 -0.085792936 -0.0073366188 0
0.010000017 -0.08542303 -0.0044679646 0
0.010000007 -0.085547827 -0.0014562691 0
0.0099999951 -0.085780263 0.0014294998 0
0.0099999849 -0.085483193 0.0046526785 0
0.0099999728 -0.08513175 0.0074087647 0
0.0097409952 -0.085268363 0.0097030634 0
-0.0097082527 -0.082317345 -0.0098077571 0
-0.00999997 -0.08227355 -0.0078915423 0
-0.0099999839 -0.082431741 -0.0045524673 0
-0.009999997 -0.082539894 -0.0013615765 0
-0.010000004 -0.082184225 0.0013588364 0
-0.010000015 -0.082362093 0.0042440514 0
-0.010000028 -0.082524061 0.0074060168 0
-0.0097919535 -0.082256109 0.0097759133 0
-0.0070485943 -0.082706101 -0.009999725 0
-0.0075269099 -0.082665242 0.010000274 0
-0.0043263519 -0.082304507 -0.0099997176 0
-0.0047780522 -0.082458213 0.010000282 0
-0.0015876251 -0.082456797 -0.0099997073 0
-0.001094606 -0.082543723 0.010000295 0
0.0018176731 -0.082753472 -0.0099996934 0
0.0013937157 -0.082548209 0.010000304 0
0.0043188441 -0.082761362 -0.0099996841 0
0.0049022324 -0.082273498 0.010000315 0
0.0074737845 -0.082858317 -0.0099996738 0
0.0076845814 -0.082888216 0.010000327 0
0.0097548096 -0.082203686 -0.009678117 0
0.010000029 -0.082337566 -0.0079466784 0
0.010000017 -0.082640186 -0.0047140215 0
0.010000008 -0.082519531 -0.0016758066 0
0.0099999951 -0.082331389 0.0016545729 0
0.0099999858 -0.082485452 0.004288035 0
0.0099999718 -0.08267653 0.0075509003 0
0.0097569022 -0.082105972 0.0098342868 0
-0.0096566211 -0.07895235 -0.009753014 0
-0.0099999718 -0.079579651 -0.0077753002 0
-0.009999983 -0.079462036 -0.0050005359 0
-0.0099999961 -0.079629198 -0.0013492658 0
-0.010000004 -0.079490334 0.0010829481 0
-0.010000017 -0.079398237 0.0050720065 0
-0.010000028 -0.079835713 0.0072419676 0
-0.0098147318 -0.079604909 0.0096607292 0
-0.0072864364 -0.0796469 -0.0099997371 0
-0.0078144167 -0.07914409 0.010000258 0
-0.0045789871 -0.079651363 -0.0099997278 0
-0.0048378934 -0.079613589 0.010000271 0
-0.0018557553 -0.080001436 -0.0099997157 0
-0.0010493143 -0.079316057 0.010000283 0
0.001382654 -0.079232804 -0.0099997092 0
0.0013583219 -0.079676948 0.010000293 0
0.00459855 -0.079673089 -0.0099996952 0
0.00408684 -0.079456411 0.010000302 0
0.0075483201 -0.079895817 -0.0099996841 0
0.0074027199 -0.079190984 0.010000315 0
0.0098738279 -0.079405114 -0.0096258121 0
0.010000028 -0.079477556 -0.0077174893 0
0.010000017 -0.079375952 -0.0050940523 0
0.010000007 -0.079599313 -0.0014938132 0
0.009999997 -0.079554312 0.0011749512 0
0.0099999821 -0.079774283 0.0048225839 0
0.0099999728 -0.07950034 0.007806275 0
0.0097623011 -0.079734042 0.0097035971 0
-0.0096295541 -0.076317839 -0.0099909408 0
-0.0099999728 -0.076693662 -0.0073931976 0
-0.0099999849 -0.07665889 -0.0045335353 0
-0.0099999951 -0.076262109 -0.0014839931 0
-0.010000004 -0.076074176 0.0014420628 0
-0.010000016 -0.076296672 0.0041940054 0
-0.010000028 -0.076376446 0.0076949606 0
-0.0098424489 -0.076614618 0.0097830892 0
-0.0072916606 -0.076196365 -0.0099997502 0
-0.0075094094 -0.076499224 0.01000025 0
-0.0046289805 -0.076604322 -0.0099997409 0
-0.0048335078 -0.076473758 0.010000258 0
-0.0013747467 -0.076372281 -0.0099997288 0
-0.0016911014 -0.076437294 0.010000271 0
0.0013358457 -0.076736644 -0.0099997194 0
0.0014582833 -0.076688692 0.010000285 0
0.0043658498 -0.076190822 -0.0099997092 0
0.0045025456 -0.076602086 0.010000293 0
0.0073167561 -0.076522268 -0.0099996971 0
0.0072512547 -0.07617417 0.010000303 0
0.009789167 -0.076768108 -0.0098510142 0
0.010000027 -0.076270051 -0.0072594746 0
0.010000017 -0.076565839 -0.0043426906 0
0.010000007 -0.076706618 -0.0017066073 0
0.0099999942 -0.076542951 0.0014779714 0
0.009999983 -0.076695777 0.0046601924 0
0.0099999728 -0.076171175 0.0078256968 0
0.0098032886 -0.07654053 0.0098291133 0
-0.0096342852 -0.07346417 -0.0098753609 0
-0.0099999728 -0.073568568 -0.0074648978 0
-0.009999983 -0.073542915 -0.0046373839 0
-0.0099999942 -0.073637359 -0.0017997421 0
-0.010000005 -0.073522717 0.0015054741 0
-0.010000017 -0.073737063 0.0045558149 0
-0.010000028 -0.073437721 0.0074516535 0
-0.0098113092 -0.073448353 0.0096329115 0
-0.0076034842 -0.073265612 -0.0099997623 0
-0.007087504 -0.073684305 0.010000239 0
-0.0042865318 -0.073659211 -0.0099997502 0
-0.0046730791 -0.073332593 0.010000248 0
-0.00127777 -0.073165298 -0.0099997399 0
-0.0013640698 -0.073121026 0.010000259 0
0.0010930595 -0.07365717 -0.0099997306 0
0.0013282682 -0.073667966 0.010000273 0
0.0045877341 -0.073677003 -0.0099997167 0
0.0041652345 -0.073347144 0.010000281 0
0.0073584202 -0.073415853 -0.0099997092 0
0.0073608425 -0.073511541 0.010000293 0
0.009543417 -0.073541872 -0.0098146172 0
0.010000029 -0.073293738 -0.007468224 0
0.010000018 -0.073650829 -0.0048691295 0
0.010000004 -0.073745176 -0.0013570735 0
0.0099999933 -0.074006222 0.0016890242 0
0.0099999839 -0.073113605 0.0048570251 0
0.0099999728 -0.073133245 0.007091281 0
0.0097977147 -0.073378533 0.009576343 0
-0.0096945483 -0.07025937 -0.0096701393 0
-0.0099999728 -0.070360899 -0.0075189024 0
-0.009999983 -0.070681728 -0.0048230472 0
-0.0099999951 -0.070682384 -0.0015109663 0
-0.010000004 -0.070362404 0.0012829691 0
-0.010000018 -0.070506498 0.0047730426 0
-0.010000028 -0.070115916 0.0072407047 0
-0.0095896134 -0.070085704 0.0099334568 0
-0.0074597518 -0.0705176 -0.0099997735 0
-0.0074704043 -0.070796579 0.01000023 0
-0.0045392062 -0.070515767 -0.0099997623 0
-0.0046041515 -0.070594445 0.010000238 0
-0.0016115496 -0.071033746 -0.0099997483 0
-0.0014638309 -0.070783593 0.01000025 0
0.0015917408 -0.070617668 -0.009999739 0
0.0015573179 -0.070328169 0.010000259 0
0.004636114 -0.070681594 -0.0099997288 0
0.0046688486 -0.070316575 0.010000273 0
0.0075455471 -0.070255585 -0.0099997185 0
0.0078505613 -0.070404902 0.010000285 0
0.0097597223 -0.070409089 -0.0097108521 0
0.010000026 -0.070427872 -0.0075383792 0
0.010000015 -0.070587181 -0.0044237156 0
0.010000005 -0.070390597 -0.001443094 0
0.0099999961 -0.070383087 0.0011399511 0
0.0099999858 -0.070294604 0.0044746934 0
0.0099999737 -0.070717186 0.0074544642 0
0.0096838027 -0.070571862 0.0098267272 0
-0.0096773822 -0.067618698 -0.0097535774 0
-0.0099999718 -0.067320928 -0.0077281962 0
-0.0099999839 -0.067413814 -0.0045856917 0
-0.0099999961 -0.067806512 -0.0016266663 0
-0.010000006 -0.067820989 0.0017422209 0
-0.010000017 -0.06732776 0.0044372086 0
-0.010000027 -0.067511119 0.007482992 0
-0.0096095819 -0.067580305 0.0098267114 0
-0.007791847 -0.067531779 -0.0099997846 0
-0.0073609413 -0.067468226 0.010000219 0
-0.0039915079 -0.067474708 -0.0099997716 0
-0.0047609992 -0.067543931 0.010000228 0
-0.0016895325 -0.067731351 -0.0099997623 0
-0.0016233925 -0.067880884 0.010000241 0
0.0013621219 -0.067559324 -0.009999752 0
0.0015078196 -0.06767153 0.010000249 0
0.0044202954 -0.067088641 -0.0099997399 0
0.0046164659 -0.067495815 0.010000261 0
0.0080167782 -0.067498632 -0.0099997269 0
0.0078085279 -0.067689516 0.010000275 0
0.0097744502 -0.067608789 -0.0097398842 0
0.010000026 -0.067675516 -0.0074467757 0
0.010000017 -0.067346774 -0.0043604737 0
0.010000006 -0.067406662 -0.0013314969 0
0.009999997 -0.067550965 0.0010867178 0
0.0099999839 -0.067457639 0.0046737404 0
0.0099999737 -0.067390949 0.007338204 0
0.009612686 -0.067559168 0.0097537823 0
-0.0096394252 -0.064384803 -0.0098306714 0
-0.0099999737 -0.06436345 -0.0076852543 0
-0.0099999849 -0.064477131 -0.0043243496 0
-0.0099999951 -0.064015724 -0.0013069826 0
-0.010000006 -0.064957306 0.0015578257 0
-0.010000014 -0.064421579 0.0040475796 0
-0.010000025 -0.064706124 0.0068635619 0
-0.0095063448 -0.06494014 0.0098805577 0
-0.007344441 -0.064460859 -0.0099997949 0
-0.0075449338 -0.064413965 0.010000206 0
-0.0045170872 -0.064673126 -0.0099997828 0
-0.0045307213 -0.064491197 0.010000218 0
-0.0015200279 -0.064292699 -0.0099997744 0
-0.0018628653 -0.064390756 0.010000228 0
0.0015111736 -0.064755671 -0.0099997595 0
0.0014662587 -0.06459067 0.010000239 0
0.0045419643 -0.064618558 -0.0099997502 0
0.0041244184 -0.064165488 0.010000246 0
0.0072093355 -0.064535566 -0.0099997418 0
0.0075255339 -0.064637803 0.010000261 0
0.0097817117 -0.064741701 -0.0095961513 0
0.010000029 -0.064734288 -0.0074231764 0
0.010000017 -0.06427373 -0.0049437787 0
0.010000004 -0.064411074 -0.0014413494 0
0.0099999942 -0.064643003 0.0016343558 0
0.0099999867 -0.064338073 0.0042051892 0
0.0099999718 -0.064383715 0.0077171992 0
0.0095264781 -0.065190636 0.0098850057 0
-0.0097347936 -0.062212233 -0.0096851373 0
-0.0099999718 -0.061746202 -0.0076223053 0
-0.009999983 -0.061672449 -0.0045237076 0
-0.0099999961 -0.061489847 -0.0014176549 0
-0.010000004 -0.061263919 0.0015195712 0
-0.010000017 -0.06150296 0.0044721263 0
-0.010000026 -0.061359499 0.0073085316 0
-0.0096770255 -0.061472997 0.0097231679 0
-0.0073903683 -0.061158959 -0.0099998061 0
-0.0076925606 -0.061434705 0.010000195 0
-0.0050430805 -0.061635599 -0.009999794 0
-0.0045264252 -0.061644137 0.010000207 0
-0.0016232198 -0.06138939 -0.0099997837 0
-0.0015022885 -0.061599482 0.010000218 0
0.0019419537 -0.061441399 -0.0099997707 0
0.0017798062 -0.061747365 0.010000229 0
0.004697104 -0.061523754 -0.0099997614 0
0.0046095257 -0.061245695 0.01000024 0
0.0073264115 -0.061417397 -0.009999752 0
0.0075672395 -0.061606143 0.01000025 0
0.0099262586 -0.061350141 -0.0095635056 0
0.010000026 -0.061345752 -0.0072238534 0
0.010000016 -0.06158663 -0.0047546118 0
0.010000004 -0.061823964 -0.0014558288 0
0.0099999942 -0.061525412 0.0017420033 0
0.0099999849 -0.061602969 0.0043890304 0
0.0099999746 -0.061628953 0.0072493576 0
0.0096208015 -0.061373997 0.0098693147 0
-0.0096544111 -0.058471717 -0.0097898617 0
-0.0099999746 -0.058521196 -0.0074510239 0
-0.009999983 -0.058475688 -0.0047744447 0
-0.0099999961 -0.058377884 -0.0013077583 0
-0.010000006 -0.058388345 0.0014888414 0
-0.010000018 -0.058545187 0.0045758775 0
-0.010000028 -0.058329005 0.007485142 0
-0.0096461736 -0.058291718 0.0097990958 0
-0.0072421599 -0.058181737 -0.0099998154 0
-0.0079067489 -0.058619071 0.010000184 0
-0.0056690918 -0.057897635 -0.0099998107 0
-0.004505225 -0.058414951 0.010000194 0
-0.001611897 -0.058371916 -0.009999794 0
-0.0013975736 -0.058663245 0.010000208 0
0.0016522679 -0.05873606 -0.0099997828 0
0.0015413016 -0.058172587 0.010000215 0
0.0044324533 -0.058629867 -0.0099997707 0
0.0045456043 -0.0586279 0.010000229 0
0.007622113 -0.058717765 -0.0099997604 0
0.0078764455 -0.05867926 0.010000242 0
0.0098078093 -0.058500443 -0.009657776 0
0.010000028 -0.058681216 -0.0076958034 0
0.010000014 -0.058430851 -0.0041734753 0
0.010000005 -0.058396515 -0.0013858682 0
0.0099999979 -0.058532514 0.0010359484 0
0.0099999839 -0.05839682 0.004526177 0
0.0099999728 -0.058880564 0.0078012478 0
0.0097380346 -0.058433689 0.0096398424 0
-0.0098269721 -0.055529002 -0.0097768186 0
-0.0099999709 -0.055179477 -0.0077215657 0
-0.0099999849 -0.055164579 -0.0046994477 0
-0.0099999951 -0.055650543 -0.0014443139 0
-0.010000006 -0.055462666 0.0015814613 0
-0.010000016 -0.055771265 0.0043186047 0
-0.010000029 -0.055459276 0.0074215401 0
-0.009747263 -0.055426706 0.0097367903 0
-0.0075746458 -0.055267371 -0.0099998284 0
-0.0074988394 -0.055353258 0.010000174 0
-0.0044954764 -0.055479288 -0.0099998144 0
-0.0047710687 -0.055866983 0.010000184 0
-0.0013351849 -0.055244733 -0.0099998042 0
-0.0015358558 -0.055614747 0.010000194 0
0.0015182273 -0.055374574 -0.0099997958 0
0.0015249666 -0.055433191 0.010000207 0
0.0046561845 -0.055698097 -0.0099997837 0
0.0040345173 -0.055395812 0.010000215 0
0.0074783522 -0.055410489 -0.0099997744 0
0.0074146376 -0.05549483 0.01000023 0
0.0097459201 -0.055397309 -0.0096899075 0
0.010000028 -0.055766929 -0.0075977133 0
0.010000017 -0.05529939 -0.0043507577 0
0.010000005 -0.055510677 -0.0014474657 0
0.0099999951 -0.055555604 0.0015005417 0
0.009999983 -0.055433329 0.0042663538 0
0.0099999737 -0.055598717 0.0074921357 0
0.0097582629 -0.055443835 0.0096244412 0
-0.0096885487 -0.052609771 -0.0097440397 0
-0.0099999737 -0.052615367 -0.0071800402 0
-0.0099999839 -0.052316122 -0.0043478287 0
-0.0099999951 -0.052542452 -0.0017409804 0
-0.010000007 -0.052569281 0.0018038149 0
-0.010000017 -0.052645259 0.0045717256 0
-0.010000029 -0.052488707 0.0077205631 0
-0.0096947206 -0.052632663 0.0098022129 0
-0.0078424988 -0.052572981 -0.0099998387 0
-0.0073747169 -0.052363306 0.010000163 0
-0.0041421135 -0.052408699 -0.0099998238 0
-0.0045096469 -0.052617989 0.010000174 0
-0.0015813735 -0.052396744 -0.0099998154 0
-0.0016821546 -0.052537449 0.010000184 0
0.0018028779 -0.052803196 -0.0099998023 0
0.0011278229 -0.05276357 0.010000195 0
0.0048963968 -0.052700587 -0.0099997921 0
0.0044725118 -0.052552857 0.010000207 0
0.0077429083 -0.052375596 -0.0099997828 0
0.0071977582 -0.05237015 0.010000217 0
0.0097961845 -0.052142963 -0.0096250987 0
0.010000031 -0.052356459 -0.007853495 0
0.010000017 -0.052354462 -0.004490857 0
0.010000006 -0.05253401 -0.0017515895 0
0.0099999933 -0.052588586 0.0019563108 0
0.0099999858 -0.052187353 0.0043592188 0
0.0099999728 -0.052520312 0.0075110197 0
0.0097768977 -0.052035924 0.0097125154 0
-0.0097115608 -0.049316384 -0.0098069655 0
-0.0099999737 -0.049419437 -0.0074409992 0
-0.0099999839 -0.049651641 -0.0043428787 0
-0.0099999951 -0.049426928 -0.0013909593 0
-0.010000004 -0.049502213 0.0013625782 0
-0.010000017 -0.049631801 0.0047166469 0
-0.01000003 -0.049435545 0.0077182315 0
-0.00974344 -0.049666874 0.0098289149 0
-0.0076560243 -0.049720112 -0.0099998498 0
-0.0073301503 -0.049625579 0.010000154 0
-0.0042808205 -0.049421638 -0.0099998368 0
-0.0045538051 -0.04952589 0.010000162 0
-0.0015168398 -0.049727201 -0.0099998266 0
-0.0015465462 -0.049310587 0.010000173 0
0.0015501616 -0.049739432 -0.0099998154 0
0.001547757 -0.049694918 0.010000185 0
0.004442553 -0.049223531 -0.0099998051 0
0.0043847049 -0.049650155 0.010000195 0
0.007301508 -0.04933954 -0.0099997958 0
0.0075766612 -0.049767744 0.010000208 0
0.0096616708 -0.049415164 -0.0097788097 0
0.010000027 -0.049610842 -0.0074574705 0
0.010000017 -0.049665473 -0.0044313697 0
0.010000006 -0.049288843 -0.0013970761 0
0.0099999951 -0.048900619 0.0010442868 0
0.009999983 -0.049722649 0.0045310161 0
0.0099999737 -0.049262177 0.007544117 0
0.0095342156 -0.049863927 0.0098322025 0
-0.0098682502 -0.046530779 -0.0096142897 0
-0.0099999756 -0.046633098 -0.0073111905 0
-0.0099999839 -0.046530835 -0.0048883348 0
-0.0099999961 -0.046493281 -0.0014382497 0
-0.010000003 -0.046560209 0.0011260407 0
-0.010000017 -0.046283461 0.0044077593 0
-0.010000029 -0.046346307 0.0075174468 0
-0.0098687299 -0.046666503 0.0095727369 0
-0.0075402455 -0.046506003 -0.0099998573 0
-0.007388195 -0.046551857 0.010000142 0
-0.0043045422 -0.046742849 -0.0099998461 0
-0.0050250455 -0.046405908 0.010000149 0
-0.0014337774 -0.046295047 -0.0099998377 0
-0.0015648578 -0.046412937 0.010000163 0
0.0019422868 -0.04641553 -0.0099998266 0
0.0015968467 -0.046414215 0.010000175 0
0.0045542517 -0.046542291 -0.0099998144 0
0.0039709033 -0.046433553 0.01000018 0
0.0072999089 -0.046590485 -0.009999807 0
0.007330507 -0.046346769 0.010000195 0
0.00981542 -0.046335302 -0.0097193588 0
0.010000026 -0.046277624 -0.0071293395 0
0.010000017 -0.046134997 -0.0046207709 0
0.010000006 -0.046587024 -0.0016233659 0
0.0099999933 -0.046263952 0.0017073103 0
0.0099999858 -0.046442065 0.0044663772 0
0.0099999746 -0.046714623 0.0074083242 0
0.0097612329 -0.046706628 0.0098399594 0
-0.0098384032 -0.043987904 -0.0096962554 0
-0.0099999746 -0.04344403 -0.0073248497 0
-0.0099999849 -0.043256678 -0.0046889768 0
-0.0099999933 -0.044049546 -0.0017544223 0
-0.010000007 -0.043446764 0.0014383636 0
-0.010000017 -0.043404993 0.0049094679 0
-0.010000028 -0.043283489 0.0074115926 0
-0.0098742321 -0.043425344 0.0096557317 0
-0.0074565979 -0.043273296 -0.0099998703 0
-0.0072480477 -0.043280181 0.01000013 0
-0.004719648 -0.043554042 -0.0099998591 0
-0.0050145881 -0.043578397 0.010000139 0
-0.001716035 -0.043211184 -0.0099998517 0
-0.0016690374 -0.043769944 0.010000153 0
0.0014149855 -0.043245938 -0.0099998396 0
0.0015114587 -0.043595623 0.010000163 0
0.004351519 -0.04371886 -0.0099998256 0
0.0048916922 -0.043128967 0.010000174 0
0.0074176043 -0.043398447 -0.0099998144 0
0.0075294254 -0.043622207 0.010000185 0
0.009618625 -0.04370027 -0.0098804617 0
0.010000027 -0.04349504 -0.0075414269 0
0.010000017 -0.043730784 -0.0044992785 0
0.010000006 -0.043349948 -0.0012937874 0
0.0099999933 -0.04392742 0.0014957931 0
0.009999983 -0.043432433 0.0047971378 0
0.0099999728 -0.043495607 0.0076103318 0
0.009750816 -0.043129217 0.009787281 0
-0.0097661531 -0.040914789 -0.0095810611 0
-0.0099999728 -0.04093153 -0.0074865655 0
-0.009999983 -0.04023014 -0.0047713891 0
-0.0099999951 -0.040221367 -0.0015671607 0
-0.010000004 -0.040310625 0.0013248122 0
