# .PCD v0.7 - Point Cloud Data file format
VERSION 0.7
FIELDS x y z rgb
SIZE 4 4 4 4
TYPE F F F F
COUNT 1 1 1 1
WIDTH 1200
HEIGHT 1
VIEWPOINT 0 0 0 1 0 0 0
POINTS 1200
DATA ascii
-0.010000071 -0.23560014 0.019552464 0
-0.010000079 -0.23570023 0.022478279 0
-0.010000089 -0.23560935 0.025529452 0
-0.010000103 -0.2352539 0.028269403 0
-0.010000116 -0.23521084 0.031714745 0
-0.010000123 -0.23554923 0.034302983 0
-0.010000133 -0.23573734 0.037360787 0
-0.010000149 -0.23538329 0.040718034 0
-0.010000157 -0.23521933 0.043419108 0
-0.01000017 -0.23560131 0.046513245 0
-0.0099446671 -0.23560329 0.049213775 0
-0.0073975129 -0.23543273 -0.049999159 0
-0.0074186223 -0.23533858 0.050000831 0
-0.0044652247 -0.23570359 -0.049999155 0
-0.0043994882 -0.23547311 0.050000828 0
-0.001613744 -0.23547487 -0.049999136 0
-0.0014869842 -0.23547465 0.050000839 0
0.0011436312 -0.23549792 -0.04999914 0
0.0014896778 -0.23540337 0.05000085 0
0.0044328272 -0.23570172 -0.049999118 0
0.0046698316 -0.23535568 0.050000858 0
0.0075607486 -0.2355618 -0.049999122 0
0.0075329784 -0.23558392 0.050000872 0
0.0098529765 -0.23533447 -0.04923778 0
0.010000168 -0.23538867 -0.046326969 0
0.010000156 -0.23574607 -0.043565378 0
0.010000148 -0.2352681 -0.040560585 0
0.010000133 -0.23587677 -0.037410393 0
0.010000123 -0.23530822 -0.034491315 0
0.010000117 -0.23556979 -0.031795751 0
0.010000105 -0.23544519 -0.028484603 0
0.010000092 -0.23559932 -0.025399556 0
0.01000008 -0.23549584 -0.022322098 0
0.010000071 -0.23541506 -0.019265955 0
0.010000059 -0.23535128 -0.016623264 0
0.010000047 -0.23550206 -0.013678816 0
0.010543982 -0.23534906 -0.010367643 0
0.010514871 -0.23559073 0.010549196 0
0.0099999504 -0.23557134 0.013208582 0
0.0099999383 -0.23584914 0.016665911 0
0.0099999309 -0.23519506 0.019358112 0
0.0099999169 -0.23542108 0.022528015 0
0.0099999094 -0.23534921 0.025529725 0
0.0099998964 -0.23549013 0.028464762 0
0.0099998843 -0.23552032 0.03162434 0
0.009999874 -0.2351957 0.034395792 0
0.0099998619 -0.23556958 0.037325144 0
0.0099998545 -0.23558553 0.040470511 0
0.0099998433 -0.23546417 0.043574549 0
0.0099998331 -0.23549712 0.04663964 0
0.0098090013 -0.23538098 0.04948223 0
0.013543258 -0.23559308 -0.0099990964 0
0.013605976 -0.23565675 0.010000899 0
0.016692007 -0.23543863 -0.009999088 0
0.016530322 -0.23539311 0.010000912 0
0.019456174 -0.23571229 -0.009999074 0
0.019569864 -0.23519619 0.010000924 0
0.022354418 -0.23574178 -0.0099990675 0
0.022323711 -0.23537806 0.010000933 0
0.02553984 -0.23537362 -0.0099990563 0
0.025582638 -0.23537095 0.010000944 0
0.028494595 -0.23546518 -0.0099990424 0
0.028459931 -0.23569606 0.010000954 0
0.031453744 -0.2355895 -0.0099990331 0
0.031305064 -0.23555504 0.010000966 0
0.034439266 -0.23553139 -0.0099990247 0
0.034797225 -0.23544368 0.010000978 0
0.037381254 -0.23579811 -0.0099990088 0
0.037344065 -0.23549087 0.010000988 0
0.040645253 -0.23557933 -0.0099989986 0
0.040333129 -0.23551263 0.010000997 0
0.043414786 -0.23557195 -0.0099989865 0
0.043363038 -0.23551655 0.01000101 0
0.046433236 -0.23562455 -0.0099989781 0
0.046811346 -0.23558654 0.010001024 0
0.049471959 -0.23571222 -0.0097764954 0
0.050000016 -0.23537472 -0.0073685506 0
0.050000004 -0.23547707 -0.0046403008 0
0.050000001 -0.23553629 -0.0016150966 0
0.049999982 -0.23547992 0.001259691 0
0.049999971 -0.23558825 0.0044314102 0
0.049999956 -0.23562396 0.0076960698 0
0.049457975 -0.2354887 0.0098100463 0
-0.04901661 -0.23247297 -0.0098084612 0
-0.049999956 -0.23236057 -0.0075556007 0
-0.049999963 -0.23239629 -0.0043386077 0
-0.049999982 -0.2326986 -0.0017141571 0
-0.049999993 -0.2322681 0.0014454413 0
-0.050000001 -0.23234324 0.0045697251 0
-0.050000016 -0.23230256 0.0072228066 0
-0.049260311 -0.23241027 0.0099211 0
-0.046830129 -0.23261704 -0.0099993274 0
-0.046480134 -0.23228717 0.010000671 0
-0.043406282 -0.23252711 -0.0099993153 0
-0.043433189 -0.23265554 0.010000686 0
-0.040505469 -0.23253004 -0.0099993031 0
-0.040506694 -0.23277551 0.010000697 0
-0.037413929 -0.23265991 -0.009999291 0
-0.037275776 -0.23252851 0.010000707 0
-0.034394834 -0.2327234 -0.0099992799 0
-0.034680445 -0.23215234 0.010000715 0
-0.031681854 -0.23246972 -0.0099992715 0
-0.031351484 -0.2325031 0.010000726 0
-0.028312488 -0.23224965 -0.0099992622 0
-0.028470265 -0.23255052 0.01000074 0
-0.025600966 -0.23253028 -0.0099992501 0
-0.025406659 -0.23243052 0.01000075 0
-0.022387935 -0.23242815 -0.0099992398 0
-0.022412684 -0.23274252 0.01000076 0
-0.019365115 -0.232531 -0.0099992268 0
-0.019314818 -0.2326927 0.010000773 0
-0.016725915 -0.23235101 -0.0099992203 0
-0.016552217 -0.23250005 0.01000078 0
-0.013583046 -0.23264617 -0.0099992054 0
-0.013585388 -0.23241089 0.010000792 0
-0.0097868703 -0.23245025 -0.049359497 0
-0.0099998303 -0.23258881 -0.046348214 0
-0.0099998442 -0.23245515 -0.043256149 0
-0.0099998508 -0.23259103 -0.040579218 0
-0.0099998657 -0.23280083 -0.037494961 0
-0.0099998722 -0.23277175 -0.034942154 0
-0.0099998843 -0.23240441 -0.031575926 0
-0.0099998964 -0.23270693 -0.028673965 0
-0.0099999066 -0.2321644 -0.025375566 0
-0.0099999178 -0.23247746 -0.022693304 0
-0.0099999309 -0.23231803 -0.01962344 0
-0.0099999411 -0.23250084 -0.016508032 0
-0.0099999513 -0.23282108 -0.013588321 0
-0.010563967 -0.23252556 -0.010506889 0
-0.010434342 -0.23237523 0.010618216 0
-0.010000047 -0.23255323 0.013612742 0
-0.010000058 -0.23256752 0.01643787 0
-0.010000073 -0.23258066 0.019738412 0
-0.010000085 -0.23261781 0.022810234 0
-0.010000092 -0.23252271 0.025664 0
-0.010000103 -0.23263729 0.028204864 0
-0.010000112 -0.23254688 0.031612225 0
-0.010000123 -0.23252361 0.034564223 0
-0.010000137 -0.23237754 0.037582159 0
-0.010000145 -0.23232521 0.040598504 0
-0.010000157 -0.23219812 0.043320801 0
-0.010000167 -0.23251557 0.04640029 0
-0.0098103462 -0.23256011 0.049490076 0
-0.0073112482 -0.23243383 -0.049999189 0
-0.0073422408 -0.23252538 0.050000809 0
-0.00441613 -0.23250104 -0.049999174 0
-0.0044396012 -0.23242329 0.050000809 0
-0.0013429697 -0.23255774 -0.049999144 0
-0.0014566227 -0.23269147 0.050000831 0
0.0013376186 -0.23238276 -0.049999155 0
0.0016078977 -0.23252037 0.050000831 0
0.0043593147 -0.23246181 -0.049999125 0
0.0045217122 -0.23248148 0.05000085 0
0.0075895065 -0.23229642 -0.049999136 0
0.0078577586 -0.23267527 0.050000869 0
0.0098607903 -0.23254643 -0.049225464 0
0.010000169 -0.23237777 -0.046433944 0
0.010000155 -0.23228392 -0.043665282 0
0.010000147 -0.23287733 -0.040557563 0
0.010000136 -0.23256376 -0.037799727 0
0.010000124 -0.23218572 -0.034497 0
0.010000112 -0.23278494 -0.03153497 0
0.010000103 -0.23253272 -0.028237049 0
0.010000095 -0.23229863 -0.0256148 0
0.010000081 -0.23246357 -0.022690723 0
0.010000071 -0.23246805 -0.019493487 0
0.010000061 -0.23248391 -0.016518591 0
0.010000049 -0.23272 -0.013436546 0
0.010584842 -0.23227002 -0.010330878 0
0.01058246 -0.23220775 0.010386077 0
0.0099999504 -0.23251113 0.013323803 0
0.0099999411 -0.23296532 0.016540971 0
0.0099999271 -0.23251696 0.019476241 0
0.0099999178 -0.23260741 0.022507358 0
0.0099999085 -0.23259848 0.025578333 0
0.0099998945 -0.23255566 0.028557926 0
0.0099998862 -0.23250341 0.031335518 0
0.009999874 -0.23221579 0.034632366 0
0.0099998629 -0.23256417 0.037425347 0
0.0099998545 -0.23252796 0.040463436 0
0.0099998442 -0.23250498 0.04316565 0
0.0099998321 -0.23240151 0.0465337 0
0.009844902 -0.23226561 0.049232215 0
0.013432697 -0.23230846 -0.0099991094 0
0.013484821 -0.23253936 0.010000891 0
0.016494883 -0.23269792 -0.0099991001 0
0.016527973 -0.2326525 0.0100009 0
0.019347046 -0.23250619 -0.0099990861 0
0.01941824 -0.23233624 0.010000908 0
0.0224347 -0.23234549 -0.0099990787 0
0.022321057 -0.23236611 0.010000923 0
0.025225464 -0.23255074 -0.0099990675 0
0.025386248 -0.23247795 0.010000933 0
0.028403874 -0.23240606 -0.0099990545 0
0.028538413 -0.23252383 0.010000945 0
0.031553991 -0.23243959 -0.0099990433 0
0.031522147 -0.23236433 0.010000956 0
0.034596324 -0.23248866 -0.0099990312 0
0.034295604 -0.23233013 0.010000966 0
0.037645377 -0.23255874 -0.0099990228 0
0.037435554 -0.23265138 0.01000098 0
0.040649991 -0.23271096 -0.0099990079 0
0.040496599 -0.23247395 0.010000991 0
0.043546092 -0.23261353 -0.0099989995 0
0.043454073 -0.23209092 0.010000998 0
0.046462402 -0.23267451 -0.0099989884 0
0.046672858 -0.23263103 0.010001012 0
0.049389292 -0.23250413 -0.0097539509 0
0.050000012 -0.23261222 -0.007310424 0
0.050000001 -0.23257606 -0.0044523189 0
0.050000008 -0.23230436 -0.0015617253 0
0.049999975 -0.23258534 0.0016447698 0
0.049999975 -0.23262204 0.0045141466 0
0.049999952 -0.23248066 0.0075846976 0
0.049176581 -0.23265132 0.0097936159 0
-0.049343236 -0.23042889 -0.0096521936 0
-0.049205117 -0.23024473 -0.0073911869 0
-0.049180269 -0.23030974 -0.0044406895 0
-0.04924652 -0.23025851 -0.0015101767 0
-0.049167763 -0.23026897 0.0012763952 0
-0.049223136 -0.23031698 0.0043600835 0
-0.049319211 -0.23032367 0.0075700209 0
-0.04919114 -0.23045324 0.0097319679 0
-0.046384074 -0.23041865 -0.0098021859 0
-0.046550199 -0.23020001 -0.0076906551 0
-0.046337206 -0.23019996 -0.0045220242 0
-0.046654426 -0.23019993 -0.001559261 0
-0.046116244 -0.23019993 0.0016760752 0
-0.046888001 -0.23019998 0.0046406998 0
-0.046409376 -0.23019989 0.0071985391 0
-0.046539295 -0.23030251 0.0097011849 0
-0.04337988 -0.23045792 -0.0098435245 0
-0.043417994 -0.23019998 -0.0073172613 0
-0.043514002 -0.23019998 -0.0047031711 0
-0.043051153 -0.23019996 -0.0016403443 0
-0.043476116 -0.23019996 0.0014996933 0
-0.043663181 -0.23019995 0.0046358928 0
-0.043401934 -0.2301999 0.0075080418 0
-0.043547578 -0.23042706 0.0098085757 0
-0.040800232 -0.23032881 -0.0097088302 0
-0.040713508 -0.23019998 -0.0073265652 0
-0.040746905 -0.23019998 -0.0045448472 0
-0.040477276 -0.23019996 -0.0016530302 0
-0.040509392 -0.23019998 0.0013429218 0
-0.040429797 -0.2301999 0.0045583816 0
-0.040299937 -0.23019992 0.0076264823 0
-0.04049981 -0.23033345 0.0096621513 0
-0.037591834 -0.23040782 -0.0096780276 0
-0.037569523 -0.23019996 -0.0073261326 0
-0.037244625 -0.23019998 -0.0043457276 0
-0.037503812 -0.23019992 -0.0017163294 0
-0.037403036 -0.23019993 0.0015874977 0
-0.037639387 -0.2301999 0.0046827206 0
-0.037615709 -0.2301999 0.0073485407 0
-0.037172005 -0.23041347 0.009727791 0
-0.034405831 -0.23049971 -0.0097512575 0
-0.034369159 -0.23019999 -0.0075281993 0
-0.03435402 -0.23019999 -0.0047160215 0
-0.034599114 -0.23019993 -0.0014945153 0
-0.0342118 -0.23019993 0.001285212 0
-0.034705725 -0.23019995 0.0039891703 0
-0.034212291 -0.2301999 0.0070266491 0
-0.034087989 -0.23033175 0.0096856309 0
-0.031328026 -0.23047243 -0.0098501816 0
-0.031364273 -0.23019995 -0.0073866448 0
-0.031554129 -0.23019992 -0.0044632126 0
-0.031460579 -0.23019996 -0.0015109294 0
-0.031701203 -0.23019992 0.0015810338 0
-0.031488545 -0.2301999 0.0048021469 0
-0.031696651 -0.23019992 0.0073858551 0
-0.031228695 -0.23052546 0.0098444028 0
-0.028443344 -0.23034081 -0.0097232489 0
-0.028718175 -0.23019996 -0.0074369214 0
-0.02826868 -0.23019995 -0.004481961 0
-0.028436784 -0.23019999 -0.0017299019 0
-0.028309871 -0.23019996 0.0016874642 0
-0.028541226 -0.23019995 0.0041167429 0
-0.028858298 -0.23019995 0.0076460196 0
-0.028268585 -0.23043895 0.0097297812 0
-0.025361955 -0.230451 -0.0097014047 0
-0.025387801 -0.23020005 -0.0073874989 0
-0.025488827 -0.23019995 -0.0044935807 0
-0.025468042 -0.23019996 -0.0019138561 0
-0.025309607 -0.23019992 0.0012015962 0
-0.02543344 -0.23019996 0.0043077553 0
-0.025582002 -0.23019992 0.0076257377 0
-0.025653163 -0.23038946 0.0097321132 0
-0.022392405 -0.23041771 -0.0096901208 0
-0.022474885 -0.23020002 -0.0075311866 0
-0.022843391 -0.23019998 -0.0048388485 0
-0.02288558 -0.23019999 -0.0015110482 0
-0.022330269 -0.23019993 0.0013733326 0
-0.022630574 -0.23019992 0.0043592914 0
-0.022381688 -0.23019993 0.0075427354 0
-0.022729324 -0.23031811 0.0096781198 0
-0.019364599 -0.23038077 -0.009786847 0
-0.019718504 -0.23019996 -0.0073609613 0
-0.019599507 -0.23019996 -0.0045507527 0
-0.019678691 -0.23019993 -0.0011420907 0
-0.019404586 -0.23019992 0.0015096324 0
-0.019629721 -0.23019996 0.0043186466 0
-0.019747181 -0.2301999 0.0077487677 0
-0.019575691 -0.23034614 0.0096894018 0
-0.016527604 -0.23026769 -0.0096555203 0
-0.016637228 -0.23019995 -0.0075474633 0
-0.01632007 -0.23019995 -0.0045414213 0
-0.01661724 -0.23019996 -0.0014351363 0
-0.016202053 -0.23019995 0.0015698445 0
-0.016696926 -0.23019993 0.0045396043 0
-0.016422762 -0.23019995 0.0077434238 0
-0.01644109 -0.23040643 0.0097635817 0
-0.013137662 -0.23034692 -0.0095884288 0
-0.014017918 -0.23019998 -0.0076378337 0
-0.013538978 -0.23019998 -0.0045068013 0
-0.013458155 -0.23019998 -0.001783904 0
-0.013626091 -0.23019995 0.0014426965 0
-0.013734965 -0.23019992 0.0045089703 0
-0.013411346 -0.23019993 0.0073382477 0
-0.013425046 -0.23032017 0.0097396942 0
-0.0097230971 -0.23045896 -0.04915794 0
-0.0097092139 -0.2303692 -0.04648485 0
-0.0096612917 -0.23039532 -0.043492571 0
-0.0097284038 -0.23039481 -0.040335082 0
-0.0095697297 -0.23026365 -0.037468858 0
-0.0098716244 -0.23053463 -0.034509171 0
-0.0097467666 -0.2304112 -0.031514525 0
-0.009681535 -0.23035051 -0.028359469 0
-0.0097093079 -0.23040493 -0.025320282 0
-0.0097472938 -0.23037392 -0.022352995 0
-0.0097587183 -0.23026787 -0.019566599 0
-0.0097445669 -0.23043633 -0.0166579 0
-0.0096326405 -0.23036994 -0.013636163 0
-0.010151049 -0.22984031 -0.010054834 0
-0.010235761 -0.22977018 -0.0074988375 0
-0.010250628 -0.22978942 -0.0045867623 0
-0.010136398 -0.2297723 -0.0014895388 0
-0.0102551 -0.22975649 0.0015740278 0
-0.010136818 -0.22975865 0.0045354422 0
-0.010195937 -0.22973703 0.0071906513 0
-0.0099139344 -0.22987571 0.010062838 0
-0.0097845905 -0.23042268 0.013196943 0
-0.0097171888 -0.23036988 0.016114464 0
-0.0097064888 -0.23038772 0.019195097 0
-0.0098891361 -0.23040515 0.022383122 0
-0.0095631257 -0.23028134 0.025449375 0
-0.0096337842 -0.23034948 0.028571507 0
-0.0098258359 -0.23035322 0.031741917 0
-0.0096480688 -0.23034011 0.034490433 0
-0.0098506482 -0.23043031 0.037250787 0
-0.0097413268 -0.23031418 0.040531967 0
-0.0096794507 -0.23024285 0.043246888 0
-0.0097533409 -0.23034625 0.046238016 0
-0.0097110346 -0.23044311 0.049393453 0
-0.0074822037 -0.2303478 -0.049314581 0
-0.007628479 -0.2302001 -0.046670947 0
-0.0076136068 -0.23020013 -0.043664292 0
-0.0074122259 -0.23020008 -0.040592633 0
-0.0075790989 -0.23020004 -0.037639882 0
-0.0073563419 -0.23020004 -0.034660246 0
-0.0076824259 -0.23020011 -0.031505607 0
-0.0070900638 -0.23020007 -0.028334321 0
-0.0072839754 -0.23020005 -0.025852889 0
-0.007170591 -0.23020007 -0.022491682 0
-0.0075347903 -0.23019999 -0.019066807 0
-0.0077268309 -0.23020002 -0.016275642 0
-0.0074586961 -0.23020002 -0.013270564 0
-0.0075572091 -0.22988738 -0.0101231 0
-0.0075704767 -0.2301999 -0.0074397903 0
-0.0075512179 -0.2301999 -0.0044696424 0
-0.007467261 -0.23019989 -0.0015251091 0
-0.0074861129 -0.23019986 0.0014876047 0
-0.0073470594 -0.23019989 0.0045382241 0
-0.0075938329 -0.23019986 0.0072030434 0
-0.0077098673 -0.22978882 0.01025602 0
-0.0073994775 -0.23019992 0.013633839 0
-0.007357589 -0.2301999 0.016464012 0
-0.0072619179 -0.23019987 0.019662801 0
-0.0078364061 -0.23019989 0.02272588 0
-0.0074951327 -0.23019987 0.025183734 0
-0.0072050411 -0.23019993 0.028202776 0
-0.0073282099 -0.23019981 0.031507507 0
-0.0072046309 -0.23019981 0.034577392 0
-0.0074936762 -0.23019984 0.037731264 0
-0.0076680649 -0.23019974 0.040448762 0
-0.0075132842 -0.2301998 0.043628857 0
-0.0074839448 -0.23019986 0.046325821 0
-0.007713065 -0.23035991 0.04932202 0
-0.0042626336 -0.23034061 -0.049321674 0
-0.0046494906 -0.2302001 -0.046332218 0
-0.0046842722 -0.23020014 -0.043524142 0
-0.0046386863 -0.23020007 -0.040600624 0
-0.0045387582 -0.23020008 -0.037570026 0
-0.0044513992 -0.23020008 -0.034460422 0
-0.0042681168 -0.23020008 -0.031575244 0
-0.0043505705 -0.23020002 -0.028573446 0
-0.0047583091 -0.2302001 -0.025745414 0
-0.0043640463 -0.23020001 -0.022515189 0
-0.0045042569 -0.23020004 -0.019601839 0
-0.0045752511 -0.23020001 -0.016436469 0
-0.0044638505 -0.23020001 -0.013495645 0
-0.0046002907 -0.22971034 -0.010102332 0
-0.0045697722 -0.2301999 -0.0076698954 0
-0.0043903398 -0.23019989 -0.0045318408 0
-0.0047911047 -0.23019987 -0.0013827254 0
-0.0044612689 -0.23019989 0.0014947373 0
-0.0045435629 -0.23019986 0.0044380967 0
-0.004313387 -0.23019984 0.0074344249 0
-0.0045400821 -0.22980829 0.01021996 0
-0.0046043526 -0.23019989 0.0137362 0
-0.0046622022 -0.2301999 0.016862331 0
-0.0045165233 -0.23019989 0.019561172 0
-0.0043683643 -0.23019989 0.022465523 0
-0.0043811654 -0.23019983 0.025509702 0
-0.0048151435 -0.23019986 0.028644979 0
-0.0045575886 -0.23019987 0.031662025 0
-0.0042293547 -0.23019987 0.034269519 0
-0.0046014208 -0.23019983 0.037805263 0
-0.0049175066 -0.23019981 0.0405045 0
-0.0046066367 -0.23019975 0.043551274 0
-0.0046687564 -0.23019977 0.046742707 0
-0.0044674608 -0.2302991 0.049244966 0
-0.001901372 -0.23030835 -0.049250212 0
-0.0017312306 -0.23020013 -0.04639814 0
-0.0016117127 -0.2302001 -0.043584682 0
-0.0016678129 -0.23020011 -0.040637475 0
-0.0014400958 -0.2302001 -0.037643723 0
-0.0012674391 -0.23020011 -0.034534968 0
-0.0016510417 -0.23020005 -0.031676251 0
-0.0014600141 -0.23020007 -0.028535141 0
-0.0016925463 -0.23020002 -0.025351355 0
-0.0013720853 -0.23020004 -0.022441918 0
-0.0014178026 -0.23020001 -0.019537462 0
-0.0013038566 -0.23019999 -0.016148776 0
-0.0016262931 -0.23019999 -0.013537896 0
-0.0013084199 -0.2297886 -0.010224266 0
-0.0014371159 -0.23019989 -0.0076382044 0
-0.0014253691 -0.2301999 -0.0045684767 0
-0.0013971054 -0.23019989 -0.0014749001 0
-0.0013710154 -0.23019989 0.0015947447 0
-0.0015183804 -0.23019986 0.0044229953 0
-0.0014298285 -0.23019986 0.0075808042 0
-0.0014147711 -0.22977036 0.010081815 0
-0.0013853536 -0.23019989 0.013805998 0
-0.0014563948 -0.2301999 0.016545307 0
-0.0014763244 -0.23019986 0.019370219 0
-0.0015864806 -0.2301999 0.022544047 0
-0.0016622044 -0.23019987 0.025460791 0
-0.0014793744 -0.23019981 0.028503316 0
-0.0017396994 -0.23019981 0.031857945 0
-0.0012815956 -0.23019981 0.034377899 0
-0.0016708315 -0.23019983 0.037464999 0
-0.0013476476 -0.23019981 0.04051603 0
-0.0012678541 -0.23019977 0.043724149 0
-0.0015202053 -0.23019975 0.046664547 0
-0.0013550062 -0.23030783 0.049289521 0
0.0017505958 -0.23030627 -0.049262289 0
0.0016147541 -0.23020008 -0.046763357 0
0.0015200227 -0.23020011 -0.04357734 0
0.0015453055 -0.23020011 -0.040359829 0
0.0014898375 -0.2302001 -0.037394062 0
0.0012059882 -0.23020008 -0.034508351 0
0.0015485547 -0.23020004 -0.031486541 0
0.0015389392 -0.23020002 -0.028204422 0
0.0015444199 -0.23020005 -0.025398299 0
0.0014921613 -0.23019999 -0.022231944 0
0.001459353 -0.23020004 -0.019505521 0
0.0014089093 -0.23019999 -0.016549939 0
0.0015338912 -0.23019998 -0.013107728 0
0.0015051538 -0.22973675 -0.010225376 0
0.00135791 -0.2301999 -0.007311827 0
0.0014090105 -0.2301999 -0.0044295159 0
0.001562936 -0.23019987 -0.0015813706 0
0.0013730593 -0.23019986 0.0013041951 0
0.001720179 -0.23019984 0.0044384864 0
0.0013113294 -0.23019984 0.0075154123 0
0.0013652781 -0.22987173 0.01024101 0
0.0015047299 -0.23019989 0.013519444 0
0.0013248014 -0.2301999 0.016525928 0
0.0014738017 -0.23019986 0.019396087 0
0.0015597334 -0.23019986 0.022496775 0
0.0015688963 -0.23019984 0.02565621 0
0.0017159155 -0.23019981 0.028168142 0
0.0014843509 -0.23019987 0.031388316 0
0.0014465844 -0.2301998 0.034571964 0
0.0015039239 -0.2301998 0.037284937 0
0.00097446918 -0.23019978 0.040355369 0
0.0015687777 -0.2301998 0.043611344 0
0.0014625038 -0.23019977 0.046413243 0
0.0019266099 -0.23025076 0.049171593 0
0.0045666057 -0.23030964 -0.049198013 0
0.0048158029 -0.23020014 -0.046480242 0
0.0043963627 -0.2302001 -0.043311596 0
0.0045315265 -0.23020008 -0.040864043 0
0.0046480875 -0.2302001 -0.037596114 0
0.0047520706 -0.23020008 -0.034222737 0
0.0044263122 -0.23020008 -0.031318974 0
0.0043179109 -0.23020007 -0.02821908 0
0.0045327842 -0.23020005 -0.025660535 0
0.0045101759 -0.23020001 -0.022439638 0
0.0047423257 -0.23020004 -0.019681951 0
0.003879 -0.23020001 -0.016573042 0
0.0045523793 -0.23019999 -0.013513445 0
0.0045707095 -0.22976173 -0.010103922 0
0.0043901238 -0.23019992 -0.0073678228 0
0.00457566 -0.23019989 -0.0044788439 0
0.0046098982 -0.23019986 -0.0016389193 0
0.0044462318 -0.23019987 0.0015637733 0
0.0045796558 -0.23019989 0.0045125629 0
0.0045751655 -0.23019984 0.0075272317 0
0.0045955591 -0.22992326 0.010383325 0
0.0042860196 -0.2301999 0.013645986 0
0.0048211599 -0.23019996 0.016867094 0
0.004653601 -0.23019989 0.01921059 0
0.0043629208 -0.23019989 0.022516664 0
0.0046880813 -0.23019983 0.025125332 0
0.0045279767 -0.2301999 0.028629079 0
0.0044086552 -0.23019989 0.031511389 0
0.0044813287 -0.2301998 0.034448951 0
0.0042874329 -0.2301998 0.037363768 0
0.0045313854 -0.23019977 0.040378693 0
0.0044194008 -0.2301998 0.043183908 0
0.0045257979 -0.2301998 0.046501581 0
0.0045563271 -0.23036283 0.049386885 0
0.0072275149 -0.23031162 -0.049162935 0
0.0078486456 -0.23020008 -0.046374928 0
0.0072939866 -0.23020008 -0.043550156 0
0.0072961058 -0.23020007 -0.040691074 0
0.0071926527 -0.23020008 -0.037471455 0
0.0074785906 -0.23020008 -0.034513425 0
0.00728055 -0.23020005 -0.031553607 0
0.0074183205 -0.23020008 -0.028524673 0
0.0075728837 -0.23020001 -0.025622355 0
0.0073550977 -0.23020004 -0.022514842 0
0.0075481082 -0.23020004 -0.0195485 0
0.0076288152 -0.23020001 -0.016386811 0
0.0075436537 -0.23019998 -0.013665976 0
0.0075040101 -0.22974344 -0.01019787 0
0.0074766986 -0.23019992 -0.0076235966 0
0.0074276403 -0.23019989 -0.0043614558 0
0.0074264742 -0.2301999 -0.0015484783 0
0.0074427067 -0.23019987 0.0013453523 0
0.0075621596 -0.23019984 0.0044996012 0
0.0076493071 -0.23019987 0.0075151832 0
0.0074993265 -0.22971731 0.010097622 0
0.0075288569 -0.23019989 0.013456607 0
0.0075517832 -0.23019987 0.01641399 0
0.0075725722 -0.23019987 0.01958392 0
0.0072077955 -0.2301999 0.022031849 0
0.0075270063 -0.23019987 0.025737382 0
0.0075363009 -0.23019983 0.028409632 0
0.0076385299 -0.23019983 0.031224193 0
0.007420674 -0.23019984 0.034400109 0
0.0075971526 -0.23019983 0.037266754 0
0.0073078596 -0.23019984 0.040181912 0
0.0074358252 -0.23019978 0.04355875 0
0.0071735401 -0.2301998 0.04645719 0
0.0076587303 -0.23027754 0.049377356 0
0.0096882693 -0.23048481 -0.049044292 0
0.0098073445 -0.23043808 -0.046566565 0
0.0096797636 -0.23037601 -0.043308955 0
0.0098709166 -0.2304119 -0.040595051 0
0.0097508002 -0.23031037 -0.037623208 0
0.0097443322 -0.23044895 -0.034892146 0
0.0097689535 -0.23030135 -0.031507839 0
0.0096385404 -0.2303641 -0.028366012 0
0.0097667202 -0.23040961 -0.025680726 0
0.0097134626 -0.23030813 -0.022702657 0
0.0096814455 -0.23036826 -0.01968869 0
0.0097369552 -0.23033693 -0.016273247 0
0.0098018805 -0.23044032 -0.013677729 0
0.010240373 -0.23009056 -0.0099637322 0
0.010030386 -0.22977915 -0.0074770967 0
0.010186175 -0.22972289 -0.0043297098 0
0.010128827 -0.22974436 -0.0012738709 0
0.01023417 -0.22984949 0.0017045892 0
0.010103923 -0.22983073 0.0046058781 0
0.010206175 -0.22965807 0.0074914526 0
0.010005322 -0.23007275 0.0098629538 0
0.0098220315 -0.23042491 0.013181498 0
0.0097381175 -0.23034661 0.016444808 0
0.0096763391 -0.23033731 0.019776583 0
0.0097189862 -0.23043965 0.022555867 0
0.0097318031 -0.23047099 0.025535673 0
0.0098228324 -0.23039664 0.028437307 0
0.0097167036 -0.23030749 0.031549901 0
0.0096798586 -0.23037936 0.034426294 0
0.0097328871 -0.2303596 0.03764195 0
0.0097326301 -0.23040171 0.040551387 0
0.0096978927 -0.23034894 0.043313429 0
0.0095864655 -0.2303227 0.046221603 0
0.0097835697 -0.23042805 0.049138043 0
0.013182744 -0.23037806 -0.0096817734 0
0.013567632 -0.23020007 -0.0079468014 0
0.013458381 -0.23019996 -0.0043092086 0
0.01345464 -0.23019993 -0.001280573 0
0.01334387 -0.23019995 0.0014124977 0
0.01350063 -0.23019996 0.0044510891 0
0.013597777 -0.2301999 0.0074729486 0
0.013527963 -0.23040806 0.0096835634 0
0.016572645 -0.23045956 -0.0097483983 0
0.016594868 -0.23019999 -0.0074997623 0
0.016353391 -0.23019993 -0.0042338921 0
0.016606046 -0.23019992 -0.0013480666 0
0.016451322 -0.23019996 0.0014914306 0
0.016192608 -0.23019992 0.0045930375 0
0.016321614 -0.2301999 0.0078169033 0
0.016423075 -0.23039521 0.0097703589 0
0.019500993 -0.23047471 -0.0097954329 0
0.019576032 -0.23020002 -0.0074063651 0
0.019599108 -0.23020001 -0.0046049887 0
0.019234577 -0.23019992 -0.0013991403 0
0.019283092 -0.23019993 0.0015356856 0
0.019394843 -0.23019995 0.0044436026 0
0.019372581 -0.2301999 0.007388432 0
0.019801019 -0.23035115 0.0097002191 0
0.022449307 -0.23030716 -0.009704045 0
0.022365335 -0.23019999 -0.0076750349 0
0.022644958 -0.23019998 -0.0045762579 0
0.022888167 -0.23019995 -0.0015798138 0
0.022770274 -0.23019995 0.0015362684 0
0.022451747 -0.23019992 0.0046314872 0
0.022542648 -0.23020001 0.0072703897 0
0.022323044 -0.23052265 0.0097685484 0
0.025171567 -0.23045462 -0.0098097613 0
0.025605438 -0.23019995 -0.0076886956 0
0.025553951 -0.23019996 -0.0046440628 0
0.025788385 -0.23019996 -0.0014985031 0
0.025466671 -0.23019996 0.0014236217 0
0.025620366 -0.2301999 0.0043129479 0
0.025637044 -0.2301999 0.0075687631 0
0.025283273 -0.23034452 0.0096836472 0
0.028662464 -0.23040679 -0.0097726537 0
0.028320566 -0.23019995 -0.0075915693 0
0.028237103 -0.23019993 -0.004427027 0
0.028477017 -0.23019993 -0.0014937925 0
0.028578341 -0.2301999 0.001469416 0
0.0283705 -0.23019995 0.0045309127 0
0.028466685 -0.2301999 0.0076300208 0
0.028499672 -0.23035607 0.0096565578 0
0.031491622 -0.23050871 -0.0097905817 0
0.031381968 -0.23019999 -0.0076134424 0
0.031568844 -0.23019995 -0.0045712711 0
0.031469725 -0.23019993 -0.0014489586 0
0.03146081 -0.23019998 0.0012817414 0
0.031952914 -0.23019995 0.0045763114 0
0.031373005 -0.23019996 0.0076331785 0
0.031345412 -0.23041803 0.009775999 0
0.034067936 -0.23046255 -0.0097120702 0
0.034614455 -0.23020001 -0.0077985586 0
0.034356352 -0.23019996 -0.004646318 0
0.034626339 -0.2301999 -0.0014802638 0
0.034592465 -0.23019992 0.0013216309 0
0.034379005 -0.23019996 0.0044077015 0
0.034376372 -0.23019989 0.0073944954 0
0.034634847 -0.23038048 0.0096428934 0
0.037772793 -0.23040554 -0.0098057427 0
0.03769277 -0.23019998 -0.0075918268 0
0.037613101 -0.23019996 -0.004315184 0
0.037721567 -0.23019995 -0.0016636801 0
0.037567966 -0.23019996 0.0014561196 0
0.037409194 -0.2301999 0.0043256399 0
0.037468154 -0.2301999 0.0072956551 0
0.037638023 -0.23036189 0.0096856412 0
0.040580515 -0.23036952 -0.0097240983 0
0.04060081 -0.23019999 -0.0074535361 0
0.040538646 -0.23019995 -0.0043726703 0
0.041034192 -0.23019995 -0.0014271046 0
0.040409811 -0.23019992 0.0013451161 0
0.040542826 -0.23019993 0.0041198567 0
0.040467076 -0.23019993 0.0072006625 0
0.040443666 -0.23040701 0.0096687712 0
0.044001579 -0.23036674 -0.0097628636 0
0.043550435 -0.23019999 -0.0074711884 0
0.043254245 -0.23020002 -0.0044005443 0
0.043979377 -0.23019996 -0.0014503477 0
0.043345965 -0.23019998 0.0013461844 0
0.043426778 -0.23019992 0.0043574562 0
0.043570928 -0.23019992 0.0074876631 0
0.043831695 -0.23042713 0.0097502545 0
0.046417575 -0.23046812 -0.0098253861 0
0.046747062 -0.23019999 -0.007296904 0
0.046435356 -0.23020001 -0.0045102672 0
0.046446297 -0.23019993 -0.001526284 0
0.046387315 -0.23019993 0.001777958 0
0.046178706 -0.23019995 0.0044882311 0
0.04649926 -0.23019992 0.0076025063 0
0.046463124 -0.2304585 0.0097838882 0
0.049568962 -0.2304865 -0.0096658757 0
0.049302496 -0.23026247 -0.00777794 0
0.049207818 -0.23020153 -0.0044331206 0
0.049402431 -0.23031598 -0.001390636 0
0.049426928 -0.23031306 0.001463532 0
0.049437098 -0.23036115 0.0046638572 0
0.049348913 -0.23023704 0.0074621909 0
0.049075417 -0.2304251 0.0097272638 0
-0.0097644739 -0.22658733 -0.0097876675 0
-0.0099999746 -0.22646296 -0.0074453345 0
-0.0099999821 -0.2264048 -0.0045191785 0
-0.0099999923 -0.22649534 -0.0014644522 0
-0.010000005 -0.22664972 0.0013989722 0
-0.010000016 -0.22639489 0.0047060181 0
-0.010000029 -0.22653165 0.0074137221 0
-0.0097115757 -0.22661962 0.0097450828 0
-0.007401688 -0.22636651 -0.0099992054 0
-0.0075445073 -0.22663134 0.010000795 0
-0.0042491374 -0.226579 -0.0099991942 0
-0.0042230524 -0.22670744 0.010000805 0
-0.0015391071 -0.2265377 -0.0099991858 0
-0.001265646 -0.22678348 0.010000817 0
0.0015448729 -0.22667456 -0.0099991746 0
0.00118276 -0.22693931 0.010000827 0
0.0044157896 -0.22671901 -0.0099991644 0
0.0045334022 -0.22670758 0.010000835 0
0.0073106135 -0.22658084 -0.0099991523 0
0.0075519658 -0.22656395 0.010000846 0
0.0096551711 -0.22629178 -0.0097483248 0
0.010000028 -0.22660197 -0.0076484489 0
0.010000015 -0.22661245 -0.0044543603 0
0.010000004 -0.22647384 -0.0013025155 0
0.0099999961 -0.22677824 0.0013403121 0
0.0099999858 -0.22632931 0.0043828585 0
0.0099999728 -0.22657402 0.0073819207 0
0.0097579891 -0.22647952 0.0098490668 0
-0.009799514 -0.22351427 -0.0097440816 0
-0.00999997 -0.22313116 -0.0076810163 0
-0.0099999867 -0.22348128 -0.0041481997 0
-0.009999997 -0.22330922 -0.0013943982 0
-0.010000003 -0.22356331 0.0014845558 0
-0.010000015 -0.22359227 0.0043972842 0
-0.010000028 -0.22328956 0.0076106875 0
-0.0096680988 -0.22367962 0.0097585591 0
-0.00745743 -0.22362193 -0.0099992184 0
-0.0077623562 -0.22329807 0.010000778 0
-0.0043629711 -0.22319934 -0.0099992072 0
-0.0044789445 -0.22331169 0.01000079 0
-0.0013573043 -0.22373152 -0.0099991942 0
-0.0014612791 -0.22344483 0.010000802 0
0.0017692226 -0.22329397 -0.0099991858 0
0.0014248244 -0.22353424 0.010000814 0
0.0046451259 -0.22331984 -0.0099991737 0
0.0044022119 -0.22358127 0.010000824 0
0.0075399689 -0.22392204 -0.0099991625 0
0.0074915746 -0.22351116 0.010000834 0
0.0096376091 -0.22342673 -0.0099037783 0
0.010000028 -0.22366381 -0.0074950592 0
0.010000018 -0.22324495 -0.0045977836 0
0.010000008 -0.22342336 -0.0019300915 0
0.0099999923 -0.22354701 0.0016586304 0
0.0099999812 -0.22356637 0.0048995609 0
0.0099999709 -0.22371663 0.007575986 0
0.0098204156 -0.22365409 0.0097205881 0
-0.0097423419 -0.22028972 -0.0097130472 0
-0.0099999737 -0.22026488 -0.0075144763 0
-0.0099999849 -0.22036771 -0.0046390188 0
-0.0099999951 -0.22044294 -0.0014840356 0
-0.010000004 -0.22037484 0.0014179334 0
-0.010000018 -0.220402 0.0045162719 0
-0.010000026 -0.22048335 0.0075667202 0
-0.0096043134 -0.220791 0.009880418 0
-0.0076192054 -0.22048217 -0.0099992314 0
-0.0076279989 -0.22048248 0.010000771 0
-0.0043689338 -0.22044268 -0.0099992184 0
-0.0045891902 -0.22075026 0.010000781 0
-0.0014213221 -0.22068684 -0.0099992082 0
-0.0013416872 -0.22037621 0.010000795 0
0.0014238341 -0.22046313 -0.009999197 0
0.0013168579 -0.22044034 0.010000802 0
0.0044408529 -0.22042394 -0.0099991839 0
0.0048163864 -0.22057748 0.010000817 0
0.0075133853 -0.22055753 -0.0099991728 0
0.0076891696 -0.22052749 0.010000827 0
0.009742314 -0.22022906 -0.0097400136 0
0.010000027 -0.22035187 -0.0077133602 0
0.010000017 -0.22017388 -0.0045387438 0
0.010000004 -0.22029036 -0.0015652163 0
0.0099999933 -0.22049849 0.0016438194 0
0.0099999821 -0.22059353 0.0046054306 0
0.0099999756 -0.22064903 0.0071852626 0
0.0096923299 -0.22045399 0.0098194936 0
-0.0097858598 -0.2174408 -0.0097523807 0
-0.0099999718 -0.21769287 -0.0076189162 0
-0.009999983 -0.21741873 -0.0045709019 0
-0.0099999933 -0.21728368 -0.0015226048 0
-0.010000006 -0.21759418 0.001576833 0
-0.010000017 -0.21725795 0.0044138469 0
-0.010000029 -0.21737503 0.0077854493 0
-0.0096927211 -0.21731943 0.0098497327 0
-0.0077499957 -0.21763602 -0.0099992407 0
-0.0075848335 -0.21739295 0.01000076 0
-0.0046135588 -0.21761605 -0.0099992277 0
-0.0045887064 -0.21732563 0.010000769 0
-0.0013302643 -0.21751514 -0.0099992175 0
-0.0014463512 -0.21731572 0.010000781 0
0.0015359917 -0.2172554 -0.00999921 0
0.0011619306 -0.21719353 0.010000791 0
0.0047415458 -0.21776783 -0.0099991951 0
0.0045719282 -0.21756344 0.010000805 0
0.0074160816 -0.21760112 -0.0099991839 0
0.0075552422 -0.21759048 0.010000814 0
0.0097371954 -0.21730947 -0.0097725866 0
0.010000028 -0.21781559 -0.0074153473 0
0.010000016 -0.21762928 -0.0047926381 0
0.010000004 -0.21756548 -0.00110398 0
0.0099999951 -0.21742804 0.0016412357 0
0.0099999858 -0.21728356 0.0042959275 0
0.0099999728 -0.21753991 0.0073479642 0
0.0098058796 -0.21711865 0.0097464463 0
-0.0098390216 -0.21474163 -0.0097437995 0
-0.0099999746 -0.2145161 -0.007405662 0
-0.0099999858 -0.21440008 -0.0042415666 0
-0.0099999923 -0.21444948 -0.0015639003 0
-0.010000005 -0.21441783 0.0014396382 0
-0.010000017 -0.2146122 0.0045269979 0
-0.010000028 -0.2145956 0.0076142801 0
-0.0097615244 -0.21442665 0.009660718 0
-0.0074867108 -0.21426031 -0.0099992491 0
-0.007635992 -0.2144466 0.010000748 0
-0.0045082197 -0.21432427 -0.0099992389 0
-0.0046674651 -0.21451394 0.010000758 0
-0.0014349084 -0.2144985 -0.0099992305 0
-0.0016207063 -0.21466193 0.01000077 0
0.0013670907 -0.21451208 -0.0099992175 0
0.0015020707 -0.21445324 0.010000784 0
0.0042920629 -0.21440838 -0.0099992054 0
0.0048739719 -0.21435118 0.010000793 0
0.0073792133 -0.21458286 -0.0099991942 0
0.0074920971 -0.21457957 0.010000802 0
0.0096600121 -0.21468973 -0.0096532246 0
0.010000028 -0.21444324 -0.0074036429 0
0.010000015 -0.21444288 -0.0045562228 0
0.010000006 -0.21470912 -0.0016159851 0
0.0099999933 -0.21454518 0.0015319001 0
0.0099999849 -0.2144962 0.0044629578 0
0.0099999737 -0.2144887 0.0074024885 0
0.0098700095 -0.21477139 0.0096666953 0
-0.0098208766 -0.2116197 -0.0097747333 0
-0.0099999756 -0.21139266 -0.0072914134 0
-0.009999983 -0.21155141 -0.0044377614 0
-0.0099999942 -0.21157841 -0.0018006673 0
-0.010000007 -0.21181695 0.0017004951 0
-0.010000016 -0.21133286 0.0044398741 0
-0.010000026 -0.21140279 0.0075162193 0
-0.009820547 -0.21170989 0.0096757738 0
-0.0071919416 -0.21134727 -0.0099992631 0
-0.0075199166 -0.21125138 0.010000738 0
-0.0042453515 -0.21161442 -0.0099992482 0
-0.0042860964 -0.2114597 0.010000748 0
-0.0014210889 -0.21144381 -0.0099992398 0
-0.0013909284 -0.21132366 0.010000758 0
0.0013443998 -0.21137112 -0.0099992305 0
0.0011610944 -0.21142165 0.01000077 0
0.0045833774 -0.21177025 -0.0099992156 0
0.0048653628 -0.21129414 0.010000781 0
0.0073888386 -0.21144651 -0.0099992082 0
0.0074524153 -0.21141075 0.010000793 0
0.0098744947 -0.2112941 -0.0095912684 0
0.010000028 -0.21128577 -0.00761557 0
0.010000017 -0.2117517 -0.0046734903 0
0.010000004 -0.21163155 -0.0016605724 0
0.0099999951 -0.21165898 0.0014875834 0
0.0099999858 -0.21150492 0.0044010016 0
0.0099999728 -0.21130192 0.0078404481 0
0.0098170135 -0.2115695 0.0096741328 0
-0.0098836888 -0.2083234 -0.0096849091 0
-0.0099999718 -0.20852949 -0.0077399104 0
-0.0099999849 -0.20876001 -0.0045711501 0
-0.0099999961 -0.20798683 -0.0012026371 0
-0.010000005 -0.20816657 0.0016940455 0
-0.010000017 -0.2087069 0.0044532036 0
-0.010000028 -0.20854726 0.0074331244 0
-0.0097007127 -0.20848574 0.0098229824 0
-0.0074641323 -0.20820078 -0.0099992724 0
-0.0076216673 -0.20859155 0.010000726 0
-0.0045353556 -0.20851338 -0.0099992631 0
-0.0044532781 -0.20892572 0.010000741 0
-0.0014876435 -0.2084751 -0.0099992519 0
-0.001352573 -0.20865263 0.010000749 0
0.0014362085 -0.20811707 -0.0099992407 0
0.0016541434 -0.2083509 0.010000758 0
0.0043818387 -0.20849466 -0.0099992296 0
0.0046380442 -0.20848818 0.01000077 0
0.0072984546 -0.20851323 -0.0099992175 0
0.0073606465 -0.20841688 0.010000782 0
0.0096358899 -0.20843872 -0.0098440833 0
0.010000027 -0.20858334 -0.0072564632 0
0.010000017 -0.20877467 -0.0045809206 0
0.010000004 -0.20845528 -0.0014343839 0
0.0099999923 -0.20885414 0.0015853957 0
0.0099999849 -0.20839585 0.0043778927 0
0.0099999746 -0.20845032 0.0074559338 0
0.0098142121 -0.20839718 0.0095642135 0
-0.0097017698 -0.20561641 -0.009750464 0
-0.0099999737 -0.20543022 -0.00761637 0
-0.0099999858 -0.20571612 -0.0043148585 0
-0.0099999914 -0.20548868 -0.0017323362 0
-0.010000003 -0.20531753 0.0016335268 0
-0.010000017 -0.20541885 0.0047256164 0
-0.010000025 -0.205516 0.0073244176 0
-0.0098130116 -0.20570266 0.0096550444 0
-0.0073077963 -0.20544536 -0.0099992808 0
-0.0075191092 -0.20499755 0.010000716 0
-0.0046460689 -0.20548046 -0.0099992715 0
-0.0044136103 -0.2053787 0.010000726 0
-0.0016429714 -0.20541169 -0.0099992631 0
-0.0015537958 -0.20568594 0.010000739 0
0.0015572755 -0.20550613 -0.009999251 0
0.0014348627 -0.20525673 0.010000749 0
0.0043841619 -0.20541097 -0.009999238 0
0.0043944274 -0.20545809 0.01000076 0
0.0075779282 -0.20547995 -0.0099992277 0
0.0074591087 -0.20566654 0.01000077 0
0.009789845 -0.20529586 -0.009776881 0
0.010000028 -0.20535193 -0.0074855667 0
0.010000014 -0.2055238 -0.0043703979 0
0.010000004 -0.20556416 -0.0016360605 0
0.009999997 -0.20550427 0.0012005039 0
0.0099999839 -0.20544688 0.0045363307 0
0.0099999709 -0.20543972 0.007663107 0
0.0096829124 -0.20568953 0.0097221201 0
-0.0097057838 -0.2024321 -0.0097095966 0
-0.0099999728 -0.20254681 -0.0073603909 0
-0.009999983 -0.20250921 -0.0044441377 0
-0.0099999942 -0.20238605 -0.0019253494 0
-0.010000007 -0.20220529 0.0016854504 0
-0.010000017 -0.20265225 0.0042347992 0
-0.010000025 -0.20226671 0.007456413 0
-0.0097414022 -0.20244926 0.0097715203 0
-0.0074567366 -0.20277162 -0.0099992929 0
-0.0075828978 -0.20245685 0.010000708 0
-0.0043699127 -0.20252496 -0.0099992817 0
-0.0044829878 -0.20275331 0.01000072 0
-0.0014384728 -0.20261182 -0.0099992733 0
-0.001427545 -0.20279588 0.010000727 0
0.0014465016 -0.20257023 -0.0099992584 0
0.0012859073 -0.20271979 0.010000739 0
0.0045476416 -0.20265831 -0.0099992501 0
0.0044035385 -0.20269017 0.010000749 0
0.0074192267 -0.20253584 -0.0099992398 0
0.0074493308 -0.20260955 0.010000761 0
0.009510464 -0.20254849 -0.009858978 0
0.010000027 -0.202162 -0.0076361997 0
0.010000017 -0.20258649 -0.004341492 0
0.010000004 -0.20266874 -0.0014801726 0
0.0099999951 -0.2028189 0.0013297222 0
0.0099999812 -0.20270152 0.0046279333 0
0.0099999728 -0.2023735 0.0074057993 0
0.0097596226 -0.20255688 0.009748715 0
-0.0096493876 -0.19920385 -0.0098711401 0
-0.0099999718 -0.19941342 -0.0074031292 0
-0.0099999821 -0.19956183 -0.0044307848 0
-0.0099999961 -0.19960485 -0.001363211 0
-0.010000003 -0.1994427 0.0010865687 0
-0.010000017 -0.19975948 0.0048069092 0
-0.010000028 -0.19951443 0.0071368758 0
-0.0096298279 -0.1993518 0.0098734889 0
-0.0074429545 -0.19987735 -0.0099993022 0
-0.007934696 -0.1995845 0.010000695 0
-0.0045475252 -0.19933395 -0.0099992966 0
-0.0043706191 -0.19953951 0.010000708 0
-0.0013260499 -0.19967021 -0.0099992817 0
-0.0013983294 -0.19941619 0.010000716 0
0.0015161362 -0.19936235 -0.0099992743 0
0.001302568 -0.19970638 0.010000726 0
0.0045050415 -0.19945474 -0.0099992622 0
0.0045000566 -0.19958359 0.01000074 0
0.0074663563 -0.19971375 -0.0099992491 0
0.0074992138 -0.19943339 0.010000749 0
0.0097847143 -0.19959877 -0.0097334646 0
0.010000027 -0.1996617 -0.0075043244 0
0.010000018 -0.19939983 -0.0047702561 0
0.010000005 -0.19948578 -0.001562372 0
0.0099999951 -0.19958006 0.001581686 0
0.0099999839 -0.19926853 0.0046210433 0
0.0099999746 -0.19943851 0.0073047997 0
0.0097040813 -0.19974363 0.0097417776 0
-0.0097676953 -0.19683823 -0.0097571742 0
-0.0099999718 -0.19626568 -0.0075197318 0
-0.0099999839 -0.19671343 -0.0047357357 0
-0.0099999923 -0.19655535 -0.001449435 0
-0.010000004 -0.19667652 0.0013889846 0
-0.010000015 -0.19636524 0.004251773 0
-0.010000025 -0.19632201 0.0074361912 0
-0.0098327361 -0.1963746 0.0097530149 0
-0.0074282326 -0.19654781 -0.0099993143 0
-0.0072460165 -0.19645576 0.010000683 0
-0.0048151561 -0.19644611 -0.0099993069 0
-0.0043000798 -0.19660169 0.010000697 0
-0.0018153717 -0.19651219 -0.0099992948 0
-0.0013418207 -0.1962596 0.010000705 0
0.0015391569 -0.19644275 -0.0099992845 0
0.001653303 -0.19651689 0.010000716 0
0.0045754286 -0.19641136 -0.0099992715 0
0.004383618 -0.1965096 0.010000729 0
0.007610539 -0.19644365 -0.0099992603 0
0.007742078 -0.19655001 0.010000741 0
0.0097165694 -0.1964687 -0.0097861169 0
0.010000028 -0.19649045 -0.0074548502 0
0.010000015 -0.1965467 -0.0045903632 0
0.010000005 -0.19651195 -0.0014067234 0
0.0099999923 -0.19637169 0.0019201946 0
0.0099999849 -0.19636552 0.0044006649 0
0.0099999718 -0.19649604 0.0075617735 0
0.0096968133 -0.19662455 0.009838813 0
-0.0096885646 -0.19354632 -0.0097814342 0
-0.00999997 -0.19344756 -0.0076513174 0
-0.0099999821 -0.19332801 -0.0046972935 0
-0.0099999923 -0.19343866 -0.0016220311 0
-0.010000004 -0.19373684 0.0015388619 0
-0.010000016 -0.19328246 0.0046176477 0
-0.01000003 -0.19352449 0.0077236705 0
-0.0098148063 -0.19356132 0.0097399037 0
-0.0075909761 -0.19340681 -0.0099993264 0
-0.0077530309 -0.1936637 0.010000674 0
-0.0043992307 -0.19334811 -0.0099993153 0
-0.0043966458 -0.19347318 0.010000683 0
-0.0013072613 -0.19333164 -0.0099993031 0
-0.0015641744 -0.19365166 0.010000695 0
0.0014267394 -0.19323333 -0.0099992957 0
0.0015613883 -0.19336601 0.010000705 0
0.004421744 -0.19344836 -0.0099992827 0
0.0046436726 -0.19322199 0.010000715 0
0.0075210929 -0.19337764 -0.0099992733 0
0.0075604855 -0.19361401 0.010000727 0
0.0097525427 -0.19395186 -0.0097722234 0
0.010000025 -0.19347061 -0.0074265967 0
0.010000016 -0.19330256 -0.0045922506 0
0.010000006 -0.19346961 -0.0013543745 0
0.0099999933 -0.19364196 0.0015487992 0
0.0099999849 -0.19318973 0.0043407893 0
0.0099999728 -0.19353777 0.0076178671 0
0.0097744325 -0.1936539 0.0097692711 0
-0.009800965 -0.19041678 -0.0096994732 0
-0.0099999756 -0.19055851 -0.0072534359 0
-0.0099999839 -0.19045325 -0.0044738012 0
-0.0099999933 -0.19012822 -0.0015298987 0
-0.010000005 -0.19073083 0.001369727 0
-0.010000016 -0.19047575 0.0043558627 0
-0.010000029 -0.19040132 0.0075103091 0
-0.0097571574 -0.19050728 0.0096917022 0
-0.007664938 -0.19045864 -0.0099993367 0
-0.007243671 -0.19051315 0.010000661 0
-0.0044235946 -0.19063576 -0.0099993227 0
-0.0045005898 -0.19032191 0.010000673 0
-0.0014201778 -0.19019011 -0.0099993162 0
-0.0015321551 -0.19066951 0.010000685 0
0.0013189482 -0.19081005 -0.0099993022 0
0.0015937964 -0.19081812 0.010000695 0
0.0043932847 -0.19022872 -0.0099992948 0
0.0048335977 -0.1906396 0.010000708 0
0.0076294173 -0.19059235 -0.0099992827 0
0.0074276878 -0.19067255 0.010000716 0
0.0097446488 -0.19067872 -0.009684179 0
0.010000025 -0.19054811 -0.007629877 0
0.010000017 -0.19053884 -0.0044904766 0
0.010000004 -0.19025756 -0.0016359448 0
0.0099999923 -0.19051103 0.0016529032 0
0.0099999839 -0.19032069 0.0046027526 0
0.00999997 -0.1905957 0.0076619168 0
0.0097174607 -0.19004394 0.0098111853 0
-0.0098346686 -0.18768366 -0.0096183894 0
-0.0099999728 -0.18724528 -0.0074160825 0
-0.0099999849 -0.18730898 -0.0044375826 0
-0.0099999942 -0.18738958 -0.0014848647 0
-0.010000003 -0.18751347 0.0013105444 0
-0.010000016 -0.18737248 0.0043409332 0
-0.010000028 -0.18742712 0.0074192886 0
-0.0097965989 -0.1874714 0.0096234754 0
-0.0072843437 -0.18747729 -0.0099993479 0
-0.0073043657 -0.18732047 0.010000653 0
-0.0044883243 -0.18748441 -0.0099993357 0
-0.0045008557 -0.18756771 0.010000662 0
-0.0014113236 -0.18753031 -0.0099993274 0
-0.0014133267 -0.18725316 0.010000672 0
0.0014168336 -0.18746147 -0.0099993143 0
0.0013290958 -0.18770574 0.010000682 0
0.0044200327 -0.18751462 -0.009999305 0
0.0046098349 -0.18741024 0.010000695 0
0.0075357272 -0.18739936 -0.0099992957 0
0.0075692302 -0.18742234 0.010000706 0
0.009853852 -0.18790491 -0.0096981181 0
0.010000027 -0.18764025 -0.0077997665 0
0.010000014 -0.18764615 -0.0045456509 0
0.010000002 -0.18759309 -0.0013259639 0
0.0099999979 -0.18717341 0.0011202919 0
0.0099999821 -0.18735377 0.004738058 0
0.0099999737 -0.18752696 0.0073850048 0
0.0097231464 -0.18745135 0.0098433001 0
-0.0098040747 -0.18462302 -0.0097830603 0
-0.0099999718 -0.18465343 -0.0075732921 0
-0.0099999821 -0.18437383 -0.0045598652 0
-0.0099999933 -0.18473329 -0.001426507 0
-0.010000007 -0.1843726 0.0018207749 0
-0.010000017 -0.18458177 0.0045738816 0
-0.010000029 -0.1846036 0.0075715668 0
-0.0096087456 -0.18431902 0.0098714652 0
-0.0072726556 -0.18447021 -0.00999936 0
-0.0074596643 -0.18435797 0.01000064 0
-0.0047477852 -0.18445808 -0.0099993497 0
-0.004215627 -0.1846171 0.010000654 0
-0.0016669919 -0.18456641 -0.0099993395 0
-0.0013569822 -0.18455909 0.010000663 0
0.0017848605 -0.18466137 -0.0099993227 0
0.0018445771 -0.18443692 0.010000675 0
0.0044635618 -0.18469426 -0.0099993162 0
0.0045649139 -0.18447645 0.010000686 0
0.0073798602 -0.18453135 -0.009999305 0
0.0075606769 -0.18447675 0.010000694 0
0.0097269444 -0.18449715 -0.0097843939 0
0.010000029 -0.18405218 -0.0074503301 0
0.010000017 -0.18466456 -0.0045978613 0
0.010000006 -0.18442942 -0.0014775449 0
0.0099999942 -0.18421286 0.0016751922 0
0.0099999839 -0.18470043 0.004352951 0
0.0099999728 -0.18443993 0.0076930686 0
0.0095705297 -0.18412076 0.0098436056 0
-0.0097910101 -0.18151279 -0.0097683016 0
-0.0099999737 -0.1811464 -0.0075240918 0
-0.009999983 -0.18114652 -0.004293384 0
-0.0099999961 -0.1815708 -0.0013323725 0
-0.010000004 -0.18157808 0.0014320534 0
-0.010000018 -0.18141039 0.0045255362 0
-0.010000026 -0.18148269 0.007505246 0
-0.0098146228 -0.18194677 0.0097326143 0
-0.007521566 -0.18167295 -0.0099993674 0
-0.0077153724 -0.18171418 0.010000628 0
-0.0043797516 -0.1817098 -0.0099993572 0
-0.0043998361 -0.18149377 0.01000064 0
-0.0013970901 -0.18159097 -0.009999346 0
-0.0015850234 -0.18139951 0.010000653 0
0.001632625 -0.18158299 -0.0099993367 0
0.001460146 -0.18156762 0.010000662 0
0.0044528064 -0.1814741 -0.0099993283 0
0.0045590615 -0.18184368 0.010000673 0
0.0072133341 -0.18185903 -0.0099993162 0
0.0074226731 -0.18136738 0.010000684 0
0.0097636692 -0.18134165 -0.0096841874 0
0.010000024 -0.18177451 -0.0072818347 0
0.010000013 -0.18157031 -0.0045015169 0
0.010000003 -0.18149628 -0.0013479217 0
0.0099999923 -0.1815238 0.0018400837 0
0.0099999839 -0.18170384 0.0046465979 0
0.0099999737 -0.18148305 0.0073933098 0
0.0097608622 -0.18156952 0.0097480463 0
-0.0097898608 -0.17833064 -0.0097445566 0
-0.00999997 -0.17872542 -0.0076933787 0
-0.0099999849 -0.17838357 -0.0044192141 0
-0.0099999961 -0.17842492 -0.0014452713 0
-0.010000005 -0.17849471 0.0015662076 0
-0.010000014 -0.17831841 0.0042967051 0
-0.010000026 -0.17862438 0.0072074751 0
-0.0096298037 -0.17834999 0.009837891 0
-0.0074938573 -0.17830957 -0.0099993786 0
-0.0074024387 -0.17838989 0.010000619 0
-0.004758548 -0.1785063 -0.0099993693 0
-0.004475161 -0.17841183 0.010000629 0
-0.0016517632 -0.17835496 -0.0099993609 0
-0.0014205134 -0.17866455 0.010000638 0
0.0016453376 -0.17838222 -0.0099993488 0
0.0017179764 -0.17834397 0.010000651 0
0.0046618567 -0.17854835 -0.0099993376 0
0.0045444537 -0.17837325 0.010000661 0
0.0075762668 -0.1784384 -0.0099993246 0
0.0076246043 -0.17864463 0.010000675 0
0.0096324794 -0.17883658 -0.0097879237 0
0.010000025 -0.17870894 -0.0074475263 0
0.010000014 -0.17849261 -0.0043872274 0
0.010000006 -0.17863372 -0.0014549983 0
0.0099999942 -0.17841436 0.0014762318 0
0.0099999839 -0.17872712 0.0045136595 0
0.0099999709 -0.17842056 0.0075531141 0
0.0097442307 -0.17878443 0.0097661512 0
-0.0096304314 -0.17571737 -0.0097928299 0
-0.0099999728 -0.17507155 -0.0073723206 0
-0.0099999812 -0.17536233 -0.0047597289 0
-0.009999997 -0.17523886 -0.0011590659 0
-0.010000005 -0.17581232 0.0012153191 0
-0.010000016 -0.17549075 0.0046449313 0
-0.010000027 -0.17551845 0.0073500145 0
-0.0098321252 -0.17548227 0.0096639385 0
-0.0078639751 -0.17555901 -0.0099993935 0
-0.0074657183 -0.17528948 0.010000606 0
-0.004409146 -0.17530581 -0.0099993823 0
-0.0044516702 -0.17531735 0.010000619 0
-0.0014719296 -0.17526141 -0.0099993711 0
-0.001494015 -0.17541422 0.010000631 0
0.0016566112 -0.17567016 -0.0099993572 0
0.0014649498 -0.17575631 0.01000064 0
0.004553711 -0.17554687 -0.009999346 0
0.0043247808 -0.17552248 0.01000065 0
0.0076436456 -0.17584129 -0.0099993367 0
0.0075943829 -0.17564684 0.010000662 0
0.0097240433 -0.17576107 -0.0097051347 0
0.010000029 -0.17539707 -0.0076943394 0
0.010000015 -0.17561038 -0.0046225348 0
0.010000005 -0.17555481 -0.0012788048 0
0.0099999942 -0.17547725 0.0013352334 0
0.0099999839 -0.1752128 0.0046380735 0
0.0099999709 -0.17588386 0.0076779895 0
0.0098160515 -0.17547072 0.0095965508 0
-0.0097361682 -0.17242725 -0.0097709075 0
