# .PCD v0.7 - Point Cloud Data file format
VERSION 0.7
FIELDS x y z rgb
SIZE 4 4 4 4
TYPE F F F F
COUNT 1 1 1 1
WIDTH 1163
HEIGHT 1
VIEWPOINT 0 0 0 1 0 0 0
POINTS 1163
DATA ascii
-0.0034935353 -0.20231153 -0.0035467867 0
-0.0046379198 -0.20248349 -0.0015534902 0
-0.0045853104 -0.20226435 0.0015051251 0
-0.0034883046 -0.2023731 0.0034599798 0
-0.0015401457 -0.20254388 -0.0046846848 0
-0.0015516115 -0.2026173 0.004591492 0
0.0013630182 -0.2025326 -0.004750771 0
0.0013515844 -0.20237692 0.0046455096 0
0.0035228375 -0.20235509 -0.0035223835 0
0.0046690148 -0.2026218 -0.0014056164 0
0.0045269746 -0.20238546 0.0016743714 0
0.003524031 -0.20251167 0.0034183094 0
-0.0036256695 -0.19948226 -0.0034120264 0
-0.0046224869 -0.19960961 -0.001560344 0
-0.0046095867 -0.19945173 0.0014382227 0
-0.0035115201 -0.19970833 0.0034271132 0
-0.0015774231 -0.19956696 -0.0047116699 0
-0.0016969956 -0.1995794 0.0045269066 0
0.0016125075 -0.19944341 -0.0046732989 0
0.0014787363 -0.19937415 0.0046028183 0
0.0034845406 -0.19938856 -0.0035587272 0
0.0046215006 -0.19960119 -0.0015547135 0
0.0045841015 -0.19955435 0.0015610323 0
0.0034967214 -0.19940428 0.003446263 0
-0.0035429553 -0.19633445 -0.0035005326 0
-0.0046256161 -0.19668132 -0.0015798925 0
-0.0046268227 -0.19655663 0.00139376 0
-0.003501297 -0.19640668 0.0034397629 0
-0.001339705 -0.19643396 -0.0047796182 0
-0.0017297093 -0.19634931 0.0045313518 0
0.0014150877 -0.19654025 -0.0047483877 0
0.0014644259 -0.19661549 0.0046111201 0
0.0035191008 -0.19640008 -0.0035209712 0
0.0046416875 -0.19655271 -0.0014377109 0
0.0045912731 -0.19649355 0.0015501624 0
0.0035426738 -0.19647765 0.0033971553 0
-0.0035382083 -0.19354866 -0.0035102223 0
-0.0045965323 -0.19360545 -0.0016360081 0
-0.0045882021 -0.19360967 0.0015221677 0
-0.0034752127 -0.19354378 0.00347069 0
-0.0015303629 -0.1934215 -0.0047127344 0
-0.0016855216 -0.19350636 0.0045489571 0
0.0014912401 -0.19336592 -0.00471796 0
0.0015683396 -0.19346009 0.0045862338 0
0.0034462402 -0.19367225 -0.0035885903 0
0.0046078195 -0.19325602 -0.0016472519 0
0.004592238 -0.19354637 0.001505163 0
0.0035028493 -0.19333112 0.0034337656 0
-0.0035806047 -0.19057314 -0.0034496067 0
-0.0045938925 -0.19035563 -0.0016502893 0
-0.0046674106 -0.19063365 0.0012921974 0
-0.0034058732 -0.19052733 0.0035381308 0
-0.001535226 -0.19051737 -0.00469688 0
-0.0015587641 -0.1904064 0.0045905691 0
0.0017250379 -0.19040459 -0.0046271267 0
0.0014911675 -0.19051543 0.0045986557 0
0.0034705151 -0.19062059 -0.0035820669 0
0.0046596969 -0.19053051 -0.0014481628 0
0.0045613176 -0.19061565 0.0015733606 0
0.0034890682 -0.19048671 0.0034545907 0
-0.0035099091 -0.18750788 -0.0035365161 0
-0.0046327221 -0.18749799 -0.0015261158 0
-0.0046226191 -0.18741649 0.0014140279 0
-0.0035367974 -0.18742798 0.0034054127 0
-0.0013964424 -0.18757336 -0.0047360635 0
-0.0016023814 -0.18754923 0.0045825872 0
0.0015968579 -0.18780179 -0.0047000917 0
0.001573688 -0.18748504 0.0045831902 0
0.003537386 -0.18727416 -0.0035106491 0
0.0045914585 -0.18754959 -0.001716143 0
0.0045652888 -0.18752478 0.001593295 0
0.0034861211 -0.18761858 0.0034541972 0
-0.0034361433 -0.18456911 -0.0036104126 0
-0.0046110405 -0.18456024 -0.0016033873 0
-0.0045740707 -0.18450345 0.0015234456 0
-0.0034348301 -0.18475437 0.003501113 0
-0.001641681 -0.18448524 -0.0046596522 0
-0.001648881 -0.18460612 0.0045475694 0
0.0014877532 -0.18448716 -0.004711377 0
0.0016051683 -0.18430375 0.0045749908 0
0.0035170866 -0.18436274 -0.0035339147 0
0.0046198703 -0.18460475 -0.0015915374 0
0.0044853082 -0.18435793 0.0017802388 0
0.0034932694 -0.18464975 0.0034476854 0
-0.003456092 -0.1815671 -0.0035869465 0
-0.0046067256 -0.18164009 -0.0015576892 0
-0.0046141031 -0.18141377 0.0014257989 0
-0.003462631 -0.18150003 0.0034847192 0
-0.0014192527 -0.18132518 -0.0047498783 0
-0.0016982621 -0.18157725 0.004537554 0
0.0014854724 -0.18150321 -0.0047107055 0
0.0013758987 -0.1815763 0.0046298672 0
0.0035299938 -0.18140157 -0.0035149662 0
0.0046215239 -0.18127085 -0.0015811126 0
0.0045448621 -0.1816393 0.0016054111 0
0.0034628392 -0.18145683 0.0034730942 0
-0.0035401848 -0.17833832 -0.0035052774 0
-0.0045724004 -0.1784523 -0.0016984014 0
-0.0045396732 -0.17845234 0.0017049946 0
-0.0035657233 -0.17857532 0.0033713856 0
-0.0015304389 -0.17856249 -0.0046773441 0
-0.0015119278 -0.17843418 0.0045933458 0
0.0015348343 -0.17851478 -0.0047124997 0
0.00153645 -0.17861278 0.0045808102 0
0.0034938804 -0.17863305 -0.0035560078 0
0.0046336288 -0.17863618 -0.0015190633 0
0.0046481807 -0.17850642 0.0013495318 0
0.0035319515 -0.17888099 0.0034119987 0
-0.003470635 -0.17559971 -0.0035712465 0
-0.0046623587 -0.17545858 -0.0014863343 0
-0.0045934375 -0.1755434 0.0014889194 0
-0.0034750008 -0.17555627 0.0034579071 0
-0.0016315536 -0.17548546 -0.0046461639 0
-0.0015771453 -0.17547284 0.0045973635 0
0.0015126863 -0.17549618 -0.0046866522 0
0.0015021517 -0.17536075 0.0045978278 0
0.0034901351 -0.17570108 -0.0035539852 0
0.0045684204 -0.17549333 -0.0017422953 0
0.0045017297 -0.17538495 0.0017456088 0
0.0035337275 -0.17545588 0.0034047177 0
-0.0035123639 -0.1725547 -0.0035338111 0
-0.0046463269 -0.17250916 -0.001499334 0
-0.0045587658 -0.17248851 0.0015909126 0
-0.003512773 -0.17233698 0.0034222142 0
-0.0015987899 -0.1724633 -0.0046783295 0
-0.0015462175 -0.17250994 0.0046131704 0
0.0015569929 -0.17246908 -0.0046972409 0
0.0016034757 -0.17251182 0.0045558619 0
0.0034564394 -0.17254421 -0.0035833593 0
0.0046409974 -0.17249762 -0.0014942379 0
0.0045477464 -0.17247619 0.0016115331 0
0.0034262701 -0.17242055 0.0035204736 0
-0.0035741131 -0.16950677 -0.0034715796 0
-0.0046342704 -0.16947833 -0.0014716027 0
-0.0046114372 -0.16956863 0.0015023855 0
-0.0034393126 -0.16952763 0.0035032553 0
-0.0016042894 -0.16948549 -0.0046944297 0
-0.0014205755 -0.16950427 0.0046397815 0
0.0014852207 -0.16950294 -0.0046892245 0
0.0018028911 -0.16930439 0.004504364 0
0.0035374914 -0.16933815 -0.0035068989 0
0.0045943251 -0.16946554 -0.0016271226 0
0.0045338655 -0.1696 0.0016529652 0
0.0034929058 -0.16945797 0.0034412809 0
-0.0035702607 -0.16646531 -0.003477256 0
-0.0045904061 -0.16661245 -0.0016933571 0
-0.0046169185 -0.1664805 0.0014624111 0
-0.0033609171 -0.16664177 0.0035786971 0
-0.0015446171 -0.16669084 -0.0046963543 0
-0.0015206557 -0.16640668 0.004614145 0
0.0015766029 -0.1663686 -0.0046997382 0
0.0014256 -0.16664986 0.0046087378 0
0.0035296478 -0.16699284 -0.0035004569 0
0.0045657936 -0.16650762 -0.0017121541 0
0.0046404852 -0.16658704 0.0014055627 0
0.00346808 -0.16689759 0.0034724704 0
-0.003400391 -0.16364065 -0.0036442645 0
-0.0046763662 -0.16352959 -0.0014420211 0
-0.0045566633 -0.16356866 0.001582087 0
-0.0034852929 -0.16353396 0.0034461769 0
-0.0014535659 -0.16329546 -0.0047146031 0
-0.0015443865 -0.16345948 0.0045910315 0
0.0014960798 -0.16338636 -0.004714089 0
0.0016560231 -0.1634087 0.004555481 0
0.0035386183 -0.16355218 -0.0035033915 0
0.0046455446 -0.16341189 -0.0015389714 0
0.0045838933 -0.16358927 0.0015205775 0
0.003498635 -0.16366223 0.0034329572 0
-0.0035544923 -0.1606365 -0.0034863888 0
-0.0045914566 -0.16056074 -0.0017084231 0
-0.0045774658 -0.16063161 0.0015550645 0
-0.0034979926 -0.16058856 0.003448169 0
-0.0015514792 -0.16058797 -0.0046988968 0
-0.0017285381 -0.16052064 0.0045123645 0
0.0015060141 -0.16043682 -0.004711899 0
0.0016459853 -0.16048926 0.0045563444 0
0.0035898299 -0.16064897 -0.0034462132 0
0.0046147923 -0.16041622 -0.0015713476 0
0.004616159 -0.16033977 0.0014877196 0
0.0034223036 -0.16056353 0.0035195842 0
-0.0035487767 -0.15743703 -0.003487871 0
-0.0046024579 -0.15746579 -0.0016266519 0
-0.004585241 -0.15756607 0.0015346484 0
-0.0035350886 -0.15756314 0.0034058357 0
-0.0015769631 -0.157442 -0.0046999292 0
-0.0015861846 -0.15757795 0.0045969211 0
0.0015163155 -0.15756327 -0.0047007119 0
0.0016028617 -0.15756965 0.0045694546 0
0.003466317 -0.15741609 -0.0035803358 0
0.0046515069 -0.15752724 -0.0014936691 0
0.0045782286 -0.15744719 0.0015354698 0
0.0034153117 -0.15741017 0.0035244883 0
-0.0035049061 -0.15441355 -0.0035383166 0
-0.0046981107 -0.15446982 -0.0013195233 0
-0.0045910785 -0.15443139 0.0014866397 0
-0.0034098597 -0.15434691 0.0035264834 0
-0.0014692082 -0.15444189 -0.0047227819 0
-0.0017668603 -0.15449531 0.0045236731 0
0.001725936 -0.15442987 -0.0046280213 0
0.0015184153 -0.15449201 0.004607426 0
0.0036286726 -0.15438938 -0.0034229376 0
0.0046020509 -0.15437745 -0.0016228642 0
0.0045592473 -0.15458082 0.0015875194 0
0.0034961242 -0.15441559 0.0034435682 0
-0.0034530712 -0.15138261 -0.0035846154 0
-0.0046617114 -0.15143384 -0.0014753557 0
-0.0045664874 -0.15153757 0.0016051301 0
-0.0034208915 -0.15152913 0.0035282366 0
-0.0016162274 -0.15143402 -0.0046727876 0
-0.0015637921 -0.15134773 0.00457345 0
0.0016887577 -0.15151188 -0.0046549146 0
0.0017245617 -0.15157536 0.0045516039 0
0.0036327189 -0.15162493 -0.0034025717 0
0.0046667857 -0.1513565 -0.0014602261 0
0.0046142763 -0.1515746 0.0014352914 0
0.0034574228 -0.1514487 0.0034700616 0
-0.0034921383 -0.14834948 -0.0035598958 0
-0.0045972974 -0.14851606 -0.0016154414 0
-0.0045878263 -0.14864841 0.0014644155 0
-0.0034685084 -0.14870134 0.0034792626 0
-0.0016826865 -0.14852266 -0.0046347775 0
-0.0016447823 -0.14861549 0.00455523 0
0.0014856089 -0.14840016 -0.0047095539 0
0.0017326701 -0.14848752 0.0045312541 0
0.003532127 -0.14855409 -0.0035161409 0
0.0045887344 -0.14856759 -0.0016608938 0
0.0045227953 -0.1484701 0.0016254972 0
0.0034504093 -0.148485 0.0034809127 0
-0.0035742985 -0.14522734 -0.0034663244 0
-0.0046338369 -0.14550886 -0.0015454261 0
-0.0045557464 -0.14544961 0.0015592579 0
-0.0035473309 -0.14548798 0.0033883362 0
-0.0017252695 -0.14539833 -0.0046328818 0
-0.0015490489 -0.14551805 0.0045834561 0
0.001688424 -0.14538121 -0.0046273158 0
0.0015880922 -0.14558975 0.0046011 0
0.0035073387 -0.1454349 -0.0035469157 0
0.0046466147 -0.14551808 -0.0015284463 0
0.0045260359 -0.14557455 0.0016829538 0
0.0035081538 -0.14564489 0.0034417156 0
-0.0034652345 -0.14274164 -0.0035723415 0
-0.0046195909 -0.14245671 -0.0015999399 0
-0.0045455294 -0.14251257 0.0016205156 0
-0.003479416 -0.14278118 0.0034727866 0
-0.001573063 -0.14254725 -0.0047100363 0
-0.001420139 -0.14247166 0.0046387231 0
0.0014018514 -0.14245805 -0.0047289599 0
0.0015894441 -0.1424008 0.0045922482 0
0.0035312485 -0.14239213 -0.0035084346 0
0.00458042 -0.14247921 -0.0017098385 0
0.0046242662 -0.14232481 0.0013926236 0
0.0035585868 -0.14271581 0.00337947 0
-0.0035418563 -0.13966198 -0.0035037703 0
-0.0046488005 -0.13934535 -0.0015252162 0
-0.0045305262 -0.13949247 0.0016805058 0
-0.0034976157 -0.13952102 0.0034414094 0
-0.001577245 -0.13949391 -0.0047012386 0
-0.0013621988 -0.13953596 0.004651031 0
0.0015788141 -0.13937962 -0.0046855537 0
0.0015923751 -0.13943638 0.0045678415 0
0.0035409909 -0.13945197 -0.0034959144 0
0.0045872275 -0.13949174 -0.0016935701 0
0.0045683812 -0.13944869 0.0015872361 0
0.0034676434 -0.13956761 0.0034717051 0
-0.0034726253 -0.13667421 -0.0035714819 0
-0.0046245689 -0.13646933 -0.0015729294 0
-0.0046164873 -0.1365578 0.0014921516 0
-0.0034730306 -0.13653204 0.0034624466 0
-0.0015975677 -0.13665283 -0.0046770233 0
-0.0014665801 -0.13655534 0.004615352 0
0.0014008357 -0.13646993 -0.0047453237 0
0.0016547905 -0.13645004 0.0045416555 0
0.0035864715 -0.13640398 -0.0034575996 0
0.0046525276 -0.1364045 -0.0015037778 0
0.0045771939 -0.136695 0.0015705609 0
0.0034134637 -0.13649897 0.0035333843 0
-0.0035049412 -0.13347542 -0.0035285184 0
-0.0045677535 -0.13347839 -0.0017366935 0
-0.0045948974 -0.13359737 0.0014650067 0
-0.00348305 -0.13344614 0.0034670664 0
-0.0017853067 -0.13355502 -0.0046213074 0
-0.0016202703 -0.13359192 0.0045488062 0
0.0015467464 -0.13356124 -0.0046964376 0
0.0015223552 -0.13353717 0.0045882054 0
0.0035633256 -0.13350178 -0.0034716635 0
0.0046489011 -0.13344616 -0.0014843702 0
0.0045799525 -0.13358784 0.001503035 0
0.0034496242 -0.13350552 0.0034981843 0
-0.0035362025 -0.13042891 -0.0035138773 0
-0.0045378525 -0.13033408 -0.0018235794 0
-0.0045559905 -0.1305066 0.0016170455 0
-0.0034552214 -0.13036552 0.0034852996 0
-0.0015838653 -0.13063709 -0.0046810303 0
-0.0015317404 -0.13054982 0.0045977514 0
0.0017096787 -0.13078392 -0.0046410584 0
0.0015589535 -0.13043764 0.0045997906 0
0.0035379434 -0.13068636 -0.0035015144 0
0.0046085841 -0.130606 -0.001586506 0
0.0045594228 -0.1304217 0.0016010505 0
0.0035083764 -0.13066377 0.0034309293 0
-0.0035028779 -0.12747687 -0.0035373094 0
-0.004650285 -0.12757498 -0.0014993936 0
-0.0046289708 -0.12746602 0.0014055056 0
-0.0034700455 -0.12724249 0.0034596871 0
-0.001544488 -0.12761901 -0.0047018388 0
-0.0016188411 -0.127367 0.0045638969 0
0.0014740924 -0.12756674 -0.0047125006 0
0.0014645875 -0.12772629 0.0046101226 0
0.0035214934 -0.12743273 -0.0035225239 0
0.0046246001 -0.12763973 -0.0015788334 0
0.0046180119 -0.12745015 0.0014262458 0
0.003437177 -0.12722458 0.0035033331 0
-0.0034806826 -0.12455477 -0.0035644816 0
-0.0046291356 -0.12441897 -0.0015425774 0
-0.0045687403 -0.12454242 0.0015594559 0
-0.0034587551 -0.12437841 0.0034798908 0
-0.0017168755 -0.12462402 -0.004616865 0
-0.001594678 -0.12447131 0.0045915362 0
0.0017296697 -0.12451938 -0.0046497728 0
0.0015667443 -0.12463886 0.0045986064 0
0.0035475232 -0.12443814 -0.0034916734 0
0.0046965894 -0.12461917 -0.0013618199 0
0.0046321573 -0.12450742 0.0014128073 0
0.0035064474 -0.12461884 0.0034397182 0
-0.0035658309 -0.12176988 -0.0034734085 0
-0.0046705105 -0.1214266 -0.0014181556 0
-0.0045196125 -0.12155096 0.0016803327 0
-0.0034204044 -0.1217681 0.0035278059 0
-0.0015608266 -0.1218283 -0.0046932711 0
-0.001798393 -0.12152267 0.0045024897 0
0.0018134163 -0.12160751 -0.0045923642 0
0.00166112 -0.12154099 0.0045518898 0
0.0034373179 -0.12138729 -0.0036045131 0
0.0045788884 -0.12155138 -0.0017013972 0
0.0046105376 -0.12147331 0.0014206475 0
0.0034775659 -0.12151749 0.0034624366 0
-0.003514268 -0.11853869 -0.0035259367 0
-0.0045991782 -0.11839316 -0.0016081219 0
-0.0045538312 -0.11856496 0.0015682083 0
-0.0034853814 -0.11868556 0.0034658525 0
-0.0015263075 -0.11854245 -0.0046944697 0
-0.0015032899 -0.11842834 0.0045961174 0
0.0014894061 -0.11864395 -0.0047157761 0
0.0014821178 -0.1183392 0.0046062693 0
0.0035046665 -0.11851157 -0.0035329761 0
0.004624174 -0.11855656 -0.0015249918 0
0.0045805303 -0.11874209 0.0015535661 0
0.0034969002 -0.1184812 0.0034365801 0
-0.0035450838 -0.11590563 -0.003495625 0
-0.0046529523 -0.11551706 -0.0015063331 0
-0.0046382118 -0.11546908 0.0014075337 0
-0.0034632469 -0.11590209 0.0034789792 0
-0.0016870063 -0.11561572 -0.0046651023 0
-0.0015842678 -0.11556841 0.0045908387 0
0.0015308816 -0.11578105 -0.0046827816 0
0.0015935792 -0.11561563 0.004567415 0
0.0035246112 -0.11535229 -0.0035184254 0
0.0046396358 -0.11543632 -0.0015525569 0
0.0045795119 -0.11555421 0.0015460175 0
0.003434364 -0.11577498 0.0035023766 0
-0.0035422812 -0.11225264 -0.0035011983 0
-0.0046565523 -0.11259804 -0.001439328 0
-0.0045600357 -0.11243723 0.001593922 0
-0.0033926319 -0.11233357 0.0035566308 0
-0.001861983 -0.11254425 -0.0045875129 0
-0.001591799 -0.11242343 0.004580257 0
0.0017198881 -0.11249732 -0.004637524 0
0.0016038272 -0.11254279 0.0045628892 0
0.0035667422 -0.11237344 -0.0034851318 0
0.0045705009 -0.11259995 -0.001724533 0
0.0045464477 -0.11260717 0.0016138323 0
0.0034090064 -0.11258128 0.0035252967 0
-0.0034969733 -0.10961758 -0.0035508159 0
-0.0046209088 -0.10949954 -0.0015686927 0
-0.0045321491 -0.10970185 0.0016076834 0
-0.0034840347 -0.10955316 0.0034616424 0
-0.0014112376 -0.10938167 -0.0047436445 0
-0.001616257 -0.10945248 0.0045691398 0
0.0015857447 -0.10949949 -0.0046807313 0
0.0014149988 -0.10946819 0.004638473 0
0.0035893486 -0.10929471 -0.0034516803 0
0.0046594301 -0.10957517 -0.0014502931 0
0.0045613959 -0.10949529 0.0015924014 0
0.0035022786 -0.10952912 0.0034456444 0
-0.003471697 -0.10644872 -0.0035706491 0
-0.0046432451 -0.10642055 -0.0014715136 0
-0.0046167234 -0.10644205 0.0014528478 0
-0.0035207181 -0.10654929 0.0034206451 0
-0.0015316539 -0.10653246 -0.0047057956 0
-0.0015068646 -0.10646766 0.0046020835 0
0.0017186059 -0.10666744 -0.0046338458 0
0.001494772 -0.10648198 0.004578067 0
0.003546498 -0.10615986 -0.0034936892 0
0.0046468014 -0.10636566 -0.0014926457 0
0.0045532277 -0.10664212 0.00161262 0
0.0035120535 -0.10662115 0.0034353826 0
-0.0035635321 -0.10341025 -0.0034818326 0
-0.0046124072 -0.10370099 -0.0016341343 0
-0.004565998 -0.10353927 0.0015724706 0
-0.0034264438 -0.10359079 0.0035157036 0
-0.0015769043 -0.1035825 -0.0046905498 0
-0.0017417624 -0.10344083 0.0045160432 0
0.0016418955 -0.10325273 -0.004667561 0
0.0016758251 -0.10357226 0.0045716628 0
0.0035548105 -0.10345861 -0.0034917118 0
0.004593343 -0.1034442 -0.001637825 0
0.0044842539 -0.10348083 0.0017650949 0
0.0035540808 -0.10354462 0.0033845687 0
-0.0041461918 -0.10000057 -0.0040938072 0
-0.0047246721 -0.10058685 -0.0016468524 0
-0.0047327285 -0.10026384 0.0016400343 0
-0.0040736152 -0.10002744 0.0040482567 0
-0.0016691554 -0.10066217 -0.0047283024 0
-0.0017231442 -0.10031354 0.0046682227 0
0.0017309355 -0.10046797 -0.0047540371 0
0.0017847357 -0.10037368 0.0046959124 0
0.0040649655 -0.10006858 -0.0041620908 0
0.0047331802 -0.10054572 -0.0016189816 0
0.0047167069 -0.10049237 0.0015638837 0
0.0040007904 -0.10007358 0.0041200565 0
-0.0044327895 -0.097493708 -0.0045694564 0
-0.004999992 -0.097393058 -0.0014669674 0
-0.0050000027 -0.097463816 0.0015344738 0
-0.0045366329 -0.097489201 0.0044260565 0
-0.0015906086 -0.09747842 -0.0049996502 0
-0.0015271173 -0.097608916 0.0049656173 0
0.0016504596 -0.097483493 -0.0049996381 0
0.0014803617 -0.097365819 0.0049355533 0
0.0045860657 -0.097575508 -0.004382174 0
0.0050000031 -0.097684965 -0.0014535295 0
0.004999991 -0.097529799 0.0016446535 0
0.0045298557 -0.097518586 0.0043788138 0
-0.0044768373 -0.094316468 -0.0046178047 0
-0.004999992 -0.094503239 -0.0013448362 0
-0.0050000027 -0.094429918 0.0013632108 0
-0.0044395225 -0.094585113 0.00456313 0
-0.0016272155 -0.094642505 -0.0049996609 0
-0.0014386642 -0.094492644 0.0049647242 0
0.0013965461 -0.094464414 -0.0049996506 0
0.0016778543 -0.094555162 0.0049335691 0
0.0044925008 -0.094463371 -0.0045489296 0
0.0050000027 -0.094444521 -0.0014765371 0
0.004999992 -0.094477184 0.0014859833 0
0.0045013125 -0.094402999 0.004543561 0
-0.0044472865 -0.091516711 -0.0044324943 0
-0.0049999915 -0.091560066 -0.0014421452 0
-0.0050000018 -0.091667794 0.0013438737 0
-0.0044566938 -0.091498099 0.0044235522 0
-0.0015936139 -0.091545619 -0.0049996711 0
-0.001537741 -0.091738991 0.0049657044 0
0.0014481664 -0.091455087 -0.0049996614 0
0.001384457 -0.091487058 0.0049364902 0
0.0043653436 -0.091501571 -0.0045458865 0
0.0050000031 -0.091405556 -0.001570206 0
0.0049999924 -0.091405883 0.0014325038 0
0.0045147086 -0.091563411 0.0042508631 0
-0.0044782832 -0.088507064 -0.0045111668 0
-0.0049999924 -0.08852081 -0.0014581662 0
-0.0050000022 -0.088630565 0.0014485084 0
-0.0045697372 -0.088482156 0.0044583585 0
-0.0015058958 -0.088578954 -0.0049996818 0
-0.0014783647 -0.08850611 0.004965099 0
0.0014515755 -0.088360436 -0.004999673 0
0.0014280096 -0.088711575 0.0049360464 0
0.0045378604 -0.08833649 -0.0044614612 0
0.0050000022 -0.0884986 -0.0013270234 0
0.004999991 -0.088548519 0.0015229611 0
0.0044800257 -0.08856719 0.0044625057 0
-0.0045342185 -0.085550204 -0.0045126663 0
-0.0049999924 -0.085743405 -0.0013344232 0
-0.0050000027 -0.085540354 0.0013956574 0
-0.004446784 -0.085635968 0.0044914889 0
-0.0013323203 -0.085508443 -0.0049996926 0
-0.0016264945 -0.085476995 0.0049665687 0
0.0014197115 -0.085373506 -0.0049996832 0
0.001598155 -0.085613623 0.0049343337 0
0.0044019278 -0.085537113 -0.004478863 0
0.0050000031 -0.085522652 -0.0014991912 0
0.0049999915 -0.085465819 0.0016805602 0
0.0045058671 -0.085539892 0.0043213479 0
-0.0046110703 -0.082548395 -0.0044808122 0
-0.0049999924 -0.082472779 -0.0013967759 0
-0.0050000027 -0.082581118 0.0014620915 0
-0.0045699934 -0.082554728 0.0044676112 0
-0.0014250262 -0.082512498 -0.0049997033 0
-0.0013204637 -0.082339779 0.0049634976 0
0.0016043702 -0.082408406 -0.004999693 0
0.0014806106 -0.082449496 0.0049354974 0
0.00458162 -0.082652941 -0.0044632168 0
0.0050000031 -0.082631893 -0.0015372916 0
0.0049999915 -0.082547538 0.0015406503 0
0.0044417917 -0.082614213 0.0045614084 0
-0.0097242296 -0.079176895 -0.0095832283 0
-0.0097518228 -0.079370998 -0.0074185012 0
-0.0098240878 -0.079459392 -0.0045370706 0
-0.0098295575 -0.079357423 -0.0013784491 0
-0.0098230159 -0.079415366 0.0013690599 0
-0.0098373946 -0.079363443 0.0045072488 0
-0.0098478384 -0.079329059 0.007601799 0
-0.0096798046 -0.07912346 0.0097259479 0
-0.0073836423 -0.079444565 -0.0098041315 0
-0.0074808761 -0.079999991 -0.0074979127 0
-0.007444575 -0.079999968 -0.0046607419 0
-0.0073409891 -0.079999961 -0.0013689519 0
-0.0075749764 -0.079999946 0.0015938578 0
-0.0074623777 -0.079999946 0.0046197865 0
-0.0075678849 -0.079999931 0.0072448896 0
-0.0073557226 -0.079284273 0.0098544164 0
-0.0044940417 -0.079330474 -0.00982376 0
-0.0045407983 -0.079999991 -0.0075578978 0
-0.0047861021 -0.080208153 -0.0047198897 0
-0.0052532377 -0.080253221 -0.0015860624 0
-0.0052052299 -0.080283821 0.0014397893 0
-0.0046525742 -0.080157183 0.0048728492 0
-0.0043640547 -0.079999924 0.0073771644 0
-0.0043450692 -0.07928659 0.0098277675 0
-0.0013789206 -0.079361491 -0.009801792 0
-0.0012843356 -0.079999991 -0.0077146604 0
-0.0015744241 -0.080207206 -0.0053516896 0
-0.00149993 -0.080265217 0.0051861424 0
-0.0014839754 -0.079999931 0.007510188 0
-0.0014703617 -0.079261005 0.0098620132 0
0.0014585204 -0.079336718 -0.0098321969 0
0.0012655947 -0.079999976 -0.0072578709 0
0.0015522245 -0.080251426 -0.0051758378 0
0.0014540061 -0.080209352 0.0051355357 0
0.0014775664 -0.079999931 0.0075082341 0
0.0014773832 -0.079318851 0.0098292632 0
0.0045082285 -0.079343081 -0.0098195635 0
0.0045083202 -0.079999983 -0.0074645407 0
0.0047878465 -0.080185585 -0.0047971085 0
0.0052523515 -0.08026135 -0.0016109643 0
0.0052061658 -0.080257729 0.0016035449 0
0.0047256146 -0.080199338 0.0047082151 0
0.0043709651 -0.079999916 0.0076268911 0
0.0045415154 -0.079415001 0.0097876918 0
0.0075203399 -0.079515465 -0.0098101497 0
0.0074420762 -0.079999991 -0.0074463547 0
0.0074241734 -0.079999968 -0.0045504603 0
0.0074761845 -0.079999976 -0.0015504033 0
0.0077003003 -0.079999946 0.0016087812 0
0.0075714388 -0.079999939 0.0046377839 0
0.0074971849 -0.079999946 0.0077655246 0
0.0073613813 -0.079406202 0.0097957002 0
0.0097736176 -0.079176024 -0.0096694529 0
0.0098159304 -0.079383388 -0.0075754942 0
0.0098010926 -0.079384781 -0.0045259553 0
0.0099187205 -0.079319626 -0.0015260339 0
0.009805277 -0.079398461 0.0014092608 0
0.009837064 -0.079389982 0.0045309984 0
0.0098485295 -0.079224341 0.0075806724 0
0.0096700797 -0.079173081 0.0096508283 0
-0.0097751804 -0.076492041 -0.0097719887 0
-0.0099999662 -0.076409198 -0.0076271412 0
-0.0099999793 -0.076525584 -0.004438635 0
-0.0099999905 -0.076477244 -0.0014062988 0
-0.010000001 -0.076442167 0.0015182876 0
-0.010000011 -0.076464564 0.0044902773 0
-0.010000022 -0.07632228 0.0075647924 0
-0.0098115755 -0.076541074 0.0098034684 0
-0.007652048 -0.076506235 -0.0099997465 0
-0.00740202 -0.076376237 0.010000245 0
-0.0044903252 -0.076445341 -0.0099997343 0
-0.0044462103 -0.076358117 0.010000254 0
-0.0014342661 -0.076599397 -0.0099997222 0
-0.0015119563 -0.076539278 0.010000267 0
0.0013344428 -0.076411292 -0.0099997139 0
0.0014418375 -0.076521948 0.010000277 0
0.0045069735 -0.076504625 -0.0099997008 0
0.004458135 -0.07640449 0.010000287 0
0.0075326972 -0.076635018 -0.0099996896 0
0.0074988226 -0.076481946 0.010000298 0
0.009774521 -0.076364115 -0.0097479969 0
0.010000022 -0.076665118 -0.0074934042 0
0.010000011 -0.076606952 -0.0045562563 0
0.0099999998 -0.076476917 -0.0013467681 0
0.0099999895 -0.076425806 0.0014139488 0
0.0099999784 -0.076336116 0.0045248973 0
0.0099999681 -0.0762171 0.0075506037 0
0.0097371656 -0.076479778 0.0097872838 0
-0.0097344676 -0.073495686 -0.0097365389 0
-0.0099999681 -0.073436551 -0.0074822614 0
-0.0099999784 -0.073619567 -0.0045392374 0
-0.0099999905 -0.073489606 -0.0012734662 0
-0.0099999998 -0.073426805 0.0014667242 0
-0.010000011 -0.073307633 0.004543954 0
-0.010000022 -0.073429666 0.0075097163 0
-0.0097087268 -0.073415592 0.0097898468 0
-0.0074826498 -0.073572889 -0.0099997558 0
-0.007440309 -0.073460251 0.010000235 0
-0.0044040843 -0.073559053 -0.0099997446 0
-0.0046558557 -0.073455118 0.010000245 0
-0.0016705523 -0.073449545 -0.0099997353 0
-0.0013595141 -0.073608428 0.010000257 0
0.0015896177 -0.073599584 -0.0099997232 0
0.00144032 -0.073626451 0.010000267 0
0.0045298436 -0.0733665 -0.0099997129 0
0.0046371897 -0.073519453 0.010000278 0
0.0075795515 -0.073376723 -0.0099997027 0
0.0076606772 -0.07364051 0.010000288 0
0.0097575895 -0.073360272 -0.0097701317 0
0.010000022 -0.07351125 -0.00761481 0
0.010000012 -0.073369727 -0.0045385994 0
0.010000001 -0.073517881 -0.0016706254 0
0.0099999895 -0.073392108 0.0014254862 0
0.0099999784 -0.073575079 0.0045537599 0
0.0099999681 -0.073615387 0.0075610881 0
0.0097637055 -0.073422305 0.0097757997 0
-0.009761937 -0.070574574 -0.0097866543 0
-0.009999969 -0.070513271 -0.0074262586 0
-0.0099999774 -0.070508942 -0.0045500514 0
-0.0099999905 -0.070664942 -0.0014656733 0
-0.0099999988 -0.070639826 0.0013659276 0
-0.010000011 -0.070319772 0.0045285886 0
-0.010000023 -0.070603102 0.0073692263 0
-0.0097081587 -0.070682175 0.0098465476 0
-0.0075352383 -0.070605598 -0.0099997669 0
-0.0075832759 -0.070556022 0.010000224 0
-0.0047552423 -0.070275962 -0.0099997586 0
-0.0044865981 -0.07046859 0.010000234 0
-0.0014454171 -0.07055106 -0.0099997446 0
-0.0014738286 -0.070450671 0.010000245 0
0.0015478379 -0.070669286 -0.0099997325 0
0.0015691591 -0.070362173 0.010000255 0
0.0044550495 -0.070361525 -0.0099997241 0
0.004655187 -0.070521526 0.010000267 0
0.007560615 -0.07034228 -0.0099997129 0
0.0075299563 -0.070411615 0.010000277 0
0.009716467 -0.070713058 -0.0097674932 0
0.010000021 -0.070550576 -0.0074370774 0
0.010000012 -0.07036683 -0.0045509022 0
0.0099999998 -0.070551753 -0.001456978 0
0.0099999886 -0.070653558 0.0015761129 0
0.0099999793 -0.070619121 0.0043458142 0
0.0099999672 -0.070525341 0.0074911811 0
0.0097479708 -0.070318267 0.0097677996 0
-0.0097538978 -0.067507811 -0.009767049 0
-0.0099999662 -0.0674816 -0.0076444978 0
-0.0099999784 -0.067492113 -0.0044413111 0
-0.0099999895 -0.067570798 -0.0015582439 0
-0.010000002 -0.067697607 0.0016902918 0
-0.010000012 -0.067594647 0.0045481799 0
-0.010000022 -0.067538589 0.007455443 0
-0.0097717922 -0.067577429 0.0096895518 0
-0.0073992559 -0.067412116 -0.0099997772 0
-0.007562751 -0.067568421 0.010000213 0
-0.0044392701 -0.067475669 -0.009999766 0
-0.0046009663 -0.067699365 0.010000223 0
-0.0014461608 -0.067439474 -0.0099997567 0
-0.0013269843 -0.067372635 0.010000234 0
0.0015968827 -0.067572735 -0.0099997437 0
0.0014481792 -0.067522593 0.010000244 0
0.0045392802 -0.06745369 -0.0099997343 0
0.0044676135 -0.067650601 0.010000256 0
0.0075704022 -0.06747622 -0.0099997232 0
0.0075981827 -0.067533135 0.010000267 0
0.0097849509 -0.067600034 -0.0097583057 0
0.010000021 -0.067445152 -0.00752042 0
0.01000001 -0.067695349 -0.0044363402 0
0.010000001 -0.067621633 -0.0014509468 0
0.0099999905 -0.06753666 0.0015206103 0
0.0099999774 -0.067609124 0.0045362636 0
0.0099999672 -0.067448214 0.0075471061 0
0.0097501399 -0.067634381 0.0096925525 0
-0.0097641358 -0.064578317 -0.0097560072 0
-0.009999969 -0.064622171 -0.0074607809 0
-0.0099999784 -0.064505175 -0.0045014611 0
-0.0099999886 -0.064505994 -0.0015376689 0
-0.010000001 -0.06470447 0.0016269318 0
-0.010000009 -0.064543732 0.0042218417 0
-0.010000022 -0.064414218 0.0074629877 0
-0.0098394714 -0.064241685 0.0096653923 0
-0.0074542877 -0.064457595 -0.0099997874 0
-0.0073689399 -0.064542152 0.010000201 0
-0.0044809044 -0.064646266 -0.0099997772 0
-0.0044137631 -0.064455368 0.010000212 0
-0.0014615608 -0.064468533 -0.009999766 0
-0.0015845891 -0.064541124 0.010000223 0
0.0013583003 -0.064462334 -0.0099997558 0
0.0015439286 -0.064545408 0.010000234 0
0.0044655567 -0.064423203 -0.0099997465 0
0.004412971 -0.064365111 0.010000243 0
0.0073603 -0.064505562 -0.0099997343 0
0.0073756371 -0.064391315 0.010000255 0
0.0097590582 -0.064518109 -0.009814986 0
0.010000023 -0.064509153 -0.0076036039 0
0.010000012 -0.06451793 -0.0045790174 0
0.010000001 -0.064456545 -0.0014206829 0
0.0099999886 -0.064432196 0.0014667658 0
0.0099999774 -0.064459294 0.0047443784 0
0.0099999662 -0.064664714 0.0076309713 0
0.0097582452 -0.064519539 0.0097795734 0
-0.009719274 -0.061459679 -0.0097577991 0
-0.0099999681 -0.061464235 -0.0073465011 0
-0.0099999784 -0.061524767 -0.004582643 0
-0.0099999895 -0.061613161 -0.0015993487 0
-0.0099999988 -0.061454721 0.0014763732 0
-0.010000012 -0.061469071 0.0045841327 0
-0.010000021 -0.061469313 0.0073149689 0
-0.0098061636 -0.061716784 0.009699598 0
-0.0073189852 -0.061460115 -0.0099998005 0
-0.0075574205 -0.061635636 0.010000191 0
-0.0045178458 -0.06149336 -0.0099997884 0
-0.0044750241 -0.061509881 0.010000201 0
-0.0014008143 -0.061464768 -0.0099997763 0
-0.0014553331 -0.061532121 0.010000211 0
0.0013866751 -0.061390489 -0.0099997688 0
0.0015134586 -0.061540902 0.010000222 0
0.0045542377 -0.061497863 -0.0099997558 0
0.004595038 -0.061614864 0.010000234 0
0.0077408617 -0.061617877 -0.0099997427 0
0.0075131943 -0.061521564 0.010000244 0
0.0097243944 -0.061692677 -0.0097668245 0
0.010000022 -0.061551161 -0.0075756507 0
0.010000011 -0.061526798 -0.004373889 0
0.010000001 -0.061559323 -0.0014979976 0
0.0099999895 -0.061574962 0.0016620379 0
0.0099999793 -0.061522413 0.0044342503 0
0.0099999681 -0.061512049 0.0074853124 0
0.0097460598 -0.061545882 0.0097068818 0
-0.0097331842 -0.058337018 -0.009793466 0
-0.0099999681 -0.058388747 -0.0077024079 0
-0.0099999774 -0.058457978 -0.0045166821 0
-0.0099999886 -0.058448724 -0.0014271372 0
-0.010000001 -0.058437869 0.0017064657 0
-0.010000011 -0.058509815 0.0044169412 0
-0.010000021 -0.058407024 0.0075534773 0
-0.0097509054 -0.058432855 0.0097950064 0
-0.0075528724 -0.058419172 -0.0099998098 0
-0.0075525986 -0.058468774 0.010000179 0
-0.0045153955 -0.058513589 -0.0099998005 0
-0.0045009125 -0.05846034 0.010000189 0
-0.0015009784 -0.058470998 -0.0099997893 0
-0.001504736 -0.058715988 0.010000202 0
0.0013912464 -0.058301467 -0.0099997791 0
0.0015707887 -0.058358699 0.010000213 0
0.0046899309 -0.058487009 -0.009999766 0
0.0044456045 -0.058591787 0.010000223 0
0.0074885981 -0.05829544 -0.0099997558 0
0.0076308958 -0.058551677 0.010000235 0
0.0096913874 -0.058592305 -0.0097695254 0
0.010000022 -0.058483858 -0.0074611865 0
0.010000012 -0.058581766 -0.0045448993 0
0.0099999998 -0.058400661 -0.0014775528 0
0.0099999886 -0.058585957 0.0016161466 0
0.0099999784 -0.058534406 0.0045414763 0
0.0099999672 -0.058439545 0.0074537084 0
0.0098184468 -0.058294885 0.0097149089 0
-0.0096363602 -0.055263616 -0.0097982129 0
-0.0099999681 -0.055525586 -0.0074549066 0
-0.0099999793 -0.055394497 -0.0045973249 0
-0.0099999886 -0.055460017 -0.0014507002 0
-0.010000001 -0.055416457 0.0014963736 0
-0.01000001 -0.055539005 0.0044199685 0
-0.010000022 -0.055519328 0.0077047632 0
-0.0097410213 -0.055464409 0.0097888485 0
-0.007482362 -0.055635054 -0.009999821 0
-0.0076680994 -0.055416442 0.010000167 0
-0.0045268224 -0.055673912 -0.0099998098 0
-0.0046226289 -0.055549156 0.01000018 0
-0.0015922377 -0.055430911 -0.0099998005 0
-0.0015745016 -0.055604123 0.01000019 0
0.0015665926 -0.055565644 -0.0099997884 0
0.0017377629 -0.0553842 0.010000202 0
0.0045026285 -0.055503737 -0.0099997763 0
0.0045048892 -0.055592902 0.010000212 0
0.0075799651 -0.055331394 -0.0099997669 0
0.0076322872 -0.055594217 0.010000222 0
0.0097895591 -0.055787314 -0.0097749084 0
0.010000021 -0.055681631 -0.0073741451 0
0.010000012 -0.055556308 -0.0045742961 0
0.0099999988 -0.055495076 -0.0015564138 0
0.0099999895 -0.055468813 0.001626589 0
0.0099999774 -0.055718575 0.0046208212 0
0.0099999672 -0.055625211 0.0074334615 0
0.0097848922 -0.05526454 0.0097725047 0
-0.0098156687 -0.052477673 -0.0097089158 0
-0.0099999672 -0.052458055 -0.0074452106 0
-0.0099999774 -0.05238976 -0.0045561735 0
-0.0099999886 -0.052404318 -0.0014836449 0
-0.0099999998 -0.052402116 0.0014908797 0
-0.010000011 -0.052594066 0.0045014899 0
-0.010000022 -0.052498974 0.007519254 0
-0.0097742593 -0.052492261 0.0098184403 0
-0.007522502 -0.05248671 -0.0099998312 0
-0.0076093473 -0.052322406 0.010000156 0
-0.0043792473 -0.05263035 -0.00999982 0
-0.0047410931 -0.052437779 0.010000166 0
-0.0015018141 -0.052540191 -0.0099998098 0
-0.0015702273 -0.052521452 0.010000179 0
0.0014764812 -0.052394722 -0.0099997995 0
0.0014573962 -0.052261736 0.01000019 0
0.0045557697 -0.052580394 -0.0099997884 0
0.0044349628 -0.052626967 0.010000202 0
0.0074480963 -0.052381024 -0.0099997772 0
0.0074801608 -0.052347459 0.010000211 0
0.0096765747 -0.052553885 -0.0097941244 0
0.010000021 -0.0523002 -0.0073466497 0
0.010000011 -0.052446373 -0.0045728008 0
0.010000001 -0.052478753 -0.0015338487 0
0.0099999895 -0.052358214 0.0015300008 0
0.0099999774 -0.052570771 0.0046452843 0
0.0099999672 -0.052450512 0.0074719144 0
0.0098050609 -0.052435044 0.0097490931 0
-0.0096971951 -0.049319748 -0.0097618084 0
-0.0099999672 -0.049494646 -0.0074885162 0
-0.0099999784 -0.049470473 -0.0043140268 0
-0.0099999886 -0.049559746 -0.0016420875 0
-0.010000001 -0.049395766 0.0015713801 0
-0.010000011 -0.049344175 0.0045035994 0
-0.010000021 -0.049619187 0.0074824835 0
-0.009783172 -0.049397454 0.0096515445 0
-0.0074670296 -0.049444575 -0.0099998424 0
-0.007493454 -0.049406327 0.010000146 0
-0.0045365226 -0.049443848 -0.0099998321 0
-0.0045730872 -0.049495239 0.010000157 0
-0.0014847912 -0.049597364 -0.0099998191 0
-0.0014690434 -0.049560513 0.010000168 0
0.0015548283 -0.049574483 -0.0099998098 0
0.0012991853 -0.04943857 0.010000179 0
0.0044255662 -0.049528606 -0.0099998014 0
0.0043582944 -0.049329437 0.01000019 0
0.0075215157 -0.049417779 -0.0099997893 0
0.0074351542 -0.04960376 0.010000201 0
0.0097657973 -0.04954562 -0.0097193699 0
0.010000022 -0.049681365 -0.0073563512 0
0.010000012 -0.049601953 -0.0046168817 0
0.0099999998 -0.049491882 -0.0014490375 0
0.0099999895 -0.049628444 0.001630504 0
0.0099999784 -0.049633011 0.0044618626 0
0.0099999672 -0.049523238 0.0077016326 0
0.0097507304 -0.049431615 0.0098074097 0
-0.0097548626 -0.046477947 -0.0096964762 0
-0.0099999672 -0.046713065 -0.0076801581 0
-0.0099999784 -0.046526175 -0.0043168506 0
-0.0099999905 -0.046518583 -0.0013850356 0
-0.0099999998 -0.046476685 0.0015853103 0
-0.010000011 -0.046607532 0.0045993165 0
-0.010000023 -0.046609823 0.0076780226 0
-0.0096575515 -0.046313073 0.0098236622 0
-0.0076121711 -0.046527546 -0.0099998554 0
-0.0075132358 -0.046502084 0.010000136 0
-0.0045038816 -0.046427529 -0.0099998442 0
-0.0045897579 -0.046560224 0.010000147 0
-0.0015351541 -0.046549022 -0.0099998312 0
-0.0015786724 -0.046552341 0.010000157 0
0.0014731523 -0.046670467 -0.00999982 0
0.0015707869 -0.04638702 0.010000167 0
0.0043689054 -0.046711568 -0.0099998098 0
0.0044815089 -0.046424501 0.010000178 0
0.0074186153 -0.046453465 -0.0099997995 0
0.0073171598 -0.046378847 0.010000187 0
0.0097826775 -0.046752106 -0.0097507983 0
0.010000021 -0.046494879 -0.0074812626 0
0.010000011 -0.046398338 -0.0046843993 0
0.010000001 -0.046493631 -0.0014206781 0
0.0099999895 -0.04649955 0.001634209 0
0.0099999784 -0.046592124 0.0046189264 0
0.0099999672 -0.046456832 0.0074939216 0
0.0097633172 -0.046390314 0.0097747715 0
-0.0097450875 -0.043503374 -0.0097951237 0
-0.0099999672 -0.043577056 -0.0076480652 0
-0.0099999784 -0.043482937 -0.0044050971 0
-0.0099999895 -0.043563779 -0.001440084 0
-0.010000001 -0.043432541 0.0014942039 0
-0.01000001 -0.043455914 0.0043219486 0
-0.010000021 -0.043658324 0.0075685368 0
-0.0097284522 -0.043402426 0.0097710015 0
-0.0074609122 -0.043504644 -0.0099998638 0
-0.0075664301 -0.043424364 0.010000125 0
-0.0045741899 -0.043559607 -0.0099998536 0
-0.0043881885 -0.043560084 0.010000137 0
-0.0013789517 -0.04352871 -0.0099998415 0
-0.0014528526 -0.043482143 0.010000146 0
0.0015073327 -0.043513302 -0.0099998312 0
0.0016242503 -0.043657307 0.010000158 0
0.0044003902 -0.043655399 -0.00999982 0
0.004540035 -0.043600123 0.010000168 0
0.0074122287 -0.043537345 -0.0099998098 0
0.0072832787 -0.043423608 0.010000179 0
0.0098280543 -0.04362838 -0.0096858423 0
0.010000022 -0.043536421 -0.0074547571 0
0.010000011 -0.043630075 -0.0045678439 0
0.010000001 -0.043515101 -0.0014351725 0
0.0099999895 -0.043533955 0.0015386943 0
0.0099999784 -0.043397795 0.0044989632 0
0.0099999672 -0.043611228 0.0075507369 0
0.0097641321 -0.043574274 0.009683934 0
-0.0097730802 -0.040571716 -0.0097555257 0
-0.009999969 -0.040384769 -0.0074160774 0
-0.0099999793 -0.040470645 -0.0044119116 0
-0.0099999895 -0.040350199 -0.0015250439 0
-0.010000002 -0.040511712 0.0017152645 0
-0.010000011 -0.040389009 0.0045162924 0
-0.010000022 -0.040520392 0.0073646018 0
-0.0097269304 -0.040431432 0.0097418623 0
-0.0074962028 -0.040546939 -0.009999874 0
-0.0076598865 -0.040579811 0.010000113 0
-0.0046182103 -0.040682726 -0.0099998638 0
-0.0046271905 -0.040586296 0.010000124 0
-0.0015210337 -0.040439304 -0.0099998536 0
-0.0015359034 -0.040619735 0.010000138 0
0.0015505643 -0.040596724 -0.0099998424 0
0.0014329061 -0.040460739 0.010000147 0
0.0046192911 -0.040414777 -0.0099998312 0
0.0044775796 -0.040567577 0.010000158 0
0.0075188042 -0.040506769 -0.009999821 0
0.0073522264 -0.040553529 0.010000169 0
0.0096631683 -0.04080509 -0.0097524412 0
0.010000022 -0.040425189 -0.0073988945 0
0.010000011 -0.04049889 -0.0042713783 0
0.010000001 -0.040605731 -0.0015281234 0
0.0099999886 -0.040512159 0.0014599438 0
0.0099999784 -0.04050703 0.0044972538 0
0.0099999681 -0.0405504 0.0074764309 0
0.009732631 -0.040483225 0.0097205257 0
-0.0097574461 -0.037335798 -0.0096750911 0
-0.0099999672 -0.037506647 -0.0073617902 0
-0.0099999784 -0.037604775 -0.0043579834 0
-0.0099999895 -0.037583351 -0.0015466284 0
-0.0099999998 -0.037497114 0.0015101706 0
-0.01000001 -0.037453003 0.0044073914 0
-0.010000021 -0.037428692 0.0075315312 0
-0.0097125946 -0.037457198 0.0097969314 0
-0.0074407919 -0.037267156 -0.0099998871 0
-0.0074192546 -0.037603762 0.010000104 0
-0.0043905363 -0.037480708 -0.009999875 0
-0.0044951108 -0.037563153 0.010000115 0
-0.0015645601 -0.037631396 -0.0099998647 0
-0.0014224639 -0.037465572 0.010000126 0
0.0015923588 -0.037715245 -0.0099998526 0
0.0016649246 -0.037600774 0.010000136 0
0.0043430012 -0.037358854 -0.0099998442 0
0.0042991228 -0.037690252 0.010000146 0
0.0074767075 -0.03746568 -0.0099998321 0
0.0074452609 -0.037613586 0.010000157 0
0.0097086607 -0.037385043 -0.0097502442 0
0.010000022 -0.037560686 -0.0075430814 0
0.01000001 -0.037629455 -0.0044680852 0
0.010000001 -0.0374032 -0.0015656308 0
0.0099999895 -0.037492175 0.0013947529 0
0.0099999784 -0.037513949 0.0044210032 0
0.0099999672 -0.037627567 0.0074782311 0
0.0097513618 -0.037426259 0.0097371684 0
-0.0097471885 -0.03468826 -0.0097590815 0
-0.0099999672 -0.034626149 -0.0073952605 0
-0.0099999793 -0.034449868 -0.0044898628 0
-0.0099999895 -0.034481946 -0.0016104563 0
-0.010000001 -0.034531988 0.001385831 0
-0.010000011 -0.034498245 0.0047542569 0
-0.010000021 -0.034527149 0.00756092 0
-0.0097335149 -0.034526732 0.0097313616 0
-0.0076491069 -0.034546275 -0.0099998973 0
-0.0074992729 -0.034424331 0.010000092 0
-0.0046953717 -0.034694076 -0.0099998862 0
-0.004496729 -0.034254808 0.010000102 0
-0.0013446723 -0.034841862 -0.0099998731 0
-0.0015943281 -0.034491796 0.010000114 0
0.0014603115 -0.034562364 -0.0099998638 0
0.0014894165 -0.034480721 0.010000126 0
0.0042479658 -0.034577481 -0.0099998554 0
0.0044926233 -0.034433238 0.010000135 0
0.0074857599 -0.034452181 -0.0099998424 0
0.0076075224 -0.034615308 0.010000148 0
0.009678686 -0.03451464 -0.0097313561 0
0.010000021 -0.034483854 -0.0075884485 0
0.010000011 -0.034415308 -0.0043103616 0
0.0099999998 -0.034696378 -0.0014798525 0
0.0099999886 -0.034501247 0.0015496571 0
0.0099999793 -0.034658212 0.0046293405 0
0.0099999681 -0.034530725 0.0073728827 0
0.0097694816 -0.034528997 0.0097997375 0
-0.009679487 -0.031320032 -0.0097780628 0
-0.0099999662 -0.031513635 -0.0073648184 0
-0.0099999784 -0.031553738 -0.0045790169 0
-0.0099999895 -0.031576764 -0.0015165088 0
-0.010000001 -0.031424757 0.0016438914 0
-0.010000012 -0.031529602 0.0044343001 0
-0.010000019 -0.031573877 0.0073117958 0
-0.0097285705 -0.031467635 0.0097503699 0
-0.0074875411 -0.031438336 -0.0099999076 0
-0.0074341143 -0.031535905 0.010000082 0
-0.0045589758 -0.031492379 -0.0099998973 0
-0.0045433189 -0.03147364 0.010000091 0
-0.0016761571 -0.031521574 -0.0099998862 0
-0.0014261843 -0.03140004 0.010000102 0
0.0015331312 -0.031519078 -0.009999874 0
0.0015305929 -0.03164646 0.010000114 0
0.0044359951 -0.031449631 -0.0099998647 0
0.0044384631 -0.031507082 0.010000125 0
0.0073430208 -0.031313248 -0.0099998545 0
0.0075220838 -0.031310387 0.010000136 0
0.0097046886 -0.031485032 -0.0096604582 0
0.010000023 -0.031582333 -0.0076034539 0
0.010000012 -0.031523451 -0.0045618038 0
0.010000001 -0.031519353 -0.0015693415 0
0.0099999895 -0.031529192 0.001452354 0
0.0099999784 -0.031399224 0.0043582069 0
0.0099999681 -0.031453863 0.0075069573 0
0.0097493911 -0.031356763 0.0097729554 0
-0.0097420029 -0.0284562 -0.0097829327 0
-0.0099999672 -0.028561413 -0.0074511622 0
-0.0099999784 -0.028576814 -0.0045238645 0
-0.0099999905 -0.028390987 -0.0014087439 0
-0.010000001 -0.028294569 0.0014519346 0
-0.01000001 -0.028322196 0.0043597897 0
-0.010000023 -0.028623661 0.0074881287 0
-0.0097133005 -0.02844019 0.0097734109 0
-0.0076417266 -0.028640272 -0.0099999188 0
-0.007392779 -0.02846982 0.010000071 0
-0.004463213 -0.028624685 -0.0099999066 0
-0.0046542166 -0.028549394 0.010000082 0
-0.0013532134 -0.028484171 -0.0099998964 0
-0.0014930621 -0.028568752 0.010000093 0
0.0014448882 -0.028581377 -0.0099998871 0
0.0014612665 -0.028562276 0.010000103 0
0.0045932615 -0.028235616 -0.0099998759 0
0.0043795262 -0.028560022 0.010000114 0
0.0075384397 -0.02862226 -0.0099998638 0
0.0075216 -0.028565941 0.010000124 0
0.0097523853 -0.028614357 -0.0097412542 0
0.010000022 -0.028714469 -0.007702678 0
0.010000011 -0.028536724 -0.0044343863 0
0.010000001 -0.02858099 -0.0015142552 0
0.0099999886 -0.028317437 0.0015595612 0
0.0099999784 -0.028612485 0.0045927786 0
0.0099999681 -0.028501801 0.0073532835 0
0.0098601691 -0.028411221 0.0096344249 0
-0.0096598156 -0.025442667 -0.0098051503 0
-0.0099999672 -0.025469959 -0.0074400646 0
-0.0099999774 -0.025342647 -0.0045296722 0
-0.0099999895 -0.025518762 -0.0015953409 0
-0.010000001 -0.025418062 0.0015624661 0
-0.010000012 -0.025482308 0.0045884266 0
-0.010000021 -0.025574844 0.007376167 0
-0.0097553078 -0.02571992 0.0097031975 0
-0.0075281523 -0.025551794 -0.0099999299 0
-0.0074068801 -0.025441943 0.010000061 0
-0.0045899567 -0.0255937 -0.0099999197 0
-0.004589221 -0.025674982 0.010000071 0
-0.0015483204 -0.02535465 -0.0099999085 0
-0.0013134433 -0.025554724 0.010000083 0
0.0017086336 -0.025594715 -0.0099998964 0
0.0013550622 -0.025538556 0.010000092 0
0.0044051642 -0.02566075 -0.0099998871 0
0.0046101287 -0.025470445 0.010000104 0
0.0075101606 -0.025564875 -0.009999875 0
0.0075344755 -0.025373628 0.010000113 0
0.0096830344 -0.025718307 -0.0097851101 0
0.010000022 -0.025331432 -0.0075688316 0
0.010000011 -0.025510222 -0.0044276793 0
0.010000001 -0.025549069 -0.001496961 0
0.0099999886 -0.025565758 0.0015748343 0
0.0099999774 -0.025668053 0.0045204386 0
0.0099999681 -0.025623327 0.0074114599 0
0.0097657163 -0.025406366 0.0097985426 0
-0.0097762449 -0.02258569 -0.0097046206 0
-0.0099999681 -0.022403268 -0.0075694406 0
-0.0099999774 -0.022448773 -0.0044752127 0
-0.0099999886 -0.022557136 -0.0015090555 0
-0.0099999998 -0.022452332 0.0014132247 0
-0.010000011 -0.022401311 0.0045634229 0
-0.010000022 -0.022328794 0.0074806036 0
-0.009763604 -0.022432327 0.0097594103 0
-0.0076295799 -0.022583844 -0.0099999411 0
-0.0076395348 -0.022616912 0.010000049 0
-0.0045992825 -0.022645563 -0.009999929 0
-0.0044920687 -0.022503765 0.01000006 0
-0.0014664907 -0.02257283 -0.0099999178 0
-0.0015206863 -0.02246939 0.010000071 0
0.0014464092 -0.022471137 -0.0099999085 0
0.0014512502 -0.02261382 0.010000083 0
0.0043685902 -0.022504739 -0.0099998973 0
0.0045384038 -0.022589931 0.010000094 0
0.007504913 -0.022665631 -0.0099998852 0
0.0074768499 -0.022492433 0.010000103 0
0.009712046 -0.0226926 -0.0098307319 0
0.010000022 -0.022444597 -0.0075623761 0
0.010000012 -0.02243459 -0.0045716367 0
0.0099999998 -0.022369539 -0.001506597 0
0.0099999867 -0.0224027 0.0017893616 0
0.0099999793 -0.022522533 0.0044939918 0
0.0099999672 -0.022580786 0.0076747206 0
0.0098031471 -0.022351561 0.0097700795 0
-0.0097249486 -0.019494796 -0.0097086895 0
-0.0099999672 -0.019465823 -0.0077065816 0
-0.0099999784 -0.019573821 -0.0044605541 0
-0.0099999895 -0.019336795 -0.0015073896 0
-0.010000001 -0.019458769 0.0016054735 0
-0.010000011 -0.019419782 0.0045555807 0
-0.01000002 -0.01942265 0.007551468 0
-0.009701943 -0.019605791 0.0098436372 0
-0.0073302481 -0.019327303 -0.0099999513 0
-0.0074286326 -0.019572355 0.010000038 0
-0.0043674437 -0.019471895 -0.0099999392 0
-0.0045223902 -0.019291095 0.010000047 0
-0.00157334 -0.019463925 -0.009999929 0
-0.0015407571 -0.019372361 0.010000058 0
0.0014464852 -0.019528084 -0.0099999178 0
0.0014040698 -0.019376585 0.010000069 0
0.0043350966 -0.019336017 -0.0099999104 0
0.0045402376 -0.019486321 0.010000082 0
0.0075312383 -0.019505277 -0.0099998973 0
0.0074563883 -0.019570176 0.010000093 0
0.009796761 -0.019533725 -0.0097223381 0
0.010000023 -0.01955251 -0.0076063271 0
0.010000012 -0.019475747 -0.0044886107 0
0.0099999998 -0.019628795 -0.001383549 0
0.0099999905 -0.019474294 0.0013711768 0
0.0099999784 -0.019494241 0.004841147 0
0.0099999681 -0.019572362 0.0073753996 0
0.0096742874 -0.01950513 0.0098165218 0
-0.0097653838 -0.016395209 -0.0098294318 0
-0.0099999681 -0.016496513 -0.0075333407 0
-0.0099999784 -0.01641646 -0.0044486239 0
-0.0099999877 -0.016648086 -0.0017542066 0
-0.0099999988 -0.016411105 0.0016309649 0
-0.010000011 -0.016674086 0.0045094304 0
-0.010000021 -0.016638927 0.0074831885 0
-0.0097652012 -0.016560024 0.0096578756 0
-0.007626432 -0.016432142 -0.0099999625 0
-0.0074711437 -0.016532114 0.010000028 0
-0.0045618145 -0.016537357 -0.0099999523 0
-0.0044886321 -0.016425624 0.010000038 0
-0.0016349031 -0.016413618 -0.0099999411 0
-0.0015252013 -0.01658028 0.010000049 0
0.0016531282 -0.016584391 -0.009999929 0
0.0015146243 -0.016681073 0.010000061 0
0.0044645411 -0.016440103 -0.0099999197 0
0.0045016082 -0.016463304 0.01000007 0
0.0074760793 -0.016579749 -0.0099999085 0
0.0077378983 -0.016389934 0.010000082 0
0.0097299442 -0.016679371 -0.0097284624 0
0.010000023 -0.016285751 -0.0074292351 0
0.010000011 -0.016520385 -0.0045996923 0
0.0099999988 -0.016386598 -0.0014016185 0
0.0099999886 -0.016515702 0.0015930936 0
0.0099999765 -0.016554309 0.0045036869 0
0.0099999662 -0.016597401 0.0076290471 0
0.0097570373 -0.016408429 0.0096789543 0
-0.0096977782 -0.013413753 -0.009762493 0
-0.0099999709 -0.01357087 -0.0072535463 0
-0.0099999784 -0.013463229 -0.0045333137 0
-0.0099999905 -0.013491734 -0.0014095604 0
-0.010000001 -0.013513248 0.0015941977 0
-0.010000014 -0.013652675 0.0048126406 0
-0.010000023 -0.013514175 0.0075317617 0
-0.009699475 -0.013377738 0.0097896205 0
-0.007521742 -0.01320524 -0.0099999737 0
-0.0074858102 -0.01353228 0.010000017 0
-0.0046491954 -0.013369115 -0.0099999635 0
-0.0044925013 -0.013493275 0.010000028 0
-0.0015323367 -0.013843135 -0.0099999513 0
-0.0016982303 -0.013427362 0.010000037 0
0.0014247646 -0.013474815 -0.0099999402 0
0.0012610089 -0.013369984 0.010000048 0
0.0045042536 -0.013618768 -0.009999929 0
0.0047158375 -0.01322135 0.010000059 0
0.0074822032 -0.013543898 -0.0099999188 0
0.0076277899 -0.01339358 0.010000072 0
0.0097596422 -0.013455859 -0.0097694313 0
0.010000023 -0.013372644 -0.0074957311 0
0.010000011 -0.013548575 -0.0046477802 0
