# .PCD v0.7 - Point Cloud Data file format
VERSION 0.7
FIELDS x y z rgb
SIZE 4 4 4 4
TYPE F F F F
COUNT 1 1 1 1
WIDTH 1168
HEIGHT 1
VIEWPOINT 0 0 0 1 0 0 0
POINTS 1168
DATA ascii
0.0014110523 -0.24473003 -0.00063135254 0
0.0014269149 -0.24439631 0.0078466022 0
0.0037716611 -0.24484462 -0.00051732821 0
0.004163682 -0.24445859 0.0016648803 0
0.0041637174 -0.24447769 0.0044466159 0
0.0039089206 -0.24456164 0.0072786133 0
-0.0036072144 -0.24251822 -0.00011460645 0
-0.004038976 -0.24141981 0.0011736496 0
-0.0042000152 -0.24150594 0.0044930577 0
-0.0040482669 -0.24128129 0.0076775937 0
-0.0014557935 -0.24244179 -9.67421e-05 0
-0.0016616274 -0.24099104 0.00024221108 0
-0.0015220512 -0.2413099 0.0085677058 0
0.0016030977 -0.24251218 -0.0001131757 0
0.001442173 -0.24111103 0.000214185 0
0.0013955587 -0.24162951 0.0084930519 0
0.0036009455 -0.2425435 -0.00010533482 0
0.0040085884 -0.24127685 0.0012370391 0
0.0041565974 -0.24143073 0.0045963414 0
0.0039836401 -0.24123992 0.0076583503 0
-0.0039235679 -0.23856302 0.0013829756 0
-0.0042000138 -0.23844621 0.0045531099 0
-0.0041777967 -0.23829468 0.0075784819 0
-0.0036767169 -0.23827738 0.0092434185 0
-0.0015306571 -0.23849769 0.00082476099 0
-0.001243645 -0.23969859 0.0089441799 0
-0.0016448044 -0.23816457 0.0093025845 0
0.001507408 -0.23869292 0.00077914802 0
0.0016261289 -0.23974222 0.0089339893 0
0.0014217678 -0.23816407 0.0093027204 0
0.0039266185 -0.2386806 0.0014400025 0
0.0041499464 -0.23858444 0.004517586 0
0.0040838802 -0.2387221 0.0076636216 0
0.0037265993 -0.23795015 0.0092977323 0
-0.0040286132 -0.23560938 0.0020198135 0
-0.0042000143 -0.23552848 0.0046564988 0
-0.0042000278 -0.23546492 0.0076498017 0
-0.0038692744 -0.23540291 0.0097403321 0
-0.0014716638 -0.23547362 0.0015313155 0
-0.0013941163 -0.23549299 0.0099267699 0
0.001402415 -0.23554386 0.0015149127 0
0.00134181 -0.23554553 0.0099144978 0
0.0038979724 -0.23539759 0.0019377611 0
0.0041427785 -0.23551607 0.0044661192 0
0.004142751 -0.23550867 0.0074990666 0
0.0038203357 -0.23554803 0.0097204214 0
-0.0038401813 -0.23265639 0.0023622625 0
-0.0042000143 -0.23275217 0.0044562207 0
-0.0042000269 -0.23257773 0.007540042 0
-0.0039397553 -0.23247141 0.010179958 0
-0.0016581779 -0.23253237 0.0022185 0
-0.0014064308 -0.23251539 0.010622464 0
0.0014921878 -0.23232016 0.0022680832 0
0.0014924434 -0.23254052 0.010616604 0
0.003857753 -0.23254044 0.002416485 0
0.0041356976 -0.23248547 0.0045933486 0
0.0041359486 -0.23259723 0.0072992188 0
0.0038899058 -0.23241326 0.010218915 0
-0.0037299828 -0.23015977 0.0027913693 0
-0.0041465429 -0.22938021 0.0041961465 0
-0.0042000283 -0.22948374 0.0074643786 0
-0.0039758361 -0.22958706 0.010619925 0
-0.0015641706 -0.22998023 0.0028147812 0
-0.0010717356 -0.22865969 0.0031233192 0
-0.0014159855 -0.22957 0.01131063 0
0.0014634277 -0.22991565 0.0028298832 0
0.0013838166 -0.22846361 0.0031691436 0
0.0016076467 -0.22939391 0.011351784 0
0.0037918494 -0.23030858 0.0028104121 0
0.0040252702 -0.22951925 0.0042263139 0
0.0041284529 -0.22938931 0.007565693 0
0.003918313 -0.22943355 0.010643557 0
-0.0040393681 -0.22643529 0.0045262338 0
-0.0042000264 -0.2265075 0.0075725736 0
-0.0041194232 -0.22670768 0.010688425 0
-0.003762302 -0.22596812 0.012119019 0
-0.0012514031 -0.22648267 0.0036319555 0
-0.0015117251 -0.22725837 0.011850717 0
-0.0014387422 -0.22563449 0.012230127 0
0.0015108699 -0.22640516 0.0036500841 0
0.0013301258 -0.22719423 0.011865719 0
0.0017068549 -0.22587168 0.012174717 0
0.0039503556 -0.22658111 0.0044557229 0
0.0041214633 -0.22639781 0.0075609372 0
0.0040159775 -0.22653404 0.010733642 0
0.0036719362 -0.22592942 0.012144571 0
-0.0039327526 -0.22324666 0.0048404899 0
-0.0042000273 -0.22348468 0.0074592074 0
-0.0042000376 -0.22348705 0.010317307 0
-0.003873365 -0.22366866 0.012557868 0
-0.0016380345 -0.2235349 0.0043207058 0
-0.0014236069 -0.22351065 0.01272635 0
0.0015188057 -0.22333643 0.0043670661 0
0.0014652144 -0.22361208 0.012702649 0
0.003912054 -0.22362421 0.004850666 0
0.0041148239 -0.22355668 0.0077383728 0
0.0041148481 -0.2235716 0.010619105 0
0.0039050523 -0.22342359 0.012529646 0
-0.0038473201 -0.2206966 0.0052157608 0
-0.0042000259 -0.22049525 0.0073890588 0
-0.0042000404 -0.22047938 0.010628573 0
-0.0039037368 -0.22042571 0.013153981 0
-0.0015954229 -0.22037201 0.0050596707 0
-0.0015087449 -0.22055216 0.013417576 0
0.0015424611 -0.22058839 0.0050091217 0
0.0015824337 -0.22043668 0.013444559 0
0.0037786942 -0.22039363 0.0052546239 0
0.0041075447 -0.22044088 0.0074900296 0
0.0041071912 -0.2202937 0.010414492 0
0.0038427627 -0.2203878 0.01297459 0
-0.0036235047 -0.21782924 0.005643392 0
-0.0038669908 -0.2171714 0.0075338697 0
-0.0038049966 -0.21728994 0.01063403 0
-0.0038707273 -0.21736932 0.01318867 0
-0.0014475789 -0.21741623 0.005692184 0
-0.0014890812 -0.21719971 0.007448893 0
-0.0014480433 -0.21719968 0.010469665 0
-0.0014352254 -0.21730086 0.013370748 0
0.0016193509 -0.21758637 0.0056426516 0
0.0015104666 -0.21719968 0.0075561623 0
0.0017456524 -0.21719973 0.01055761 0
0.0015408732 -0.21733497 0.013490104 0
0.0037067235 -0.21743864 0.0057046525 0
0.0038881991 -0.21736091 0.0075102607 0
0.0039183362 -0.21742432 0.010570763 0
0.0038328257 -0.21739341 0.01329242 0
-0.0033244449 -0.21501522 0.0055447915 0
-0.003419573 -0.21485859 0.0075131771 0
-0.0034039326 -0.21481165 0.010515654 0
-0.0033546716 -0.21479177 0.012954785 0
-0.0016486081 -0.21440805 0.0052423286 0
-0.0028954768 -0.21328634 0.0072684097 0
-0.0028893102 -0.21326776 0.010398883 0
-0.0015481031 -0.21455292 0.013548607 0
0.0015006665 -0.21446256 0.0052255187 0
0.001352404 -0.21467954 0.013662002 0
0.0042374805 -0.21428916 0.0052903271 0
0.0049714395 -0.21458562 0.007622689 0
0.0049436642 -0.21466881 0.010643309 0
0.004403118 -0.21448077 0.013253041 0
-0.0017576606 -0.21157674 0.0049110129 0
-0.0023069016 -0.21152058 0.0073119784 0
-0.0023277928 -0.21158323 0.010560387 0
-0.0016021453 -0.21171345 0.012778697 0
0.0014132464 -0.21150284 0.0046035461 0
0.0016139107 -0.21142007 0.012965224 0
0.0046610502 -0.21160051 0.0046947356 0
0.0057389312 -0.21228309 0.0074160583 0
0.0057002804 -0.21239901 0.010265997 0
0.0046938141 -0.21161741 0.012907769 0
0.0062408745 -0.21077663 0.0052996664 0
0.0062454869 -0.21076344 0.007306607 0
0.0062396317 -0.21078096 0.010236929 0
0.0062936423 -0.21057233 0.012526434 0
-0.0010984757 -0.20851949 0.0045892904 0
-0.0013155288 -0.20854649 0.0075514759 0
-0.0012393727 -0.20831795 0.010423601 0
-0.00081697118 -0.20873304 0.01235003 0
0.0014907697 -0.20849675 0.0039718207 0
0.0016084947 -0.20826712 0.012291211 0
0.0044532293 -0.20838067 0.0039474401 0
0.0046402453 -0.20857722 0.012357505 0
0.0068535297 -0.20826752 0.0045399633 0
0.006962847 -0.20861138 0.0073935078 0
0.0069999043 -0.20850015 0.0105595 0
0.0064722099 -0.2083412 0.012264938 0
-0.00038919642 -0.20588171 0.0046107778 0
-0.00039133418 -0.20577389 0.0075004837 0
-0.00043243114 -0.20597671 0.010336498 0
0.0013830108 -0.20530668 0.003518655 0
9.6760166e-05 -0.20430961 0.0078344783 0
0.0013634663 -0.2051889 0.011461943 0
0.001993438 -0.20695473 0.012010655 0
0.0044349558 -0.20544322 0.0033301369 0
0.0044954303 -0.20544118 0.011687106 0
0.0048201573 -0.2069428 0.012008115 0
0.0075750444 -0.20556757 0.0042151883 0
0.0080086291 -0.20547399 0.0075840093 0
0.0076295114 -0.20551759 0.010869818 0
0.0069673597 -0.20697974 0.012016019 0
0.0016926574 -0.202434 0.0027281262 0
0.00071504322 -0.2025497 0.004634378 0
0.00068414281 -0.20254748 0.0073431814 0
0.0012801763 -0.20272669 0.010657614 0
0.0045748726 -0.20225492 0.0026601132 0
0.003838686 -0.20392291 0.0030106411 0
0.004489874 -0.20243414 0.011044287 0
0.0073474217 -0.20213671 0.0026352892 0
0.0085501112 -0.20332138 0.0042598373 0
0.0087494738 -0.20325145 0.0075438246 0
0.0078017237 -0.20259655 0.010829147 0
0.0093540177 -0.20142983 0.00273567 0
0.0092782527 -0.20166516 0.0045131478 0
0.0092910873 -0.20162664 0.0072535891 0
0.0092311958 -0.20179136 0.010142724 0
0.002021251 -0.19957839 0.0023036152 0
0.0017089914 -0.19947295 0.0044363672 0
0.0017549648 -0.19933498 0.0074614412 0
0.0020123434 -0.19954693 0.010111853 0
0.0046435641 -0.19949116 0.0020793176 0
0.0046230871 -0.19936122 0.010387382 0
0.0077511775 -0.19945377 0.0020714661 0
0.007566466 -0.19947425 0.010411554 0
0.0097654983 -0.19922933 0.0022112913 0
0.010015195 -0.19945434 0.0045348522 0
0.010042156 -0.19937339 0.0076509481 0
0.0097362557 -0.19965051 0.0099888379 0
0.002659926 -0.19667225 0.0021597673 0
0.0026172795 -0.19674811 0.0047991667 0
0.0025918647 -0.19682431 0.0073798606 0
0.0025695169 -0.19711101 0.009543336 0
0.0044235224 -0.19639899 0.0014800794 0
0.0030944329 -0.19531666 0.0044860793 0
0.0031190431 -0.19524278 0.0073341615 0
0.0044522779 -0.19640212 0.0097392844 0
0.0074693845 -0.19642067 0.0014340659 0
0.0074704499 -0.19648764 0.0097730961 0
0.010468996 -0.19635727 0.0017207128 0
0.010979242 -0.1965622 0.0045178081 0
0.01103168 -0.19640489 0.007400671 0
0.010311857 -0.19652462 0.0096703069 0
0.0042014495 -0.19351918 0.0013069042 0
0.003722508 -0.19343244 0.0044741132 0
0.0040032566 -0.19325033 0.0077400524 0
0.004801169 -0.19408374 0.0092523945 0
0.0074686166 -0.19347654 0.00081536325 0
0.0073887468 -0.19244027 0.0089078862 0
0.0074862307 -0.19390063 0.009220073 0
0.010776662 -0.19383736 0.0011735753 0
0.011752247 -0.19424318 0.0045639616 0
0.011216127 -0.19351789 0.0081830174 0
0.010512991 -0.19390824 0.0092064617 0
0.012318537 -0.19252712 0.0017548943 0
0.012265169 -0.19270442 0.0046479977 0
0.012227824 -0.19275706 0.0075113364 0
0.012040132 -0.19337948 0.0090287104 0
0.0053910059 -0.1893454 -7.0318019e-05 0
0.0047813412 -0.19074638 0.0013571578 0
0.0046589551 -0.19054939 0.0041529839 0
0.0048181205 -0.1906777 0.0075877584 0
0.0070154672 -0.18925297 -0.00010503816 0
0.0075508337 -0.19064377 0.000220063 0
0.0075397291 -0.19040595 0.0084678084 0
0.010170929 -0.18924181 -0.00010842808 0
0.010544296 -0.19082904 0.00025901079 0
0.010465438 -0.19051948 0.0084929653 0
0.012792843 -0.18929164 -8.6837237e-05 0
0.012892582 -0.19046742 0.001365163 0
0.013002222 -0.19040474 0.0045428905 0
0.01280879 -0.19056746 0.007552512 0
0.0050004059 -0.1872326 -0.00059927435 0
0.0045524617 -0.18733311 0.0015566649 0
0.0045892252 -0.18751939 0.0044877618 0
0.0049581071 -0.18759775 0.0072331699 0
0.0076666824 -0.18754004 -0.00062699796 0
0.0077628661 -0.1873723 0.0076266583 0
0.010386454 -0.18755028 -0.00062387908 0
0.010457598 -0.18750501 0.0076668225 0
0.012668722 -0.18776372 -0.00041006538 0
0.012872952 -0.18741317 0.0015404522 0
0.012853226 -0.18731216 0.0045972159 0
0.012708777 -0.18759117 0.0071490207 0
0.0045244792 -0.1844922 -0.0012267155 0
0.0040130913 -0.18460116 0.0015691068 0
0.0039942758 -0.18450585 0.0043771868 0
0.0045565506 -0.18450812 0.0065970523 0
0.0074333725 -0.18462676 -0.0015147532 0
0.0073314696 -0.18448184 0.0067520877 0
0.010620129 -0.1844725 -0.0015617567 0
0.010543393 -0.18472536 0.0068257721 0
0.012291508 -0.18458724 -0.00085290091 0
0.012287008 -0.18441267 0.0017009387 0
0.012298641 -0.18447228 0.0045067971 0
0.012308826 -0.18492539 0.0065980544 0
0.0039889361 -0.18131293 -0.0019245521 0
0.0034065479 -0.1815289 0.0014615792 0
0.0037671425 -0.18127067 0.0047733998 0
0.004892699 -0.18244991 0.0061241444 0
0.0075875716 -0.18144235 -0.0024851311 0
0.0075518815 -0.18091172 0.0056718341 0
0.0074878442 -0.18251964 0.0061583552 0
0.010965566 -0.1813212 -0.0018665643 0
0.011701607 -0.18141486 0.0016295444 0
0.011206329 -0.18136738 0.0048944578 0
0.010412348 -0.18243547 0.0061316476 0
0.012011074 -0.18299955 -0.00048244357 0
0.0027965324 -0.17803144 -0.0033884142 0
0.002770307 -0.1783061 -0.0016672648 0
0.0027309083 -0.17810662 0.0017504593 0
0.0027737387 -0.17824821 0.0039962102 0
0.0045461892 -0.17833006 -0.0034335318 0
0.0033281026 -0.1797644 -0.0018515376 0
0.0030421035 -0.17968287 0.0014175239 0
0.0042754388 -0.17873965 0.0048471042 0
0.0075850193 -0.17837112 -0.0034210125 0
0.0077178823 -0.17993163 -0.0029454874 0
0.0076251817 -0.17860609 0.0049742064 0
0.010204923 -0.17834726 -0.0033757002 0
0.011020547 -0.17880431 -0.0017658536 0
0.011154499 -0.17861317 0.0013475477 0
0.010462831 -0.17863478 0.0046073264 0
0.0024054248 -0.17529041 -0.0041392031 0
0.0022193007 -0.17551515 -0.0014281926 0
0.0022127801 -0.1754822 0.0014865993 0
0.0024121881 -0.17564727 0.0037254633 0
0.0044662762 -0.17540297 -0.0043254863 0
0.0046342863 -0.17549199 0.0040319189 0
0.0076320386 -0.17555206 -0.004280041 0
0.0074474839 -0.17544529 0.0040177931 0
0.010130658 -0.17555593 -0.00399013 0
0.010521563 -0.17537194 -0.0015448994 0
0.010569724 -0.17561863 0.0015335655 0
0.0099935643 -0.17561372 0.0038459452 0
0.0018262129 -0.17227434 -0.0045675295 0
0.0016075195 -0.1724163 -0.0015914481 0
0.0016997051 -0.17238092 0.0016659041 0
0.0023024355 -0.17308635 0.0032631622 0
0.0044991439 -0.17261168 -0.0051760678 0
0.0045641656 -0.17155339 0.0028401783 0
0.0044378294 -0.17315993 0.0033262875 0
0.0075739478 -0.17246307 -0.0052213366 0
0.0077710464 -0.17153752 0.0028353943 0
0.0074081542 -0.17312308 0.0033151433 0
0.0099146403 -0.17253217 -0.0041882973 0
0.0099245394 -0.17231463 -0.0013392135 0
0.0098887915 -0.17231749 0.0015545876 0
0.009651999 -0.17317389 0.0032727187 0
0.0017725629 -0.16884287 -0.0063196709 0
0.0012355727 -0.16968885 -0.0047270916 0
0.001007244 -0.16937579 -0.0015066803 0
0.0015878734 -0.16949114 0.0016545996 0
0.0044852607 -0.16891448 -0.0063026976 0
0.0047056875 -0.17043503 -0.0058393353 0
0.0044413521 -0.16964781 0.0022635963 0
0.0073572961 -0.16893779 -0.0062955818 0
0.0075351256 -0.17043528 -0.0058392552 0
0.0074203252 -0.16948009 0.0022128576 0
0.0091724321 -0.16889004 -0.0061929259 0
0.0093823606 -0.16962326 -0.0045635309 0
0.0093691088 -0.16947035 -0.0014134384 0
0.0093635572 -0.16967522 0.0013982127 0
0.0013771784 -0.16642752 -0.0068585942 0
0.0004126399 -0.16636397 -0.0043843645 0
0.00043608143 -0.16648272 -0.0014778366 0
0.0011446449 -0.16644329 0.0010144642 0
0.0044420869 -0.16664499 -0.0069942763 0
0.0046119541 -0.16650441 0.001312468 0
0.0076237195 -0.16652362 -0.0069088126 0
0.008747315 -0.16628617 -0.0045291083 0
0.0087443953 -0.16627128 -0.00161681 0
0.007626221 -0.16644739 0.0011296887 0
0.0090519842 -0.16788894 -0.0065134806 0
0.0090292804 -0.16773009 -0.0041111847 0
0.0090452991 -0.16781215 -0.0016871558 0
0.0090305163 -0.1677365 0.0010166703 0
-0.00020646806 -0.163175 -0.0071375635 0
-0.00022709358 -0.16312361 -0.0045782388 0
-0.00022311931 -0.16314377 -0.0014475596 0
-0.00011002743 -0.16351649 0.00025065785 0
0.0014090682 -0.16366309 -0.0077948822 0
6.9542759e-05 -0.16462608 -0.0044330591 0
0.00043261191 -0.16390292 -0.00099404936 0
0.0015431197 -0.16361691 0.00042949454 0
0.0043971478 -0.16354813 -0.0079379566 0
0.0045630448 -0.16207699 -2.7178196e-05 0
0.0045149676 -0.16358159 0.00042807881 0
0.0076110335 -0.16355467 -0.0074198367 0
0.0082105743 -0.16353759 -0.004446893 0
0.0081444653 -0.16347201 -0.0012943003 0
0.0073987707 -0.16366859 0.00043032371 0
-0.00056129199 -0.15940847 -0.0091636963 0
-0.000691575 -0.16050571 -0.0077218655 0
-0.00076235586 -0.16041236 -0.0045118351 0
-0.00066183304 -0.160428 -0.0015716864 0
0.0015618717 -0.15959759 -0.0091417972 0
0.0014611968 -0.160952 -0.0087290704 0
0.0014363946 -0.16047968 -0.00051049702 0
0.0045686527 -0.15958211 -0.0091465032 0
0.0045894464 -0.16101353 -0.0087103155 0
0.0044171996 -0.16054213 -0.000491591 0
0.0067364462 -0.15948308 -0.009167973 0
0.0074349651 -0.16069758 -0.0077629169 0
0.0076023266 -0.16042286 -0.0045029726 0
0.0072322641 -0.16051231 -0.0012556487 0
-0.00095421862 -0.15738907 -0.0097016096 0
-0.0013370004 -0.15750159 -0.0075588734 0
-0.0012996536 -0.15769084 -0.0043588346 0
-0.0010339359 -0.15756363 -0.0018386054 0
0.0014774962 -0.15744804 -0.0097968169 0
0.0013988239 -0.15766694 -0.0013615761 0
0.0044510835 -0.15773907 -0.0097081289 0
0.0045263558 -0.15759496 -0.0013833371 0
0.0066969842 -0.1575847 -0.0095993858 0
0.0070179491 -0.15743028 -0.0074809995 0
0.0070174625 -0.15742783 -0.0045146332 0
0.0068844287 -0.15776294 -0.0017950599 0
-0.0014260296 -0.15451884 -0.010292784 0
-0.0019127636 -0.15458524 -0.0075312136 0
-0.0019291429 -0.15450235 -0.0043363669 0
-0.0010694113 -0.15452945 -0.0024195884 0
0.0014398213 -0.15445925 -0.01070757 0
0.0015701858 -0.15455388 -0.0023035242 0
0.0046240529 -0.15455838 -0.010677371 0
0.0043388363 -0.15448388 -0.0023246943 0
0.0063765282 -0.15444639 -0.010064821 0
0.0064344076 -0.15444201 -0.007600138 0
0.0064295758 -0.15441734 -0.0045838831 0
0.0064467909 -0.15488836 -0.0025037967 0
-0.0022446068 -0.15012319 -0.01202889 0
-0.0017617687 -0.15151285 -0.011018883 0
-0.002526761 -0.15147521 -0.00763046 0
-0.0020602371 -0.15135548 -0.0040501407 0
-0.001286688 -0.15257776 -0.0029014696 0
0.0016474623 -0.15014747 -0.012021484 0
0.0016516327 -0.15163973 -0.011566756 0
0.0017663566 -0.15137355 -0.0032658246 0
0.0013456431 -0.15258072 -0.0029005567 0
0.0038951589 -0.15011762 -0.012030572 0
0.0050712815 -0.15133141 -0.011016208 0
0.0058168471 -0.15127957 -0.0075335898 0
0.0050738864 -0.15135561 -0.0039432561 0
0.0050631063 -0.1525674 -0.0029045797 0
0.0060992986 -0.15272593 -0.01004362 0
0.0060765496 -0.15260948 -0.0075395498 0
0.0060555357 -0.15250191 -0.0045929789 0
0.0060349358 -0.15270409 -0.0028632144 0
-0.0032332663 -0.14788735 -0.012387261 0
-0.0031950749 -0.14809003 -0.010295403 0
-0.003237803 -0.14787364 -0.0074627483 0
-0.0031786743 -0.14815934 -0.0050275228 0
-0.0015501779 -0.14842632 -0.012542842 0
-0.0029091432 -0.14953834 -0.010553015 0
-0.0029046398 -0.14956118 -0.0073561575 0
-0.0016875949 -0.1488021 -0.0042365259 0
0.0014925955 -0.14857262 -0.012501376 0
0.0014218874 -0.14850894 -0.0041326028 0
0.0042967354 -0.14856879 -0.012466305 0
0.0052751605 -0.14850564 -0.01052319 0
0.0052455664 -0.14835413 -0.0075066085 0
0.0045802002 -0.14866158 -0.0044878391 0
-0.003641993 -0.14539029 -0.012866499 0
-0.0037180372 -0.14544111 -0.010455716 0
-0.0036879494 -0.14559355 -0.0075372341 0
-0.0035514254 -0.1454917 -0.0053937039 0
-0.0014465617 -0.14554849 -0.013422911 0
-0.0013424094 -0.14555372 -0.0050268057 0
0.0015400437 -0.14547607 -0.01344498 0
0.001525945 -0.14557099 -0.0050215581 0
0.0043296372 -0.14541236 -0.013082871 0
0.0046967301 -0.14554353 -0.010619211 0
0.0046599987 -0.14535546 -0.0076796887 0
0.0041783922 -0.14546239 -0.0052441191 0
-0.003942024 -0.1425457 -0.013221794 0
-0.0039090328 -0.14279144 -0.010453895 0
-0.0039410931 -0.14282383 -0.0075200461 0
-0.0037698266 -0.14220011 -0.0056734616 0
-0.001560929 -0.14279574 -0.013484254 0
-0.0014936053 -0.14299986 -0.010564342 0
-0.0015712698 -0.14299986 -0.0075053205 0
-0.0015472106 -0.14245851 -0.005662194 0
0.001560156 -0.14281742 -0.013447409 0
0.0014623238 -0.14299987 -0.010541725 0
0.0015537823 -0.14299986 -0.0075319679 0
0.0015261302 -0.14252728 -0.0056245457 0
0.0038624427 -0.14265324 -0.01325476 0
0.0039208396 -0.14273664 -0.010509083 0
0.0038956646 -0.14270428 -0.0075814682 0
0.003686903 -0.1426301 -0.0057287393 0
-0.0041643926 -0.13951564 -0.013159069 0
-0.0044447039 -0.13938859 -0.01044803 0
-0.0044363374 -0.1395122 -0.0075069256 0
-0.0039308202 -0.13950519 -0.0053430055 0
-0.0014756107 -0.13958491 -0.013635012 0
-0.0014179796 -0.13942009 -0.0052077831 0
0.0014079348 -0.13963017 -0.013642486 0
0.001544551 -0.1394839 -0.0052183084 0
0.0037573203 -0.13964909 -0.01315575 0
0.0039567961 -0.13949622 -0.010389618 0
0.0039517046 -0.13942298 -0.007496208 0
0.0037711505 -0.139281 -0.0054495381 0
-0.0040664319 -0.13657524 -0.012934262 0
-0.0046310448 -0.13663901 -0.010463805 0
-0.0046340209 -0.13659522 -0.0076246769 0
-0.0042229993 -0.13632509 -0.0049311644 0
-0.0013595725 -0.13642816 -0.013113244 0
-0.0012813862 -0.13633624 -0.0046980595 0
0.0015817604 -0.13651839 -0.013128155 0
0.0016105517 -0.13636599 -0.0047029653 0
0.0036219689 -0.13662659 -0.012807399 0
0.0037494304 -0.13650915 -0.010565214 0
0.003756104 -0.13660543 -0.0077099972 0
0.0035867267 -0.13617398 -0.0050814007 0
-0.0040681683 -0.13347419 -0.012550693 0
-0.0048522437 -0.13337494 -0.010312104 0
-0.0048508174 -0.13339612 -0.0074250484 0
-0.0044457386 -0.13346106 -0.0046739043 0
-0.0015113831 -0.13342267 -0.012616484 0
-0.0012888741 -0.13329665 -0.004195659 0
0.0015754205 -0.13346912 -0.012624146 0
0.0015161101 -0.13350262 -0.0042296899 0
0.0033705386 -0.1335334 -0.012437145 0
0.0035351629 -0.13342272 -0.010337704 0
0.0035327305 -0.13338779 -0.0074027707 0
0.0035114409 -0.13346832 -0.0050501069 0
-0.0040191002 -0.13090464 -0.012187292 0
-0.0049126134 -0.13017045 -0.010707159 0
-0.0050429809 -0.1305605 -0.0074656596 0
-0.0045653465 -0.13038284 -0.0042305733 0
-0.0014695532 -0.1308542 -0.012191946 0
-0.0013567171 -0.12934405 -0.011942346 0
-0.0015421882 -0.1305829 -0.0037471154 0
0.0014050461 -0.13078237 -0.012180069 0
0.0016594946 -0.12944643 -0.011959257 0
0.0014865495 -0.13051096 -0.0037352147 0
0.0033512136 -0.13126603 -0.012164345 0
0.0033202006 -0.13037612 -0.010324523 0
0.0033260882 -0.13041112 -0.0075973258 0
0.0032956256 -0.13043334 -0.0045168437 0
-0.004699097 -0.12751225 -0.010983886 0
-0.0052481452 -0.12753308 -0.0072822827 0
-0.0047778459 -0.12743028 -0.0040675104 0
-0.0038727841 -0.12601957 -0.0029928724 0
-0.0014666572 -0.12740849 -0.011622434 0
-0.0016132881 -0.12760843 -0.0032554751 0
0.0013972609 -0.12753788 -0.011643796 0
0.0013499394 -0.12758325 -0.0032513067 0
0.0021918023 -0.12605663 -0.0029989751 0
0.0031296876 -0.12762274 -0.010284618 0
0.0031284171 -0.12756376 -0.0075688893 0
0.0031238901 -0.12756182 -0.0045224405 0
-0.004599452 -0.12438816 -0.010701708 0
-0.0054625086 -0.12436993 -0.0076198806 0
-0.0054601924 -0.12440427 -0.0044767181 0
-0.0041807001 -0.12435548 -0.0027230703 0
-0.0012552623 -0.12460735 -0.011159448 0
-0.0015254584 -0.12459293 -0.0027570652 0
0.0021632123 -0.12443569 -0.010688102 0
0.0029093127 -0.1244076 -0.0074253958 0
0.0029138383 -0.1244729 -0.0045369966 0
0.0014504615 -0.12463526 -0.0027640499 0
0.003006082 -0.1258014 -0.010545329 0
0.0030070229 -0.12581511 -0.0073988917 0
0.0030131317 -0.12590323 -0.0044195284 0
-0.0049933135 -0.12154726 -0.010280116 0
-0.0056617181 -0.12143037 -0.0074431784 0
-0.0056562861 -0.12151066 -0.0043759057 0
-0.0047380603 -0.1214131 -0.0023485327 0
-0.0014507931 -0.12147805 -0.010642215 0
-0.0014673148 -0.12154135 -0.0022526796 0
0.0018050788 -0.12134163 -0.01028933 0
0.0027029375 -0.1214348 -0.0076213754 0
0.0027006899 -0.12140255 -0.0045158677 0
0.001630315 -0.1214783 -0.0023162954 0
-0.0047814096 -0.11854491 -0.01000315 0
-0.005852873 -0.1186097 -0.0074518071 0
-0.0058629401 -0.11846129 -0.0045226151 0
-0.0048697465 -0.11851536 -0.0019456461 0
-0.0014503355 -0.11843102 -0.01013858 0
-0.0014546223 -0.11841509 -0.0017359514 0
0.001752689 -0.11854061 -0.0099911736 0
0.002496314 -0.11845845 -0.0075339316 0
0.0024927815 -0.11840773 -0.0043755593 0
0.001757541 -0.11843456 -0.0019513371 0
-0.0060747224 -0.11511865 -0.0093621071 0
-0.0060633519 -0.11550382 -0.007482023 0
-0.0060859136 -0.11517105 -0.004517334 0
-0.0060803927 -0.11525261 -0.0022002989 0
-0.0044452627 -0.11566894 -0.0096535282 0
-0.0059789713 -0.11674899 -0.0070328387 0
-0.0059840288 -0.11667448 -0.0041877357 0
-0.004702141 -0.11559768 -0.0013362047 0
-0.001607825 -0.11556762 -0.009665302 0
-0.0013722458 -0.11558075 -0.0012674774 0
0.0013949431 -0.11555534 -0.0095994314 0
0.0023149126 -0.1158454 -0.0075489148 0
0.0023035319 -0.1156816 -0.0046698814 0
0.0015128481 -0.11548663 -0.0015908262 0
-0.0061984588 -0.11299135 -0.0091376947 0
-0.0062755216 -0.11237305 -0.0074589485 0
-0.0062681646 -0.11248174 -0.0045502102 0
-0.0062335772 -0.11249498 -0.0016088036 0
-0.0046526212 -0.11274222 -0.0091983173 0
-0.0043534976 -0.11126608 -0.0089543303 0
-0.0045479117 -0.112431 -0.00074688124 0
-0.0012475395 -0.11269168 -0.0091899484 0
-0.0017649785 -0.11124612 -0.0089510251 0
-0.0016387036 -0.11253497 -0.00076405425 0
0.0012345716 -0.11281256 -0.0091998922 0
0.0019137239 -0.11224508 -0.0077159852 0
0.0020737001 -0.11237095 -0.0044333991 0
0.0016189198 -0.11239163 -0.001298525 0
-0.006432374 -0.10945645 -0.0076055676 0
-0.0064685754 -0.10952445 -0.0044568316 0
-0.0064012622 -0.1094898 -0.0013214072 0
-0.0043861647 -0.10923802 -0.0086191203 0
-0.0044760923 -0.10955143 -0.00027092587 0
-0.0014470225 -0.10945951 -0.0086557223 0
-0.0014438933 -0.1093024 -0.00022975657 0
0.001429996 -0.10962351 -0.0079028867 0
0.0018766979 -0.10953318 -0.0045440607 0
0.0014669658 -0.10951664 -0.00098548969 0
-0.0065973117 -0.10655501 -0.0073637147 0
-0.0066763633 -0.10645832 -0.0044076685 0
-0.0066761537 -0.10646158 -0.001499481 0
-0.00645938 -0.10606644 0.00025264628 0
-0.0042996854 -0.10663705 -0.0081892163 0
-0.0045228396 -0.10633922 0.00026000571 0
-0.0013850448 -0.10647694 -0.0081627425 0
-0.0015674855 -0.10794249 -4.9846967e-06 0
-0.0013589113 -0.10636376 0.00025595687 0
0.0012498511 -0.10650861 -0.0076254178 0
0.0016670479 -0.1065132 -0.0046006963 0
0.0016433392 -0.10647459 -0.0014873255 0
0.00094197789 -0.10636436 0.00022890499 0
-0.0066601648 -0.10365007 -0.007204711 0
-0.0068856734 -0.10336971 -0.0045746691 0
-0.0068716165 -0.10357729 -0.0015223519 0
-0.0067047887 -0.10330781 0.00053943187 0
-0.0044658165 -0.10364027 -0.0076938989 0
-0.004377102 -0.10372421 0.00069222384 0
-0.0012600947 -0.10359599 -0.0076865647 0
-0.001580661 -0.10354469 0.00072191079 0
0.0011170633 -0.10357866 -0.007245102 0
0.001465673 -0.10361247 -0.0044093295 0
0.0014489273 -0.10337139 -0.0014559807 0
0.0008980881 -0.10347535 0.00063088903 0
-0.0068268874 -0.10053932 -0.0068715131 0
-0.0070786099 -0.10052274 -0.004449897 0
-0.0070897858 -0.10035792 -0.0016763725 0
-0.0067983284 -0.10073369 0.00086831534 0
-0.0047373408 -0.10062795 -0.0071960073 0
-0.004591763 -0.10064989 0.0012003662 0
-0.0014375994 -0.1006817 -0.0072048772 0
-0.001547768 -0.10054776 0.0012172576 0
0.0009065402 -0.1005842 -0.0070209652 0
0.0012419339 -0.10038956 -0.004397836 0
0.0012430606 -0.10040591 -0.0014933592 0
0.00094154378 -0.10051163 0.00088048546 0
-0.0070056319 -0.097514339 -0.0065231505 0
-0.0072841807 -0.09748932 -0.0044918056 0
-0.0072859838 -0.09746287 -0.0014978755 0
-0.0070365411 -0.097289108 0.0012969973 0
-0.0045089782 -0.097741723 -0.0067189513 0
-0.0045093806 -0.09751907 0.0017178423 0
-0.0015903563 -0.097390123 -0.0066608298 0
-0.0014826197 -0.097477145 0.0017247858 0
0.00070715265 -0.097728185 -0.0065264925 0
0.0010395498 -0.097474247 -0.0045936415 0
0.0010361949 -0.097426072 -0.0013482707 0
0.00084363669 -0.097495273 0.0011592435 0
-0.0069750738 -0.09479557 -0.0061886804 0
-0.0074629728 -0.09454307 -0.0044533494 0
-0.0074811047 -0.094583608 -0.0014778733 0
-0.0071429093 -0.094526462 0.0015902863 0
-0.0045225923 -0.094650775 -0.0062080622 0
-0.0045375666 -0.093185425 -0.0059658596 0
-0.0045127864 -0.094527423 0.0022123223 0
-0.0015065121 -0.094658405 -0.0062093097 0
-0.0021108284 -0.093189821 -0.0059665772 0
-0.0014030411 -0.094444036 0.0022261161 0
0.00061386323 -0.095006309 -0.0062010903 0
0.00081651832 -0.094538063 -0.0043220343 0
0.00082818948 -0.094429828 -0.0015870892 0
0.0006737943 -0.094465248 0.001614777 0
-0.0073621166 -0.091588743 -0.0048427037 0
-0.0076868664 -0.09154737 -0.0014523197 0
-0.0073316758 -0.091342457 0.0019403687 0
-0.0045747366 -0.091326483 -0.0056586051 0
-0.0044750134 -0.091368929 0.0027343729 0
-0.0015179624 -0.09141928 -0.0056739352 0
-0.0014868219 -0.091504812 0.0027119254 0
0.00054430921 -0.091626763 -0.004629517 0
0.00063346914 -0.091624931 -0.0014162302 0
0.00057855132 -0.091454551 0.0015961556 0
-0.00744987 -0.088463843 -0.0044458942 0
-0.0078987284 -0.088421106 -0.0015159721 0
-0.0078819189 -0.0886693 0.0013635451 0
-0.0069890916 -0.088464342 0.003200023 0
-0.004640324 -0.088649116 -0.0052160737 0
-0.0045715375 -0.089890197 0.002978791 0
-0.0047466489 -0.088395953 0.0032257657 0
-0.0016088249 -0.088513479 -0.0051936461 0
-0.0015430675 -0.089875855 0.0029811703 0
-0.0014909894 -0.088555738 0.0031993648 0
0.00039730425 -0.088393606 -0.0042557553 0
0.00042163531 -0.088573501 -0.0013545466 0
0.00040988848 -0.088517293 0.0015348746 0
0.00029794342 -0.088359252 0.0031386004 0
-0.0075177769 -0.085667163 -0.0043308265 0
-0.0081047071 -0.085381702 -0.0014543456 0
-0.0081053209 -0.08537282 0.0015885531 0
-0.0072544036 -0.085347675 0.0036259936 0
-0.004610748 -0.085493661 -0.0046945247 0
-0.0044358722 -0.085350946 0.0037290587 0
-0.0014759653 -0.085435815 -0.0046849526 0
-0.0015214271 -0.08564686 0.0036801593 0
0.00020243075 -0.085588701 -0.0039723646 0
0.00020325017 -0.085427701 -0.0015244685 0
0.00020250637 -0.085417137 0.001634453 0
0.00016247107 -0.085497551 0.0035023184 0
-0.0075294431 -0.082494438 -0.0040357737 0
-0.0082006473 -0.082414448 -0.0014370994 0
-0.0081928894 -0.082444377 0.0015380061 0
-0.0073706806 -0.082448639 0.0039804569 0
-0.0042459853 -0.082291253 -0.0042445036 0
-0.0047137453 -0.082466036 0.004130946 0
-0.0014655556 -0.082694069 -0.004276495 0
-0.0014198263 -0.082402684 0.0041469107 0
8.2247272e-05 -0.082429364 -0.0036879983 0
9.0764464e-05 -0.082556956 -0.0013848674 0
9.4924675e-05 -0.082486764 0.0016089185 0
9.1816873e-05 -0.082780004 0.0035548538 0
-0.0071947305 -0.079473473 -0.0039378502 0
-0.0077550123 -0.079509251 -0.001577875 0
-0.0077382829 -0.079417378 0.0016255622 0
-0.0071532987 -0.079511046 0.0040031034 0
-0.0044633881 -0.079607002 -0.0041997274 0
-0.0045081293 -0.079401769 0.0042002709 0
-0.0016562148 -0.079563744 -0.0041997172 0
-0.0013934742 -0.079342134 0.0042002802 0
0.00044810239 -0.079527773 -0.0038684062 0
0.00056093605 -0.07949502 -0.0014496723 0
0.00057067152 -0.079442814 0.0015799542 0
0.000470281 -0.079661354 0.0037368501 0
-0.0069210827 -0.076555751 -0.0038876671 0
-0.0072053 -0.076492548 -0.0015632164 0
-0.0071956553 -0.076439537 0.001346533 0
-0.0069251419 -0.076629087 0.003926998 0
-0.0046253437 -0.076592661 -0.0041997391 0
-0.0044677947 -0.076457664 0.0042002606 0
-0.0015880364 -0.076467261 -0.0041997284 0
-0.001325466 -0.076552793 0.0042002727 0
0.00077630678 -0.07667876 -0.0039032483 0
0.0010973439 -0.076621413 -0.0014248537 0
0.0010950734 -0.076633491 0.0014133623 0
0.00082592602 -0.076464735 0.0038062627 0
-0.006577597 -0.073543593 -0.003794492 0
-0.006646486 -0.073425859 -0.0013569072 0
-0.0066472678 -0.073430084 0.0016046008 0
-0.0065169912 -0.073665246 0.0039080484 0
-0.0045369663 -0.07359878 -0.0041997484 0
-0.0044927956 -0.073555566 0.0042002518 0
-0.0016119303 -0.073624462 -0.0041997391 0
-0.0015428397 -0.07360518 0.0042002602 0
0.0012184482 -0.073318563 -0.0039412966 0
0.0016856231 -0.073469907 -0.0013223782 0
0.0017006201 -0.0733895 0.0015662122 0
0.0012365399 -0.073316745 0.0039220927 0
-0.006174542 -0.070901789 -0.0037619162 0
-0.0061680544 -0.070800334 -0.0013404824 0
-0.0061850399 -0.070893489 0.0014757395 0
-0.0061424104 -0.070826016 0.0037086813 0
-0.0048371027 -0.070321366 -0.004127068 0
-0.0059304 -0.069496118 -0.0015646577 0
-0.0059074415 -0.069370076 0.0014898498 0
-0.0048372834 -0.070255965 0.0041127922 0
-0.0014547479 -0.070443891 -0.0041997493 0
-0.0014845653 -0.070464127 0.0042002485 0
0.0015162408 -0.070553452 -0.0039572376 0
0.0022599285 -0.070393279 -0.0015539613 0
0.0022710625 -0.070333555 0.0015262921 0
0.0014874679 -0.070415705 0.0040441062 0
-0.0046447241 -0.067413718 -0.0039717266 0
-0.0055661383 -0.067497127 -0.0015968288 0
-0.0055283383 -0.067289621 0.0013555988 0
-0.0045658378 -0.06764441 0.0040330351 0
-0.0014770277 -0.067560457 -0.00419976 0
-0.0015775816 -0.067307636 0.0042002387 0
0.0018076322 -0.067465708 -0.0040034647 0
0.0027394569 -0.067824364 -0.0015117162 0
0.0027377231 -0.067833588 0.0014088309 0
0.0018457251 -0.067557082 0.0039866916 0
0.0030529669 -0.066144899 -0.0034086218 0
0.0030304475 -0.066265494 -0.0018249643 0
0.003043555 -0.066195205 0.0015829011 0
0.0030512512 -0.066153929 0.0037793731 0
-0.0045341467 -0.06470149 -0.003947333 0
-0.0050143343 -0.064468943 -0.0016172662 0
-0.005000778 -0.064394474 0.0014799354 0
-0.0044097342 -0.064652294 0.0039948779 0
-0.0015158844 -0.064471744 -0.0041997721 0
-0.0016484346 -0.064485587 0.0042002285 0
0.0015822792 -0.064553879 -0.0041997586 0
0.0014945266 -0.064449571 0.0042002397 0
0.0033368834 -0.064590394 -0.0036183097 0
0.0034190926 -0.064183474 -0.0014468449 0
0.0033434893 -0.064588405 0.0014972148 0
0.003329363 -0.064457014 0.0037000505 0
-0.0095133288 -0.060000028 -0.0072587742 0
-0.0094508529 -0.060000017 -0.0039614541 0
-0.0094614308 -0.060000006 -0.0012001893 0
-0.009460235 -0.059999999 0.00097697764 0
-0.0095246937 -0.059999987 0.0036846558 0
-0.0092308167 -0.059999973 0.0078051514 0
-0.008313952 -0.060000036 -0.009122395 0
-0.0074651991 -0.060000017 -0.007446602 0
-0.0073306789 -0.059999995 -0.0042152097 0
-0.0072505381 -0.059999987 -0.0011685553 0
-0.0072057601 -0.05999998 0.0012915822 0
-0.0076953848 -0.05999998 0.0044697551 0
-0.0074532456 -0.05999998 0.0071696211 0
-0.006942044 -0.059999969 0.0093724821 0
-0.0043075085 -0.060000036 -0.0096276486 0
-0.0047026575 -0.060000025 -0.0074002501 0
-0.0042612487 -0.061325103 -0.0040777661 0
-0.0045898291 -0.061379731 -0.0016522425 0
-0.0045383093 -0.061293427 0.0014195297 0
-0.0042259153 -0.061420728 0.0040504085 0
-0.0045585656 -0.059999958 0.007824217 0
-0.0043452755 -0.059999969 0.0093932776 0
-0.0011427362 -0.060000036 -0.0094088707 0
-0.0013963555 -0.060000006 -0.0076308358 0
-0.0014964124 -0.061035082 -0.004373915 0
-0.0014424304 -0.061385337 0.0043389252 0
-0.0013170256 -0.059999961 0.007200269 0
-0.0013674538 -0.059999969 0.0096088238 0
0.0015470277 -0.06000004 -0.0094476715 0
0.0012428676 -0.060000021 -0.007490437 0
0.0016809843 -0.061300609 -0.0043432405 0
0.0016240369 -0.061449829 0.0043336977 0
0.00096461462 -0.059999969 0.007670525 0
0.0013883774 -0.059999969 0.009549899 0
0.0042380313 -0.06000004 -0.0094592599 0
0.0044913054 -0.059999999 -0.0073205745 0
0.0039232755 -0.061053589 -0.0040589343 0
0.0041156127 -0.061150767 -0.0016960033 0
0.0039673378 -0.061421126 0.0015407839 0
0.0038284792 -0.061190311 0.003968921 0
0.004668586 -0.059999973 0.0073686335 0
0.0047218716 -0.059999973 0.0094249928 0
0.0073961429 -0.060000032 -0.0075068711 0
0.0076203221 -0.060000014 -0.0049792826 0
0.0073192283 -0.059999995 -0.0015641572 0
0.0073719937 -0.059999995 0.0014731772 0
0.0076344125 -0.059999991 0.0040764012 0
0.0078140162 -0.059999969 0.0071411147 0
0.0079210205 -0.059999969 0.0092831999 0
0.0095591918 -0.060000036 -0.0096143913 0
0.0094354637 -0.060000028 -0.0076754275 0
0.0094597097 -0.060000017 -0.0041141845 0
0.0093612112 -0.06000001 -0.0015621043 0
0.0094615892 -0.059999995 0.0021186878 0
0.009416569 -0.059999987 0.0039349222 0
0.0093027558 -0.059999976 0.0076649091 0
0.0093574645 -0.059999969 0.0096705444 0
-0.0097118812 -0.058803923 -0.0097463503 0
-0.0099345334 -0.05874265 -0.0075293826 0
-0.0098813586 -0.058828659 -0.0046430882 0
-0.0099281967 -0.058715615 -0.001523656 0
-0.0099229133 -0.058802195 0.0015287197 0
-0.0098707546 -0.058984976 0.0045357649 0
-0.0098793199 -0.058824226 0.0076451339 0
-0.0097017977 -0.058817305 0.0097116707 0
-0.0075359051 -0.058873821 -0.0098829661 0
-0.0076281861 -0.059999984 -0.0078111803 0
-0.0075597232 -0.059999976 -0.0043190559 0
-0.007621468 -0.059999965 -0.0015413718 0
-0.0074022929 -0.059999961 0.0015753212 0
-0.0073602386 -0.059999947 0.0045182901 0
-0.0075786682 -0.059999935 0.0074782143 0
-0.0075225416 -0.059079845 0.0098792389 0
-0.0045385142 -0.058644194 -0.0099120559 0
-0.00454571 -0.059999984 -0.0073739858 0
-0.0047721094 -0.059999984 -0.0045038764 0
-0.0053050076 -0.059999987 -0.0017103422 0
-0.0050831623 -0.059999965 0.0014857543 0
-0.0048442259 -0.05999995 0.0046003405 0
-0.00447352 -0.059999935 0.0074929246 0
-0.004512263 -0.058831997 0.009877 0
-0.0014918845 -0.058773335 -0.009892635 0
-0.0013723753 -0.059999991 -0.0075164638 0
-0.0014765187 -0.060000006 -0.0050291233 0
-0.0015157614 -0.059999961 0.0051868227 0
-0.0015305937 -0.059999935 0.0074850749 0
-0.0014172108 -0.05877227 0.0099029485 0
0.0016472446 -0.058752436 -0.0099103143 0
0.0016531458 -0.059999991 -0.0076245163 0
0.0018031003 -0.059999987 -0.0050243349 0
0.0014917379 -0.059999958 0.0051869503 0
0.0015200868 -0.059999935 0.0074181305 0
0.0015027787 -0.05872808 0.0099569317 0
0.0045399605 -0.058753401 -0.0099428603 0
0.0045643854 -0.059999995 -0.0073660002 0
0.0047188364 -0.059999984 -0.0048996066 0
0.0053226249 -0.059999991 -0.001502088 0
0.0051153088 -0.059999973 0.0016763191 0
0.0046367035 -0.059999943 0.0047383085 0
0.004329619 -0.059999935 0.0076907915 0
0.0046315072 -0.058497608 0.0099176941 0
0.0073980321 -0.058783107 -0.0099116685 0
0.0076001692 -0.059999991 -0.0076340614 0
0.0074220807 -0.05999998 -0.004576805 0
0.0074382243 -0.059999976 -0.0015785698 0
0.0074121552 -0.059999973 0.0016919455 0
0.0076767635 -0.059999947 0.0044313343 0
0.0075551742 -0.059999935 0.0076179323 0
0.0073960219 -0.058857542 0.0098795909 0
0.009685168 -0.058690656 -0.0097525241 0
0.0098969806 -0.058790524 -0.0075586243 0
0.0099445097 -0.058775168 -0.0044408925 0
0.0099302689 -0.058616221 -0.0014363565 0
0.0098730195 -0.058831595 0.0014274819 0
0.0098439297 -0.058900815 0.0045613809 0
0.0099085839 -0.058710225 0.0075578736 0
0.0097367978 -0.05867964 0.0097112684 0
-0.0097760437 -0.05564937 -0.0096649528 0
-0.0099999681 -0.055434413 -0.0073975916 0
-0.0099999784 -0.055579562 -0.0045772269 0
-0.0099999886 -0.055567406 -0.0016050842 0
-0.010000001 -0.055587776 0.0016558386 0
-0.010000011 -0.055404667 0.0043349918 0
-0.010000021 -0.055453084 0.007300714 0
-0.0097682532 -0.055433165 0.0097465683 0
-0.0076034502 -0.055328365 -0.0099998219 0
-0.007305935 -0.055334408 0.010000169 0
-0.0044864835 -0.055604022 -0.0099998107 0
-0.0045790169 -0.055658657 0.01000018 0
-0.0013583102 -0.055368882 -0.0099997995 0
-0.0015790875 -0.055356473 0.010000189 0
0.0014873666 -0.055551052 -0.0099997874 0
0.0014264955 -0.055528373 0.010000201 0
0.0044659879 -0.055242952 -0.00999978 0
0.0045800004 -0.055603165 0.010000212 0
0.0074173575 -0.055516172 -0.0099997679 0
0.0074998406 -0.055556085 0.010000223 0
0.009781857 -0.055500433 -0.0097453911 0
0.010000022 -0.055525132 -0.0074937022 0
0.01000001 -0.055465687 -0.0043889671 0
0.0099999998 -0.055458874 -0.0016246011 0
0.0099999895 -0.055593845 0.0015500227 0
0.0099999802 -0.055465598 0.0045001451 0
0.0099999681 -0.055374876 0.0076629398 0
0.0097572431 -0.055401139 0.0097607514 0
-0.0097543458 -0.052276034 -0.0097481431 0
-0.0099999681 -0.052442778 -0.0075320122 0
-0.0099999784 -0.052498702 -0.0045096725 0
-0.0099999895 -0.052599009 -0.0014716918 0
-0.010000001 -0.052662428 0.0014997862 0
-0.010000013 -0.052412592 0.0046648788 0
-0.010000021 -0.052510403 0.0073939767 0
-0.0097750602 -0.052435838 0.0097335484 0
-0.007622622 -0.052485213 -0.0099998331 0
-0.0074785762 -0.052187979 0.010000157 0
-0.0044867275 -0.052437983 -0.00999982 0
-0.0045828279 -0.052394606 0.010000168 0
-0.0015629358 -0.052512832 -0.0099998098 0
-0.0015049317 -0.052437831 0.01000018 0
0.0015041544 -0.052488875 -0.0099997995 0
0.0013824148 -0.052433167 0.010000189 0
0.0045507746 -0.052574914 -0.0099997884 0
0.0045762439 -0.052666441 0.010000202 0
0.0074374648 -0.05244435 -0.0099997772 0
0.0075226948 -0.052350912 0.010000211 0
0.0097638145 -0.052337855 -0.0097341007 0
0.010000021 -0.052538838 -0.0074327514 0
0.010000012 -0.052367631 -0.0046763467 0
0.0099999998 -0.052635681 -0.0014718154 0
0.0099999877 -0.052635901 0.0015728885 0
0.0099999784 -0.052360453 0.0044129263 0
0.0099999672 -0.05241384 0.0074989377 0
0.0097477129 -0.052676134 0.0097468663 0
-0.0097612301 -0.049399991 -0.0096812677 0
-0.0099999672 -0.049521077 -0.0076542776 0
-0.0099999793 -0.049349263 -0.0047279736 0
-0.0099999886 -0.049464811 -0.0016819187 0
-0.010000001 -0.049498141 0.0014607037 0
-0.010000013 -0.049225438 0.0046009081 0
-0.010000022 -0.049386051 0.0073313662 0
-0.0098536927 -0.049574267 0.0096981879 0
-0.0075897314 -0.049522445 -0.0099998442 0
-0.0075530028 -0.049344409 0.010000146 0
-0.0044699842 -0.049430978 -0.0099998312 0
-0.0044686431 -0.049381122 0.010000157 0
-0.0015079832 -0.049331754 -0.0099998219 0
-0.0013634117 -0.049650654 0.01000017 0
0.001591283 -0.049578615 -0.0099998098 0
0.001537913 -0.049584284 0.01000018 0
0.0046263593 -0.04936802 -0.0099998005 0
0.0045243138 -0.049381647 0.010000192 0
0.0076771281 -0.049680311 -0.0099997884 0
0.0074343514 -0.049561594 0.010000202 0
0.0098359715 -0.049691923 -0.0097314408 0
0.010000022 -0.049618971 -0.0074968175 0
0.010000011 -0.049578283 -0.0044463249 0
0.0099999998 -0.04935753 -0.0014893204 0
0.0099999886 -0.049557764 0.0014675688 0
0.0099999784 -0.04947057 0.0045635388 0
0.0099999681 -0.049603563 0.0074664904 0
0.0098274508 -0.049496219 0.0097236913 0
-0.0097783972 -0.046415679 -0.0096970024 0
-0.0099999681 -0.046606589 -0.0073755365 0
-0.0099999784 -0.046505302 -0.0044152741 0
-0.0099999877 -0.046486672 -0.0016876739 0
-0.0099999998 -0.046580259 0.0016088199 0
-0.010000011 -0.046483152 0.004508581 0
-0.010000023 -0.046453383 0.00767182 0
-0.0097538177 -0.046403073 0.0097367708 0
-0.0074625979 -0.046587631 -0.0099998526 0
-0.007534564 -0.046581443 0.010000138 0
-0.0045137163 -0.046502519 -0.0099998442 0
-0.004552511 -0.046566434 0.010000147 0
-0.001460482 -0.04674188 -0.0099998321 0
-0.0014784235 -0.046535458 0.010000157 0
0.0016867497 -0.046398327 -0.009999821 0
0.0015345569 -0.046487 0.010000169 0
0.0044726599 -0.046408206 -0.0099998107 0
0.0043811873 -0.046498001 0.010000179 0
0.0074669314 -0.046474189 -0.0099997986 0
0.0076259272 -0.046436258 0.01000019 0
0.0097583709 -0.046429895 -0.0097551541 0
0.010000021 -0.046652552 -0.0072469283 0
0.010000011 -0.046421584 -0.0044322927 0
0.0099999998 -0.046562839 -0.0014479285 0
0.0099999905 -0.046475463 0.0013537476 0
0.0099999784 -0.046425775 0.0045310636 0
0.0099999662 -0.046472259 0.0077015576 0
0.009841796 -0.046607476 0.0097250119 0
-0.0097561339 -0.043486387 -0.0098144151 0
-0.0099999681 -0.043417145 -0.007475087 0
-0.0099999784 -0.04358045 -0.0044662217 0
-0.0099999905 -0.043464586 -0.0014926454 0
-0.010000001 -0.043489784 0.001486854 0
-0.010000011 -0.043547336 0.0045178649 0
-0.010000023 -0.043488357 0.0075885653 0
-0.0097613186 -0.043363836 0.0097467266 0
-0.0074215136 -0.043564592 -0.0099998647 0
-0.0074969493 -0.04358064 0.010000126 0
-0.0043788473 -0.043307263 -0.0099998554 0
-0.0045751617 -0.043540254 0.010000135 0
-0.0014850245 -0.043700613 -0.0099998424 0
-0.0014821358 -0.043714032 0.010000148 0
0.001606402 -0.043215446 -0.0099998321 0
0.001591924 -0.043616939 0.010000159 0
0.0044477456 -0.043446179 -0.009999821 0
0.0044232132 -0.043458086 0.010000168 0
0.0075714858 -0.043425575 -0.0099998107 0
0.0077441582 -0.043598972 0.01000018 0
0.0097178249 -0.043434996 -0.0097314641 0
0.010000022 -0.043510851 -0.0074045663 0
0.01000001 -0.043338019 -0.0044618985 0
0.010000001 -0.043525182 -0.0014445285 0
0.0099999895 -0.043362312 0.001344575 0
0.0099999774 -0.04348062 0.0046285479 0
0.0099999672 -0.043482192 0.0076152645 0
0.0098184161 -0.043438978 0.0096550742 0
-0.0097476672 -0.040527798 -0.0098259654 0
-0.0099999672 -0.040559359 -0.0075445101 0
-0.0099999784 -0.040594403 -0.0046686023 0
-0.0099999895 -0.040447593 -0.0015530947 0
-0.0099999998 -0.040370759 0.0014893985 0
-0.010000012 -0.040490549 0.0045698504 0
-0.010000021 -0.040531587 0.0075063654 0
-0.0097144935 -0.040436424 0.0097731007 0
-0.0074930936 -0.040622916 -0.009999875 0
-0.0077506476 -0.040466759 0.010000113 0
-0.0043964069 -0.040606383 -0.0099998619 0
-0.0047187046 -0.040382516 0.010000124 0
-0.0016275927 -0.040512845 -0.0099998545 0
-0.0014481292 -0.040360283 0.010000135 0
0.0013985153 -0.040577717 -0.0099998424 0
0.0013992304 -0.040342387 0.010000147 0
0.0044406042 -0.040548854 -0.0099998312 0
0.0045381538 -0.040503647 0.010000157 0
0.0073543657 -0.040400293 -0.009999821 0
0.0073685613 -0.040641021 0.010000169 0
0.0097256154 -0.040770266 -0.0097535038 0
0.010000022 -0.040385365 -0.0074867466 0
0.01000001 -0.040417984 -0.0043901438 0
0.0099999998 -0.040326104 -0.0015852891 0
0.0099999905 -0.040519342 0.0014810618 0
0.0099999774 -0.040624395 0.0046217497 0
0.0099999681 -0.040508546 0.0075622411 0
0.009801806 -0.04033196 0.0097638797 0
-0.009712792 -0.037101358 -0.0097523313 0
-0.0099999672 -0.037587591 -0.0075240978 0
-0.0099999793 -0.037398379 -0.0044172672 0
-0.0099999895 -0.037402596 -0.0014284562 0
-0.010000001 -0.03737748 0.0014117603 0
-0.010000011 -0.037537869 0.0044080126 0
-0.010000021 -0.037550226 0.0074942484 0
-0.0097508794 -0.037331693 0.0097528221 0
-0.0073283785 -0.037183765 -0.009999888 0
-0.0074346927 -0.037469435 0.010000104 0
-0.0045391722 -0.037536241 -0.0099998759 0
-0.0045499243 -0.037731372 0.010000115 0
-0.0015578506 -0.037296683 -0.0099998657 0
-0.0015530462 -0.037513819 0.010000125 0
0.0014666824 -0.037469774 -0.0099998526 0
0.0014164236 -0.037380461 0.010000135 0
0.0045658094 -0.03739221 -0.0099998415 0
0.004348909 -0.03743637 0.010000148 0
0.0076399818 -0.037469894 -0.0099998312 0
0.0074564572 -0.037443757 0.010000157 0
0.0097059403 -0.037326392 -0.0097709522 0
0.010000022 -0.037592065 -0.0076771416 0
0.010000012 -0.037394274 -0.0044870959 0
0.0099999988 -0.037456099 -0.0013950977 0
0.0099999895 -0.037547171 0.0015809577 0
0.0099999802 -0.037442125 0.0045146393 0
0.0099999681 -0.037462402 0.0075353151 0
0.0097204018 -0.037556231 0.0097769611 0
-0.0098399259 -0.034335837 -0.0096686389 0
-0.0099999672 -0.034476727 -0.0076991636 0
-0.0099999793 -0.034511581 -0.0044338875 0
-0.0099999905 -0.034581896 -0.0013976918 0
-0.0099999998 -0.034464806 0.0016658348 0
-0.010000012 -0.034671612 0.004585681 0
-0.01000002 -0.034564015 0.0072541893 0
-0.0096779903 -0.034470573 0.0097414479 0
-0.0075938147 -0.034504443 -0.0099998983 0
-0.0074662636 -0.034467094 0.010000092 0
-0.0043644425 -0.034631684 -0.0099998852 0
-0.0045970357 -0.034467589 0.010000103 0
-0.0015231071 -0.034520041 -0.0099998759 0
-0.0014525182 -0.034707848 0.010000115 0
0.0013354727 -0.034327742 -0.0099998666 0
0.0015484336 -0.034530032 0.010000125 0
0.0044361353 -0.034454186 -0.0099998536 0
0.0044781975 -0.034574818 0.010000135 0
0.0073583201 -0.034554277 -0.0099998415 0
0.0073140967 -0.034387644 0.010000145 0
0.0097473571 -0.034670819 -0.0097639011 0
0.010000023 -0.034396023 -0.00747805 0
0.010000011 -0.034426097 -0.0045158351 0
0.010000001 -0.034433242 -0.0016265648 0
0.0099999886 -0.034509595 0.0014595828 0
0.0099999784 -0.034517419 0.0043762694 0
0.0099999681 -0.034437682 0.0075047999 0
0.0097878277 -0.034685213 0.0097465767 0
-0.0097961845 -0.031529583 -0.0097114565 0
-0.0099999681 -0.031379052 -0.0074569662 0
-0.0099999793 -0.03136285 -0.0043625766 0
-0.0099999905 -0.031469218 -0.001280313 0
-0.010000001 -0.031420816 0.0015670042 0
-0.01000001 -0.031519465 0.0042943433 0
-0.010000021 -0.031619843 0.0072759991 0
-0.0097502489 -0.03154039 0.0096750436 0
-0.0076751779 -0.031629421 -0.0099999085 0
-0.0076381471 -0.031566359 0.010000082 0
-0.0045233597 -0.031654961 -0.0099998964 0
-0.0044323253 -0.031412356 0.010000092 0
-0.0015475353 -0.031409178 -0.0099998871 0
-0.0015043329 -0.031477969 0.010000103 0
0.0017269094 -0.031484373 -0.009999875 0
0.0014870117 -0.03150918 0.010000114 0
0.0043132259 -0.031548001 -0.0099998657 0
0.0044413512 -0.031375736 0.010000125 0
0.0075323787 -0.031612862 -0.0099998536 0
0.0071947309 -0.031437241 0.010000135 0
0.0097567998 -0.031590749 -0.0097572738 0
0.010000021 -0.031561404 -0.0075407131 0
0.01000001 -0.031443734 -0.0045651724 0
0.0099999998 -0.031429611 -0.0015497223 0
0.0099999895 -0.03157758 0.0016413941 0
0.0099999774 -0.03141135 0.0045361524 0
0.0099999672 -0.031432167 0.0075136707 0
0.0097410819 -0.031295385 0.0096851094 0
-0.0097612562 -0.028025318 -0.0097573139 0
-0.0099999681 -0.028578579 -0.0073886723 0
-0.0099999793 -0.028389508 -0.004615372 0
-0.0099999886 -0.028571574 -0.0015290953 0
-0.010000002 -0.028378604 0.001525265 0
-0.010000011 -0.028530536 0.0044928771 0
-0.010000022 -0.028375903 0.0076067676 0
-0.009722935 -0.028446652 0.0097819343 0
-0.007670647 -0.028410016 -0.0099999206 0
-0.0075873588 -0.02851532 0.010000071 0
-0.004596801 -0.028507762 -0.0099999094 0
