# .PCD v0.7 - Point Cloud Data file format
VERSION 0.7
FIELDS x y z rgb
SIZE 4 4 4 4
TYPE F F F F
COUNT 1 1 1 1
WIDTH 1164
HEIGHT 1
VIEWPOINT 0 0 0 1 0 0 0
POINTS 1164
DATA ascii
-0.0015265053 -0.22927417 -0.0049991733 0
-0.0014206313 -0.2295557 0.0049650329 0
0.0015902841 -0.22970071 -0.0049991608 0
0.0014279218 -0.2295271 0.0049365563 0
0.0045719189 -0.22939588 -0.0044788565 0
0.0050000027 -0.22928917 -0.0014690919 0
0.0049999924 -0.22950217 0.0013801121 0
0.0045371642 -0.22960205 0.0043965275 0
-0.0046102111 -0.22654343 -0.0043664374 0
-0.0049999929 -0.22666529 -0.0014309483 0
-0.0050000041 -0.22646461 0.0015316597 0
-0.0044736061 -0.226547 0.0045219278 0
-0.0015592487 -0.22662507 -0.0049991827 0
-0.0015415006 -0.22658169 0.0049662297 0
0.0015303425 -0.22651513 -0.0049991719 0
0.0013458049 -0.22649254 0.0049373661 0
0.0045103207 -0.22645737 -0.0045880023 0
0.0050000027 -0.22647664 -0.0014651639 0
0.004999992 -0.22643834 0.0015019631 0
0.0044348617 -0.22662501 0.0044881119 0
-0.0044762427 -0.22336544 -0.0045192689 0
-0.004999992 -0.22353992 -0.0014837991 0
-0.0050000031 -0.22331515 0.0016391453 0
-0.0044610864 -0.22331399 0.0044757095 0
-0.0017616492 -0.22336799 -0.0049991957 0
-0.0015944534 -0.22350292 0.0049667461 0
0.001493077 -0.22331722 -0.0049991836 0
0.0015678492 -0.22336827 0.0049351356 0
0.0045477478 -0.2234758 -0.0045158085 0
0.0050000022 -0.22351646 -0.0014782815 0
0.0049999924 -0.22363874 0.0015088274 0
0.0045505352 -0.22366169 0.0044159042 0
-0.004028413 -0.22115463 -0.0041370955 0
-0.003996639 -0.22053279 -0.0015253437 0
-0.0040757 -0.22062193 0.0014498907 0
-0.0041712238 -0.2211763 0.0040893089 0
-0.0015200011 -0.22058332 -0.0040310412 0
-0.0027746407 -0.2191273 -0.0014382374 0
-0.0020426284 -0.21918461 0.0019369152 0
-0.0013224394 -0.22081688 0.0041810279 0
0.0015063344 -0.22056289 -0.0040294863 0
0.0028559815 -0.21916704 -0.0021890055 0
0.0019960147 -0.21917962 0.0024427155 0
0.0014499155 -0.22068301 0.0040147929 0
0.0040488816 -0.22113392 -0.0042470004 0
0.004262174 -0.22083546 -0.0016276424 0
0.0040852516 -0.22062983 0.0015966671 0
0.0042848107 -0.22116473 0.0040010531 0
-0.0019860766 -0.21764372 -0.0017196757 0
-0.0017178418 -0.21759722 0.0019688068 0
0.0018464546 -0.21762398 -0.0018068205 0
0.001928695 -0.2175155 0.0017572616 0
-0.0032633392 -0.21321841 -0.0031256988 0
-0.0031550378 -0.21342605 -0.0015450006 0
-0.0031806882 -0.21336286 0.0012075522 0
-0.0031839148 -0.21335539 0.0030069486 0
-0.0015215786 -0.21337584 -0.003179206 0
-0.0019393916 -0.2148084 -0.0019805254 0
-0.0018634918 -0.21468683 0.0019782463 0
-0.001533944 -0.21325028 0.003145877 0
0.0012656812 -0.21338607 -0.0031720737 0
0.0020437338 -0.21469779 -0.0019530959 0
0.0019659791 -0.21472716 0.0017603484 0
0.00085848174 -0.2131826 0.0031724973 0
0.0033290356 -0.2130727 -0.0030446295 0
0.0031771539 -0.2133801 -0.0011750055 0
0.0032151002 -0.21330592 0.0019002226 0
0.0032809882 -0.21308033 0.0032216657 0
-0.0043402044 -0.21131337 -0.004318356 0
-0.0045565697 -0.21156622 -0.001536084 0
-0.0045547192 -0.21165837 0.0014624296 0
-0.0042567011 -0.211447 0.0043651965 0
-0.0016108669 -0.211611 -0.0045552398 0
-0.00154486 -0.21186067 0.0043783179 0
0.0014942954 -0.21165943 -0.0045088385 0
0.0016483342 -0.21167448 0.0044692601 0
0.004202812 -0.21130234 -0.0043661073 0
0.0044600801 -0.21170571 -0.0015048697 0
0.0045934361 -0.21147855 0.0015252231 0
0.0042307521 -0.21147409 0.0042195683 0
-0.0045145503 -0.20856041 -0.004510026 0
-0.0049999924 -0.20850652 -0.0013450012 0
-0.0050000036 -0.20845453 0.0016841401 0
-0.0045044869 -0.20874561 0.0044731251 0
-0.0014949875 -0.20865723 -0.0049992478 0
-0.0014623782 -0.20866556 0.0049653742 0
0.0015005475 -0.20845149 -0.0049992371 0
0.0014095242 -0.20854098 0.0049366648 0
0.0046117115 -0.20852822 -0.0043872395 0
0.0050000036 -0.20850547 -0.0015113821 0
0.0049999924 -0.20862401 0.0013850768 0
0.0045445892 -0.20864996 0.0043421374 0
-0.0046193567 -0.20552391 -0.0043910909 0
-0.004999992 -0.20549741 -0.0015425747 0
-0.0050000031 -0.20553918 0.0015518417 0
-0.0044616046 -0.20550734 0.0045204479 0
-0.0014573208 -0.20534272 -0.004999259 0
-0.0015609467 -0.20553872 0.0049663479 0
0.0014575695 -0.20541969 -0.0049992488 0
0.0017007812 -0.20556508 0.0049337423 0
0.0044795619 -0.20543832 -0.0046050036 0
0.0050000022 -0.20566665 -0.0014139622 0
0.0049999915 -0.2056523 0.0018481311 0
0.0045491681 -0.20552413 0.0044813626 0
-0.0045745391 -0.20248334 -0.0044742292 0
-0.0049999924 -0.20243366 -0.0014488961 0
-0.0050000027 -0.20251465 0.0014999323 0
-0.0045030247 -0.2024813 0.0045059375 0
-0.0015997037 -0.20244467 -0.0049992702 0
-0.0014082022 -0.20260689 0.0049648094 0
0.0015117878 -0.20258644 -0.0049992586 0
0.0014159441 -0.20278759 0.0049365801 0
0.0044536027 -0.20267907 -0.0046097101 0
0.0050000027 -0.20250036 -0.0013902173 0
0.0049999924 -0.20256616 0.0014042191 0
0.0045007635 -0.20241544 0.0044241599 0
-0.0044171754 -0.1995036 -0.0044981879 0
-0.0049999924 -0.19954017 -0.0015300745 0
-0.0050000036 -0.19959439 0.0015269417 0
-0.0044585075 -0.19953118 0.0045367246 0
-0.001629845 -0.19965035 -0.0049992809 0
-0.0013892514 -0.19953214 0.0049646087 0
0.0015330296 -0.19930138 -0.0049992707 0
0.0014964838 -0.19935733 0.0049357624 0
0.0044580861 -0.19931583 -0.0044911499 0
0.0050000027 -0.19955176 -0.0014710003 0
0.004999992 -0.19952567 0.0014172343 0
0.0044239783 -0.19934566 0.0045591635 0
-0.0044783191 -0.19653873 -0.0045207269 0
-0.0049999929 -0.19631223 -0.0013422093 0
-0.0050000031 -0.1965887 0.0015659175 0
-0.004543324 -0.19671953 0.0044701886 0
-0.0015501269 -0.19642138 -0.0049992921 0
-0.0014117459 -0.19672406 0.0049648238 0
0.0013668025 -0.19656415 -0.0049992809 0
0.0014829059 -0.19665052 0.00493589 0
0.0044471147 -0.19639169 -0.0044021429 0
0.0050000031 -0.19654801 -0.0015961139 0
0.0049999924 -0.19638866 0.0014761754 0
0.0045500761 -0.1963827 0.0044710492 0
-0.0044114646 -0.1935122 -0.0045827418 0
-0.004999992 -0.19340979 -0.0015957234 0
-0.0050000022 -0.19365136 0.0014486676 0
-0.0044063744 -0.19351794 0.0045066518 0
-0.0015585856 -0.19340897 -0.0049993028 0
-0.0014022804 -0.19356795 0.0049647177 0
0.0014017103 -0.1934104 -0.0049992921 0
0.0015366572 -0.19362763 0.0049353405 0
0.0044442746 -0.19337815 -0.0045251711 0
0.0050000036 -0.19375563 -0.0016409528 0
0.004999992 -0.1934205 0.0015478964 0
0.0045526796 -0.19335565 0.0044360086 0
-0.0046022395 -0.19052713 -0.0044988347 0
-0.0049999915 -0.19032536 -0.0017112464 0
-0.0050000027 -0.19040667 0.0013929121 0
-0.0044468269 -0.19062755 0.0045635994 0
-0.0014162336 -0.19044456 -0.0049993135 0
-0.0015131611 -0.19047116 0.0049658162 0
0.0014597634 -0.19050424 -0.0049993023 0
0.0016307114 -0.19040735 0.0049343887 0
0.00453257 -0.19047339 -0.0044925283 0
0.0050000027 -0.19066665 -0.0014186896 0
0.0049999915 -0.19038641 0.0014071031 0
0.00449702 -0.19033335 0.004452032 0
-0.0046023964 -0.18778886 -0.004357161 0
-0.004999992 -0.18755721 -0.0014815798 0
-0.0050000031 -0.18743528 0.0013925444 0
-0.0046057277 -0.1875232 0.0044783507 0
-0.0013902885 -0.18752788 -0.0049993242 0
-0.0014300506 -0.18751796 0.0049649738 0
0.0015391703 -0.18752699 -0.0049993135 0
0.0016573669 -0.18752825 0.0049341116 0
0.0045390911 -0.18735328 -0.0043864101 0
0.0050000022 -0.18749188 -0.0014238766 0
0.004999992 -0.1875826 0.0014743982 0
0.0044250051 -0.18755512 0.0044963574 0
-0.0043732524 -0.18450306 -0.0045666276 0
-0.0049999924 -0.18448497 -0.0013488551 0
-0.0050000022 -0.18456899 0.0014411568 0
-0.0045332732 -0.184582 0.0043891491 0
-0.0015231408 -0.18447675 -0.0049993359 0
-0.0015810434 -0.18462244 0.0049664727 0
0.0015930011 -0.18440516 -0.0049993242 0
0.0013632482 -0.18432465 0.0049370397 0
0.0046107532 -0.18457386 -0.00444037 0
0.0050000041 -0.1847329 -0.0016340292 0
0.0049999915 -0.18443723 0.0015039123 0
0.0043056034 -0.1846192 0.004554946 0
-0.0044856193 -0.18158862 -0.004456162 0
-0.0049999924 -0.1816524 -0.0014225151 0
-0.0050000027 -0.18140697 0.0015415289 0
-0.0044232998 -0.18157682 0.0045304019 0
-0.0013581418 -0.18157394 -0.0049993447 0
-0.00143968 -0.18161383 0.0049650483 0
0.0014810807 -0.18157394 -0.0049993345 0
0.001598597 -0.18137833 0.0049346765 0
0.004431475 -0.18152054 -0.0046184757 0
0.0050000036 -0.18166184 -0.0016473678 0
0.0049999924 -0.18135692 0.0014637298 0
0.004458745 -0.18145694 0.0044168797 0
-0.0045579514 -0.1785595 -0.0044630626 0
-0.004999991 -0.17822352 -0.0017465688 0
-0.0050000027 -0.17841186 0.0014763329 0
-0.004513572 -0.17842185 0.0045487564 0
-0.0016355726 -0.17842862 -0.0049993573 0
-0.001601095 -0.1783821 0.0049666506 0
0.0012939785 -0.17845027 -0.004999347 0
0.0014664482 -0.17847516 0.0049359864 0
0.0045155925 -0.17861992 -0.0044390135 0
0.0050000036 -0.17859633 -0.0015601965 0
0.004999992 -0.17846116 0.0015450435 0
0.0043418757 -0.17843686 0.0045284834 0
-0.004398705 -0.17542183 -0.0046030409 0
-0.0049999915 -0.17563012 -0.0017254814 0
-0.0050000027 -0.17554054 0.0014252606 0
-0.0045711352 -0.1755553 0.0044391928 0
-0.0016791726 -0.17561549 -0.0049993675 0
-0.0015554576 -0.17561996 0.0049661845 0
0.0015479937 -0.17555957 -0.0049993563 0
0.0016703643 -0.175458 0.0049339379 0
0.0046098731 -0.17536318 -0.0043222262 0
0.0050000041 -0.1754538 -0.0016038318 0
0.0049999915 -0.1755237 0.0016520981 0
0.004369969 -0.17553988 0.0045937728 0
-0.0044802609 -0.17250071 -0.0045266552 0
-0.004999992 -0.17243724 -0.0015779153 0
-0.0050000036 -0.17245641 0.0016366238 0
-0.0044585583 -0.17245643 0.0044849012 0
-0.0015757385 -0.17247002 -0.0049993787 0
-0.0013982591 -0.17252284 0.0049646026 0
0.001474425 -0.17245524 -0.0049993675 0
0.0016243479 -0.17263271 0.0049343868 0
0.0043845843 -0.17261648 -0.0045365999 0
0.0050000022 -0.17262726 -0.0012865248 0
0.0049999929 -0.17246121 0.0013375959 0
0.0045131864 -0.17258364 0.0044698459 0
-0.004270819 -0.16946614 -0.004371339 0
-0.0044477955 -0.16937114 -0.0015820978 0
-0.0045851246 -0.16944002 0.0016155659 0
-0.0042311382 -0.16958694 0.0043973546 0
-0.0015400652 -0.16945864 -0.0045154952 0
-0.0018868785 -0.16863187 -0.0019191079 0
-0.0020154146 -0.16858789 0.0018394834 0
-0.0014552203 -0.16936086 0.0044290875 0
0.0014242107 -0.16927564 -0.0044814618 0
0.0019484372 -0.16862465 -0.0019830151 0
0.0018447844 -0.16857764 0.0019997128 0
0.001460986 -0.16951206 0.0045326413 0
0.0042832517 -0.16949986 -0.0043937154 0
0.0044848747 -0.1694261 -0.0013819208 0
0.0046640108 -0.16954933 0.0015078201 0
0.004325714 -0.1695424 0.0043244492 0
-0.0018717874 -0.16641752 -0.0018728959 0
-0.0019303828 -0.16641402 0.0017837352 0
0.0019178165 -0.16645896 -0.001876059 0
0.0017995511 -0.16648145 0.0018578439 0
-0.0017836497 -0.1634049 -0.0018892343 0
-0.0018648948 -0.16356242 0.0019390518 0
0.0019775871 -0.16347699 -0.0017939981 0
0.0018298981 -0.16358557 0.0018349726 0
-0.001736062 -0.16053322 -0.0018156539 0
-0.0019498651 -0.16061591 0.0016787604 0
0.0019274754 -0.16047059 -0.001824288 0
0.0018867149 -0.16058761 0.0017207508 0
-0.0044051181 -0.15789352 -0.00442706 0
-0.0046553789 -0.15783472 -0.0014772585 0
-0.0046084961 -0.15795527 0.0015061338 0
-0.004376098 -0.15786701 0.0044835443 0
-0.0014863877 -0.1579856 -0.0046454621 0
-0.0021438017 -0.1589053 -0.0017830138 0
-0.0021516662 -0.15890315 0.0020875861 0
-0.0013869653 -0.15796489 0.0045999084 0
0.0016537247 -0.15792836 -0.0046489146 0
0.0021674561 -0.15889999 -0.0019906622 0
0.0022176688 -0.1589102 0.0019584589 0
0.0014216527 -0.15802063 0.0045080381 0
0.004432749 -0.15778333 -0.0042440854 0
0.0045432635 -0.15802117 -0.0012664699 0
0.0045876903 -0.1579769 0.0015474524 0
0.0043251887 -0.15773119 0.0043591526 0
-0.004472693 -0.15452547 -0.004548768 0
-0.0049999929 -0.15448959 -0.0013516798 0
-0.0050000022 -0.15456186 0.0013571697 0
-0.0044639651 -0.15435939 0.0045154127 0
-0.001433379 -0.15439244 -0.0049994439 0
-0.0014322947 -0.15449163 0.0049648769 0
0.0014260944 -0.15456097 -0.0049994322 0
0.0016325931 -0.15451445 0.0049342387 0
0.004300165 -0.15437165 -0.0046683201 0
0.0050000022 -0.15455805 -0.0014248103 0
0.0049999915 -0.1544017 0.001489876 0
0.0044124802 -0.15453494 0.0045635565 0
-0.0045559509 -0.15160511 -0.0044693346 0
-0.0049999929 -0.15145355 -0.0012724145 0
-0.0050000027 -0.1515867 0.0014526751 0
-0.0045684162 -0.1514758 0.0044936803 0
-0.0014058802 -0.15154471 -0.0049994541 0
-0.0012786177 -0.15156955 0.00496333 0
0.0015895691 -0.15139617 -0.0049994434 0
0.0015758255 -0.15172838 0.0049347975 0
0.0044221231 -0.15156126 -0.0044929911 0
0.0050000022 -0.15157737 -0.0014752521 0
0.0049999924 -0.15167354 0.0014648744 0
0.0045482889 -0.15160166 0.004562438 0
-0.0046289875 -0.14845599 -0.0043142391 0
-0.0049999915 -0.14856724 -0.001613191 0
-0.0050000027 -0.14826609 0.001531406 0
-0.0045486856 -0.1484938 0.004435143 0
-0.0015533185 -0.14847691 -0.0049994658 0
-0.0015702401 -0.14851685 0.0049662348 0
0.0016455565 -0.14846294 -0.0049994541 0
0.0014718076 -0.14858525 0.0049358252 0
0.0043657171 -0.14847769 -0.0045613772 0
0.0050000027 -0.14868613 -0.0014385909 0
0.0049999924 -0.14838493 0.0014350308 0
0.0044809189 -0.14848998 0.0044407444 0
-0.0045058546 -0.14547682 -0.0045344094 0
-0.004999991 -0.14560148 -0.0016440868 0
-0.0050000022 -0.14555293 0.0013413592 0
-0.004484843 -0.14551772 0.0045851697 0
-0.0014324738 -0.14559825 -0.0049994756 0
-0.0012977015 -0.14558104 0.0049635009 0
0.0015310363 -0.14546682 -0.0049994648 0
0.0016069418 -0.14566317 0.0049344623 0
0.0045899805 -0.14555146 -0.0044154315 0
0.0050000027 -0.14567307 -0.0014503602 0
0.0049999929 -0.14543581 0.0012736848 0
0.0046240361 -0.14546415 0.0042787488 0
-0.0045035412 -0.14246735 -0.0045359097 0
-0.0049999915 -0.14247212 -0.0015834778 0
-0.0050000031 -0.14250009 0.0014945461 0
-0.0045087403 -0.14253502 0.0045165243 0
-0.0017145213 -0.14254895 -0.0049994877 0
-0.0016693725 -0.14258599 0.0049672034 0
0.001379116 -0.1423744 -0.0049994765 0
0.0016549276 -0.14241554 0.0049339714 0
0.0045690755 -0.14225353 -0.0043534655 0
0.0050000036 -0.14253318 -0.001672785 0
0.0049999924 -0.14253782 0.0015066789 0
0.004599839 -0.14254437 0.0043408251 0
-0.0045275921 -0.13942471 -0.0044939239 0
-0.0049999915 -0.1396164 -0.0016560472 0
-0.0050000031 -0.13943867 0.0015832748 0
-0.0044554076 -0.13948233 0.00464402 0
-0.0016171942 -0.13955662 -0.0049994988 0
-0.0014606743 -0.13958299 0.0049651065 0
0.0015967439 -0.13950963 -0.0049994863 0
0.0016067412 -0.13951726 0.0049344422 0
0.0044783461 -0.13950221 -0.0045019034 0
0.0050000041 -0.13936462 -0.0017729737 0
0.0049999915 -0.13961686 0.0015400234 0
0.0043518269 -0.13974679 0.0045391424 0
-0.004543358 -0.13647355 -0.0045253225 0
-0.004999992 -0.13642073 -0.0015549384 0
-0.0050000027 -0.13639581 0.0013568158 0
-0.004533079 -0.13646348 0.0045308885 0
-0.0014734454 -0.13660504 -0.0049995081 0
-0.0014683851 -0.13656397 0.0049651735 0
0.0016069978 -0.13651557 -0.0049994979 0
0.0016278179 -0.13643448 0.0049342215 0
0.004614484 -0.13649473 -0.004470923 0
0.0050000018 -0.13667333 -0.0014221201 0
0.004999991 -0.13638203 0.0016203275 0
0.0044372859 -0.13637014 0.0044649523 0
-0.0045685745 -0.13341634 -0.0044023064 0
-0.0049999924 -0.13356222 -0.0014037323 0
-0.0050000036 -0.13331334 0.0016976127 0
-0.0043681744 -0.13362093 0.0045489511 0
-0.0014961365 -0.13364053 -0.0049995193 0
-0.0014472349 -0.133509 0.0049649505 0
0.0012649825 -0.13350463 -0.0049995095 0
0.0016693447 -0.13363673 0.0049337968 0
0.0045318124 -0.13338138 -0.0045140893 0
0.0050000027 -0.1336527 -0.0015589272 0
0.004999992 -0.13351604 0.0013746041 0
0.0044313599 -0.13356622 0.0045972015 0
-0.0045213029 -0.13066141 -0.0044591147 0
-0.0049999924 -0.13043608 -0.0015557951 0
-0.0050000031 -0.13036257 0.0014908571 0
-0.0044461358 -0.13054177 0.0046006273 0
-0.0014785284 -0.13044778 -0.00499953 0
-0.0014480727 -0.13032816 0.0049649458 0
0.0016046847 -0.13043694 -0.0049995193 0
0.001365219 -0.13051076 0.0049368255 0
0.0045036785 -0.13059296 -0.0045192442 0
0.0050000022 -0.13044783 -0.0013926832 0
0.0049999929 -0.13053873 0.0013452236 0
0.0044378554 -0.13042931 0.0045443643 0
-0.0044274596 -0.12762806 -0.0047450573 0
-0.0049999924 -0.12752499 -0.0015582835 0
-0.0050000022 -0.12744887 0.0014266127 0
-0.0044794567 -0.1275311 0.0045440122 0
-0.0013994476 -0.12752977 -0.0049995412 0
-0.0012983228 -0.12749667 0.0049634399 0
0.0015510401 -0.12752609 -0.0049995305 0
0.0017121222 -0.12753123 0.0049333461 0
0.0045477254 -0.12757747 -0.0043432759 0
0.0050000036 -0.12740991 -0.0016900091 0
0.004999991 -0.12749271 0.0017664365 0
0.0043606288 -0.12753072 0.0045483666 0
-0.0044546383 -0.12442136 -0.0045171166 0
-0.0049999915 -0.12451062 -0.0016130859 0
-0.0050000027 -0.12441209 0.0014650594 0
-0.0044949166 -0.12433066 0.004524292 0
-0.0015525689 -0.12442418 -0.0049995529 0
-0.0015599567 -0.12437317 0.0049660429 0
0.0016920557 -0.12439346 -0.0049995412 0
0.0015074061 -0.12455878 0.0049353815 0
0.0046501039 -0.12469876 -0.0044080294 0
0.0050000027 -0.12450577 -0.0014633163 0
0.004999992 -0.12458713 0.001570431 0
0.0043740505 -0.12463036 0.0044585052 0
-0.004527763 -0.12150589 -0.0045839502 0
-0.0049999924 -0.12148235 -0.0014134089 0
-0.0050000041 -0.1215211 0.0015630963 0
-0.0044885916 -0.1214134 0.0044576265 0
-0.0013831077 -0.12134449 -0.004999564 0
-0.0014412432 -0.12139194 0.0049648471 0
0.0014882633 -0.12159015 -0.0049995515 0
0.001542094 -0.12162022 0.0049350243 0
0.0044775321 -0.12150218 -0.0045070164 0
0.0050000036 -0.12171244 -0.0015524485 0
0.004999992 -0.12146118 0.0014862308 0
0.0043108608 -0.12145726 0.0044542146 0
-0.0046701566 -0.11853527 -0.004395084 0
-0.0049999915 -0.11859044 -0.0014923195 0
-0.0050000031 -0.11867014 0.0015226875 0
-0.0044897171 -0.11861155 0.0045084031 0
-0.0015429201 -0.11846156 -0.0049995747 0
-0.0015870251 -0.11847801 0.004966293 0
0.001633303 -0.11873329 -0.0049995622 0
0.0015655209 -0.11858702 0.0049347784 0
0.0044210162 -0.1184833 -0.0045816302 0
0.0050000022 -0.11852212 -0.0012399863 0
0.0049999924 -0.11839171 0.0013569669 0
0.0044289441 -0.11826623 0.0045016413 0
-0.0044562384 -0.11552776 -0.0045335176 0
-0.0049999924 -0.11557414 -0.0013921773 0
-0.0050000027 -0.11550536 0.0013281406 0
-0.0044123321 -0.11547632 0.0045239413 0
-0.0014888517 -0.11581876 -0.0049995836 0
-0.0014250621 -0.11546396 0.0049646627 0
0.0014109337 -0.11567376 -0.0049995738 0
0.0014602072 -0.11543498 0.0049358206 0
0.0045123072 -0.11570576 -0.0045675379 0
0.0050000031 -0.11553667 -0.0015993044 0
0.004999992 -0.11532425 0.0014944457 0
0.0045018666 -0.11556254 0.0044560484 0
-0.0045978012 -0.11234192 -0.0044882945 0
-0.004999992 -0.11244788 -0.0015107166 0
-0.0050000027 -0.11254087 0.0013556822 0
-0.0044575306 -0.11256572 0.0044679213 0
-0.001595705 -0.11232773 -0.0049995966 0
-0.0014914251 -0.11263385 0.004965317 0
0.0015057166 -0.11248334 -0.0049995845 0
0.0014383281 -0.1125598 0.0049360297 0
0.0044918121 -0.11249097 -0.0045202798 0
0.0050000027 -0.11240898 -0.0014244135 0
0.0049999929 -0.11247974 0.0014673356 0
0.0045927651 -0.11246856 0.0044128802 0
-0.0044182264 -0.10939378 -0.00459179 0
-0.0049999929 -0.10936396 -0.0014110875 0
-0.0050000036 -0.10939905 0.0015468523 0
-0.0045580352 -0.10956054 0.0044925399 0
-0.0014498262 -0.10951711 -0.0049996069 0
-0.0013600182 -0.10963895 0.0049639917 0
0.0015317323 -0.10954338 -0.0049995948 0
0.0013675165 -0.10965879 0.0049367268 0
0.0043731281 -0.10947028 -0.0044902619 0
0.0050000031 -0.1092954 -0.0016000164 0
0.0049999906 -0.10957474 0.0017479502 0
0.0045614177 -0.10963015 0.0043823579 0
-0.0045629954 -0.10640424 -0.0043884828 0
-0.0049999929 -0.10646741 -0.0013318323 0
-0.0050000031 -0.10639601 0.0015487758 0
-0.0045422539 -0.10645148 0.0045261122 0
-0.0016626499 -0.10643625 -0.004999619 0
-0.0016728991 -0.10638118 0.0049671074 0
0.0014101778 -0.10653692 -0.0049996064 0
0.0012260415 -0.10651755 0.0049381293 0
0.0043691141 -0.10647687 -0.0044537643 0
0.0050000031 -0.10658859 -0.0015999245 0
0.004999992 -0.10643549 0.0015577197 0
0.0044983625 -0.10655463 0.0044917823 0
-0.0043623252 -0.10339463 -0.0046484475 0
-0.0049999924 -0.10343936 -0.001461739 0
-0.0050000022 -0.103655 0.0012634217 0
-0.0045325458 -0.10344987 0.0043843128 0
-0.0014710416 -0.10348866 -0.0049996278 0
-0.001672859 -0.10354876 0.0049670981 0
0.0015124338 -0.1034129 -0.0049996176 0
0.0015080306 -0.10364343 0.0049353004 0
0.004610653 -0.10342003 -0.0043562911 0
0.0050000041 -0.10351631 -0.0016175654 0
0.0049999924 -0.10349799 0.0014755276 0
0.0044824728 -0.10351957 0.0045267339 0
-0.0045238561 -0.10044374 -0.0044464953 0
-0.004999992 -0.10049786 -0.0014561999 0
-0.0050000027 -0.10023091 0.0014793059 0
-0.0045300908 -0.10040268 0.0045032012 0
-0.0015249281 -0.10059398 -0.004999639 0
-0.0014736698 -0.10057765 0.0049650944 0
0.0016218103 -0.10037197 -0.0049996283 0
0.0014312371 -0.10033189 0.0049360562 0
0.004524189 -0.10045098 -0.0044589243 0
0.0050000036 -0.10050613 -0.0015594857 0
0.004999992 -0.10056685 0.0014638036 0
0.0044716075 -0.10048137 0.0045281015 0
-0.0044760453 -0.097612619 -0.0045010746 0
-0.0049999915 -0.097452164 -0.0014865485 0
-0.0050000022 -0.097472295 0.0013867136 0
-0.0044673155 -0.097578794 0.0044531398 0
-0.0015042038 -0.097429752 -0.0049996502 0
-0.0014854083 -0.097615331 0.004965202 0
0.0013138592 -0.097478189 -0.0049996399 0
0.0015354975 -0.097423859 0.0049350029 0
0.0043470068 -0.097642452 -0.0045678276 0
0.0050000027 -0.097508401 -0.0015022726 0
0.004999991 -0.097274199 0.0018208959 0
0.0045042769 -0.097291924 0.0044151857 0
-0.0043954388 -0.094635196 -0.0045483191 0
-0.004999992 -0.094547845 -0.0016301511 0
-0.0050000022 -0.094503626 0.00126151 0
-0.0044833058 -0.094483048 0.0044267089 0
-0.0016307709 -0.094450146 -0.0049996614 0
-0.0014151871 -0.094612725 0.00496449 0
0.0014755538 -0.094376788 -0.0049996506 0
0.0013901703 -0.094474897 0.0049364455 0
0.0044864775 -0.09439797 -0.0045156567 0
0.0050000036 -0.094583958 -0.0015046375 0
0.004999992 -0.094456702 0.0015373358 0
0.0045790109 -0.09442576 0.0043472033 0
-0.0044623455 -0.091537982 -0.0045518889 0
-0.004999992 -0.09154471 -0.001522311 0
-0.0050000027 -0.091589682 0.0013750584 0
-0.0044626961 -0.091526605 0.0045500505 0
-0.0014862071 -0.091615811 -0.0049996716 0
-0.0013905074 -0.091385804 0.004964231 0
0.0014015832 -0.091339663 -0.0049996618 0
0.0014951418 -0.091473944 0.0049353852 0
0.0044422098 -0.091468789 -0.0045292675 0
0.0050000031 -0.091464348 -0.0015282861 0
0.004999992 -0.091489017 0.0015796118 0
0.0044555818 -0.091319919 0.0045888443 0
-0.0045547015 -0.088420704 -0.004419155 0
-0.004999992 -0.0885543 -0.0013668659 0
-0.0050000031 -0.088456653 0.0014811594 0
-0.0044778418 -0.088480674 0.0045180283 0
-0.0016408317 -0.088512063 -0.0049996828 0
-0.0016238656 -0.088575698 0.0049665528 0
0.0014394624 -0.088471875 -0.0049996721 0
0.0014629894 -0.088559411 0.0049356963 0
0.0044565811 -0.08865495 -0.004519376 0
0.0050000022 -0.08847823 -0.0014670179 0
0.0049999915 -0.088393383 0.0015644773 0
0.0044127242 -0.088590205 0.0044240979 0
-0.0045862915 -0.085546613 -0.0043704147 0
-0.0049999929 -0.085449137 -0.0014264951 0
-0.0050000031 -0.085330911 0.0015769047 0
-0.0045404718 -0.085550584 0.0045090369 0
-0.0016050024 -0.085364111 -0.0049996939 0
-0.0014765518 -0.085418671 0.0049650688 0
0.0015173226 -0.085417718 -0.0049996823 0
0.0016388388 -0.0854223 0.0049339267 0
0.0045822575 -0.085295066 -0.004500723 0
0.0050000027 -0.085451245 -0.001562094 0
0.004999992 -0.085589252 0.0013658708 0
0.0045221513 -0.085468613 0.0044127386 0
-0.0043936935 -0.08252167 -0.004616126 0
-0.0049999924 -0.082526624 -0.0015500839 0
-0.0050000027 -0.082483731 0.0015365175 0
-0.0044802134 -0.082440004 0.0044768681 0
-0.0015246806 -0.082703188 -0.0049997037 0
-0.0018013878 -0.082741849 0.0049683065 0
0.0015381749 -0.082470089 -0.004999693 0
0.0016917699 -0.082531497 0.0049333875 0
0.0044861911 -0.082278632 -0.0044369763 0
0.0050000027 -0.08254759 -0.0015607314 0
0.0049999924 -0.082473367 0.0014522877 0
0.004578962 -0.082501292 0.0043049194 0
-0.007574568 -0.078820795 -0.0075718751 0
-0.0075891535 -0.079105675 -0.0042907968 0
-0.0076710056 -0.079077303 -0.0014906819 0
-0.0075736819 -0.079117276 0.0016407822 0
-0.007465377 -0.079206482 0.0044185361 0
-0.0075512324 -0.078818426 0.0075565814 0
-0.0047490578 -0.079078496 -0.0076208091 0
-0.0045225536 -0.080079205 -0.0045651528 0
-0.0045975326 -0.080081329 -0.0015422847 0
-0.0045155976 -0.080060907 0.0014368423 0
-0.0044530202 -0.080101788 0.0045195906 0
-0.0043845624 -0.079099678 0.0076000351 0
-0.0016169575 -0.079076238 -0.0076106433 0
-0.0015757078 -0.080056153 -0.0046248585 0
-0.0013534934 -0.079999954 -0.0015676412 0
-0.0015721385 -0.079999939 0.0013928366 0
-0.0014687345 -0.080069192 0.0045832163 0
-0.0014941224 -0.07910578 0.0075805685 0
0.001478698 -0.079095297 -0.0076020863 0
0.0015148009 -0.08006797 -0.0046627517 0
0.0015265957 -0.079999954 -0.0013932501 0
0.0014940904 -0.079999939 0.0015637547 0
0.0015182931 -0.080065228 0.0044529075 0
0.0013975526 -0.079127729 0.0076121911 0
0.0045497161 -0.079069711 -0.0076629408 0
0.0044264994 -0.080081828 -0.0045066634 0
0.0044889655 -0.080061279 -0.001463785 0
0.0045829844 -0.080086842 0.0014287501 0
0.0044629141 -0.080072656 0.0044379658 0
0.0045187129 -0.079064459 0.0076452089 0
0.0075441594 -0.078800708 -0.007538497 0
0.0076234355 -0.07909435 -0.0044850213 0
0.0074707591 -0.079199851 -0.0014481014 0
0.0075954823 -0.079091653 0.0014695765 0
0.0076028388 -0.079105079 0.0044640484 0
0.0075589269 -0.078773081 0.0076220897 0
-0.0096605057 -0.075984582 -0.0096684946 0
-0.0096645299 -0.076485157 -0.0076022036 0
-0.0096236328 -0.076610066 -0.0044590086 0
-0.0096565969 -0.076557472 -0.0017828962 0
-0.0096798288 -0.076463424 0.0016550028 0
-0.0095891608 -0.076719649 0.00457389 0
-0.0096658543 -0.076518193 0.0075894305 0
-0.0095625613 -0.076218002 0.0096174609 0
-0.00743637 -0.0766818 -0.0096000964 0
-0.0076509886 -0.076603025 0.0096325576 0
-0.0045863711 -0.076527819 -0.009662522 0
-0.0045893481 -0.076435797 0.0096774753 0
-0.0013596267 -0.076518416 -0.0096544791 0
-0.0016565509 -0.076475725 0.009687298 0
0.0014747217 -0.076439559 -0.0096840709 0
0.0014976664 -0.076674648 0.0096127018 0
0.0043606837 -0.076591745 -0.0096448045 0
0.0043714559 -0.07653892 0.0096530644 0
0.0074975053 -0.076641142 -0.0096232546 0
0.0075214994 -0.076589786 0.0096385302 0
0.0095802993 -0.076024093 -0.0097078737 0
0.0096395537 -0.076570742 -0.0074596731 0
0.0096821971 -0.076474935 -0.0044442997 0
0.0096459603 -0.076523803 -0.0012352053 0
0.0096076922 -0.076677024 0.0015430821 0
0.0096897092 -0.076431721 0.0042619486 0
0.0096068773 -0.076678045 0.007530774 0
0.0096086068 -0.07623215 0.0095379055 0
-0.0096610375 -0.073581465 -0.0097847832 0
-0.0099999672 -0.073412903 -0.0075737298 0
-0.0099999802 -0.073322617 -0.0044559985 0
-0.0099999895 -0.073509373 -0.0016532277 0
-0.0099999988 -0.073577993 0.0013973811 0
-0.010000012 -0.07352674 0.0045744213 0
-0.010000022 -0.073468894 0.0074947383 0
-0.0096858134 -0.073368594 0.0098320711 0
-0.0074967863 -0.073545262 -0.0099997558 0
-0.0076558059 -0.073568746 0.010000234 0
-0.0043651303 -0.073493369 -0.0099997427 0
-0.004479737 -0.073390082 0.010000244 0
-0.0016773626 -0.073375069 -0.0099997371 0
-0.0014124851 -0.073523603 0.010000257 0
0.0014616321 -0.073505968 -0.0099997241 0
0.0014170113 -0.073684134 0.010000267 0
0.0044777147 -0.073627666 -0.0099997148 0
0.0045067067 -0.073522754 0.010000277 0
0.0072771916 -0.073466189 -0.0099997027 0
0.0076461188 -0.073483706 0.010000289 0
0.0097319428 -0.07358595 -0.0097794635 0
0.010000023 -0.073483162 -0.0073699974 0
0.010000012 -0.073640756 -0.0045864112 0
0.010000001 -0.073461242 -0.0016407996 0
0.0099999895 -0.073471226 0.0015745999 0
0.0099999793 -0.073556907 0.0044976431 0
0.0099999681 -0.073524974 0.0074549243 0
0.0098005403 -0.073469952 0.0097633954 0
-0.0097885197 -0.070332699 -0.0097786384 0
-0.0099999672 -0.070298664 -0.0076232874 0
-0.0099999793 -0.070624836 -0.0045150765 0
-0.0099999905 -0.070474386 -0.0013397267 0
-0.010000001 -0.070422947 0.0015690862 0
-0.010000014 -0.070669018 0.0047997618 0
-0.010000024 -0.070638172 0.0076863212 0
-0.0097317342 -0.070621893 0.009749054 0
-0.0075024245 -0.070776395 -0.009999766 0
-0.0074861748 -0.070543163 0.010000223 0
-0.0045979801 -0.070494249 -0.0099997567 0
-0.0045073046 -0.070404619 0.010000233 0
-0.0015058407 -0.070416138 -0.0099997455 0
-0.0015492039 -0.070419073 0.010000244 0
0.0013121791 -0.070362233 -0.0099997362 0
0.001365316 -0.070698753 0.010000256 0
0.0045125517 -0.07038521 -0.0099997232 0
0.0047933748 -0.070436358 0.010000269 0
0.0079038301 -0.070659138 -0.0099997101 0
0.0074847895 -0.070508301 0.010000277 0
0.0097376937 -0.070485421 -0.0097353235 0
0.010000022 -0.070480414 -0.0074791308 0
0.010000011 -0.070590325 -0.0044164169 0
0.0099999998 -0.070499137 -0.0014589501 0
0.0099999895 -0.070495941 0.0012814561 0
0.0099999784 -0.070422061 0.0046626972 0
0.0099999681 -0.070691891 0.0075332071 0
0.0097589502 -0.070682637 0.0097672287 0
-0.0097814016 -0.067415327 -0.0097627984 0
-0.0099999681 -0.067513324 -0.0074583041 0
-0.0099999774 -0.067396261 -0.0045304941 0
-0.0099999886 -0.067261167 -0.0014903297 0
-0.010000001 -0.067459255 0.001590477 0
-0.010000012 -0.067609556 0.0043976824 0
-0.010000022 -0.067478716 0.0074484716 0
-0.0097718528 -0.067413799 0.0097413762 0
-0.0073326877 -0.067558199 -0.0099997772 0
-0.007618614 -0.067600787 0.010000212 0
-0.0045557707 -0.067336358 -0.0099997679 0
-0.0044524586 -0.067635253 0.010000224 0
-0.0015263127 -0.067301087 -0.0099997567 0
-0.0014505333 -0.067583427 0.010000234 0
0.0014412729 -0.067638643 -0.0099997437 0
0.0014218858 -0.067447059 0.010000245 0
0.0044324161 -0.067590907 -0.0099997334 0
0.0045218677 -0.067482926 0.010000256 0
0.0076343371 -0.067502633 -0.009999725 0
0.0075329905 -0.067487925 0.010000266 0
0.0097391149 -0.067422703 -0.0097196633 0
0.010000022 -0.067282975 -0.007521248 0
0.010000012 -0.067371786 -0.0045737126 0
0.0099999988 -0.067412242 -0.0013917999 0
0.0099999886 -0.067592531 0.0017562003 0
0.0099999793 -0.067550547 0.0043152263 0
0.0099999681 -0.067541622 0.0073148836 0
0.0097763436 -0.067313716 0.0097272219 0
-0.0097477632 -0.064355776 -0.0097277006 0
-0.0099999681 -0.064476706 -0.0073645073 0
-0.0099999802 -0.064794011 -0.0043762513 0
-0.0099999895 -0.064536944 -0.0016978247 0
-0.010000001 -0.064758398 0.001623086 0
-0.010000012 -0.064484879 0.0045692436 0
-0.010000021 -0.064618692 0.0075053726 0
-0.0097654928 -0.064720094 0.0097555537 0
-0.0075001144 -0.064541779 -0.0099997874 0
-0.0075867916 -0.064304635 0.010000202 0
-0.004348692 -0.064590029 -0.0099997772 0
-0.0043683737 -0.064477779 0.010000213 0
-0.0014564942 -0.064726211 -0.0099997651 0
-0.0014374109 -0.064310916 0.010000221 0
0.0015730248 -0.064332061 -0.0099997558 0
0.0014928844 -0.064459711 0.010000234 0
0.0046348665 -0.064428121 -0.0099997455 0
0.0046278425 -0.064570203 0.010000246 0
0.0073672668 -0.064605258 -0.0099997343 0
0.0075358222 -0.064473249 0.010000256 0
0.0098261526 -0.064525492 -0.0096761798 0
0.010000022 -0.064348988 -0.0075116637 0
0.010000011 -0.064300805 -0.0044588973 0
0.0099999988 -0.064561307 -0.0013467326 0
0.0099999886 -0.064470753 0.0016799481 0
0.0099999784 -0.064493425 0.0046574464 0
0.0099999672 -0.064393096 0.007409195 0
0.009664298 -0.064502761 0.0098044183 0
-0.0097711869 -0.061620101 -0.0097359326 0
-0.0099999672 -0.061578292 -0.007537914 0
-0.0099999784 -0.061434872 -0.0045452826 0
-0.0099999895 -0.061259218 -0.0016351006 0
-0.0099999998 -0.061588582 0.0015256507 0
-0.010000012 -0.061577201 0.0045793517 0
-0.010000021 -0.061474744 0.007535825 0
-0.0097554112 -0.061397459 0.0097346557 0
-0.0073300339 -0.061581861 -0.0099997986 0
-0.0072944071 -0.061420817 0.010000191 0
-0.0046522794 -0.061393071 -0.0099997893 0
-0.0043811104 -0.061569203 0.010000203 0
-0.0014756423 -0.061417185 -0.0099997772 0
-0.0015336637 -0.061494619 0.010000212 0
0.001487285 -0.061542984 -0.009999766 0
0.0014845445 -0.061508331 0.010000222 0
0.0046193292 -0.061361071 -0.0099997558 0
0.0047004456 -0.061660372 0.010000235 0
0.0076179351 -0.061458651 -0.0099997446 0
0.0074838609 -0.061442547 0.010000245 0
0.0097755156 -0.061354607 -0.009739873 0
0.010000021 -0.061434608 -0.0074865385 0
0.010000012 -0.061598811 -0.0045138476 0
0.0099999998 -0.061513886 -0.0016008776 0
0.0099999886 -0.061491828 0.0014820548 0
0.0099999793 -0.06161024 0.0044728224 0
0.0099999672 -0.061483089 0.0076009175 0
0.0097417561 -0.061449431 0.0097975377 0
-0.0096635288 -0.058516577 -0.0097546959 0
-0.0099999681 -0.058364876 -0.0077491798 0
-0.0099999793 -0.058466308 -0.0043693534 0
-0.0099999886 -0.058642022 -0.001697054 0
-0.0099999998 -0.058507107 0.0015784865 0
-0.010000012 -0.058758676 0.0045153545 0
-0.010000022 -0.058497809 0.0074280072 0
-0.0097805485 -0.058729537 0.0098063499 0
-0.0074123889 -0.058603145 -0.0099998098 0
-0.0075376262 -0.058571167 0.01000018 0
-0.0043737357 -0.058403675 -0.0099997995 0
-0.0043824301 -0.058428928 0.010000192 0
-0.0016030614 -0.058485851 -0.0099997893 0
-0.0013883396 -0.058570169 0.010000203 0
0.0012706075 -0.058674257 -0.0099997781 0
0.0016287944 -0.058403838 0.010000211 0
0.0046014967 -0.058448397 -0.009999766 0
0.0045687351 -0.058517814 0.010000222 0
0.0075320979 -0.058433417 -0.0099997567 0
0.0075114039 -0.058494817 0.010000233 0
0.009754844 -0.058470327 -0.0098616313 0
0.010000023 -0.058603913 -0.0076168147 0
0.010000013 -0.058471784 -0.0045388252 0
0.010000001 -0.058387153 -0.0014313111 0
0.0099999886 -0.058453962 0.0015949033 0
0.0099999802 -0.05842888 0.0043701567 0
0.0099999672 -0.058642577 0.0074575557 0
0.00973807 -0.058679197 0.0097750723 0
-0.0098405341 -0.055568364 -0.0097333165 0
-0.009999969 -0.055500139 -0.0075669591 0
-0.0099999784 -0.05572119 -0.0045799562 0
-0.0099999886 -0.055490971 -0.0015752242 0
-0.010000001 -0.055331152 0.0014436839 0
-0.01000001 -0.055594459 0.0043907678 0
-0.010000021 -0.055570886 0.0075410176 0
-0.0097478731 -0.055349853 0.0096955821 0
-0.0075032422 -0.055496916 -0.0099998219 0
-0.0071771904 -0.055424504 0.010000168 0
-0.0046099857 -0.055467315 -0.0099998098 0
-0.0044945818 -0.055388015 0.01000018 0
-0.0012386362 -0.05563955 -0.0099997977 0
-0.0016956906 -0.055563651 0.01000019 0
0.0014773469 -0.055612136 -0.0099997884 0
0.0015571071 -0.055509407 0.010000202 0
0.0046794047 -0.055385999 -0.0099997781 0
0.00447472 -0.055432115 0.010000211 0
0.0076170019 -0.055346329 -0.0099997669 0
0.0073846048 -0.055555578 0.010000224 0
0.0097890617 -0.055539142 -0.0096820286 0
0.010000023 -0.055517577 -0.0076667955 0
0.010000012 -0.055563718 -0.0045937756 0
0.0099999988 -0.055518556 -0.0012952733 0
0.0099999886 -0.055589691 0.001521727 0
0.0099999774 -0.055658437 0.0045798016 0
0.0099999681 -0.055389885 0.0074018454 0
0.0097713526 -0.055570118 0.009756716 0
-0.0097355805 -0.052651871 -0.0098061645 0
-0.0099999681 -0.052394427 -0.0075482582 0
-0.0099999784 -0.052667663 -0.0045223124 0
-0.0099999886 -0.052478831 -0.0014581487 0
-0.010000001 -0.052502878 0.0015491477 0
-0.010000011 -0.052364383 0.0045756968 0
-0.01000002 -0.052497219 0.0072940714 0
-0.009729906 -0.052525342 0.0098211281 0
-0.0074521881 -0.052370686 -0.0099998312 0
-0.0075792731 -0.052500449 0.010000158 0
-0.0043943278 -0.052424122 -0.009999821 0
-0.0046972991 -0.052395374 0.010000168 0
-0.0014044193 -0.05270363 -0.0099998089 0
-0.0013352038 -0.05256398 0.01000018 0
0.0015765898 -0.052454572 -0.0099997995 0
0.0015602513 -0.052754641 0.010000193 0
0.0047014607 -0.052372571 -0.0099997884 0
0.0045592543 -0.052569833 0.010000202 0
0.0075626741 -0.052503977 -0.0099997772 0
0.0076215724 -0.052376974 0.010000213 0
0.0097264498 -0.052585311 -0.0097490354 0
0.010000021 -0.052424714 -0.0075220088 0
0.01000001 -0.05240814 -0.0044755763 0
0.010000001 -0.052535143 -0.0014894973 0
0.0099999905 -0.052559882 0.0013134796 0
0.0099999784 -0.052588601 0.0044760229 0
0.0099999672 -0.052491602 0.0076423991 0
0.0096968124 -0.052273933 0.0097532673 0
-0.009748199 -0.049440168 -0.0098375911 0
-0.009999969 -0.049505129 -0.0072543249 0
-0.0099999793 -0.049638312 -0.0042438563 0
-0.0099999895 -0.049310729 -0.0016348312 0
-0.010000003 -0.049447346 0.0014388552 0
-0.010000013 -0.049442403 0.0045449589 0
-0.010000021 -0.049340907 0.0072651813 0
-0.0097616911 -0.049418442 0.0097350189 0
-0.0075842566 -0.049318925 -0.0099998433 0
-0.0075764135 -0.049546197 0.010000148 0
-0.0043464769 -0.049249724 -0.009999834 0
-0.0044742431 -0.049475238 0.010000157 0
-0.0015917412 -0.049465608 -0.0099998219 0
-0.0014063016 -0.049423933 0.010000169 0
0.0015248117 -0.049539562 -0.0099998098 0
0.0015851521 -0.049576681 0.01000018 0
0.0043128855 -0.049219549 -0.0099998014 0
0.0045041842 -0.049340218 0.01000019 0
0.0074545173 -0.049730584 -0.0099997902 0
0.0073794597 -0.049358502 0.010000201 0
0.0097856876 -0.049356297 -0.009640893 0
0.010000021 -0.049515758 -0.0075841723 0
0.010000012 -0.049599636 -0.0045029623 0
0.010000001 -0.049561601 -0.0016049924 0
0.0099999895 -0.049669079 0.0015011092 0
0.0099999793 -0.049466748 0.0044406382 0
0.0099999681 -0.049432199 0.0075331773 0
0.0098013561 -0.049252499 0.0097586839 0
-0.0097279744 -0.046543624 -0.009763537 0
-0.0099999681 -0.046658419 -0.0075110267 0
-0.0099999784 -0.046513598 -0.0045104558 0
-0.0099999886 -0.046593618 -0.0014285154 0
-0.010000001 -0.046498425 0.0015251534 0
-0.01000001 -0.046446744 0.0044032675 0
-0.010000022 -0.046485923 0.0074600684 0
-0.0097310292 -0.046440423 0.0097443545 0
-0.0073966165 -0.046383925 -0.0099998545 0
-0.0074322922 -0.046655424 0.010000136 0
-0.004510202 -0.046599194 -0.0099998424 0
-0.0044986508 -0.046361379 0.010000147 0
-0.0015442068 -0.046647321 -0.0099998321 0
-0.0015042225 -0.04646492 0.010000158 0
0.0014987742 -0.046442077 -0.00999982 0
0.0015867517 -0.046509042 0.010000169 0
0.0045194542 -0.04631998 -0.0099998098 0
0.0046744952 -0.046467613 0.01000018 0
0.0075198356 -0.046577916 -0.0099998005 0
0.0074454048 -0.046629623 0.010000191 0
0.0098183146 -0.046494927 -0.0097697405 0
0.010000021 -0.046527028 -0.0074258093 0
0.010000011 -0.046638697 -0.0044663358 0
0.010000001 -0.046644118 -0.0014686602 0
0.0099999895 -0.046593472 0.0015419325 0
0.0099999774 -0.04658537 0.0045312536 0
0.0099999681 -0.04663001 0.007528278 0
0.0097346166 -0.046573296 0.0098212454 0
-0.0096574817 -0.043529011 -0.0097674308 0
-0.0099999672 -0.043448526 -0.0075088777 0
-0.0099999793 -0.043494873 -0.0044479887 0
-0.0099999895 -0.043337591 -0.0015405795 0
-0.0099999988 -0.043414436 0.0015668845 0
-0.010000012 -0.043412812 0.0045610019 0
-0.01000002 -0.043648522 0.0072758547 0
-0.0096202502 -0.043424126 0.0098329177 0
-0.0076458864 -0.043548506 -0.0099998657 0
-0.0075162048 -0.043509983 0.010000126 0
-0.0046708211 -0.043485623 -0.0099998545 0
-0.0043859188 -0.043440543 0.010000137 0
-0.001477259 -0.043355461 -0.0099998424 0
-0.0012381735 -0.04354278 0.010000149 0
0.0013498155 -0.043462653 -0.0099998331 0
0.0016594079 -0.043477353 0.010000158 0
0.0045340355 -0.043475054 -0.009999821 0
0.0044240705 -0.043481451 0.010000168 0
0.0075539546 -0.04359325 -0.0099998089 0
0.0075092963 -0.043490998 0.01000018 0
0.0097419433 -0.043336619 -0.009716725 0
0.010000021 -0.043422326 -0.0073369164 0
0.010000011 -0.043388806 -0.0044603422 0
0.010000001 -0.043547656 -0.0016649726 0
0.0099999905 -0.043584451 0.0012020714 0
0.0099999784 -0.043371316 0.0045062723 0
0.009999969 -0.043309614 0.0074604284 0
0.0097887497 -0.043506198 0.0097856084 0
-0.0097145503 -0.040466506 -0.0097486163 0
-0.0099999681 -0.040552452 -0.0073621464 0
-0.0099999793 -0.040508617 -0.0044245003 0
-0.0099999895 -0.040540844 -0.0014869864 0
-0.010000001 -0.040449735 0.0014386951 0
-0.010000011 -0.040510651 0.0045047947 0
-0.010000022 -0.040451858 0.0074367141 0
-0.0096801175 -0.040207032 0.0097902538 0
-0.0074710138 -0.040317062 -0.009999875 0
-0.0075268135 -0.040600777 0.010000114 0
-0.0045530912 -0.040329739 -0.0099998666 0
-0.0045875846 -0.04065885 0.010000125 0
-0.001676726 -0.040580899 -0.0099998545 0
-0.0015188551 -0.040665224 0.010000136 0
0.0016448672 -0.040744461 -0.0099998415 0
0.0013624846 -0.040691122 0.010000147 0
0.0044730762 -0.040513854 -0.0099998331 0
0.0043693292 -0.040551096 0.010000158 0
0.0073241824 -0.040489737 -0.0099998228 0
0.007433292 -0.040441778 0.010000169 0
0.0097649721 -0.040568184 -0.0097664902 0
0.010000022 -0.040609624 -0.0074971803 0
0.010000011 -0.040526874 -0.0042671929 0
0.010000001 -0.040778045 -0.00158532 0
0.0099999895 -0.040523756 0.0014464685 0
0.0099999793 -0.0406137 0.0043158759 0
0.0099999681 -0.04059514 0.0074858586 0
0.0097317658 -0.04046984 0.0098088291 0
-0.009808816 -0.037553985 -0.0097454693 0
-0.0099999672 -0.037705727 -0.0075043198 0
-0.0099999774 -0.037553262 -0.0047704843 0
-0.0099999905 -0.037495844 -0.0014095086 0
-0.010000003 -0.037473008 0.0015953772 0
-0.010000011 -0.037514839 0.004466868 0
-0.010000023 -0.037651498 0.0076542874 0
-0.00970734 -0.037339132 0.0097485222 0
-0.0076096342 -0.037514329 -0.009999888 0
-0.0076108375 -0.037483472 0.010000104 0
-0.0046657459 -0.037454866 -0.009999875 0
-0.0045769578 -0.037626509 0.010000115 0
-0.0016552943 -0.037491508 -0.0099998647 0
-0.0015230394 -0.037429851 0.010000125 0
0.0016716273 -0.037493512 -0.0099998536 0
0.0015415865 -0.037452709 0.010000137 0
0.0044045844 -0.037368387 -0.0099998452 0
0.0044585653 -0.037527118 0.010000147 0
0.0074230875 -0.037542105 -0.0099998312 0
0.0076642358 -0.037449289 0.010000159 0
0.0098266751 -0.037629545 -0.0097594699 0
0.010000022 -0.037567113 -0.007443435 0
0.01000001 -0.037589662 -0.0043820757 0
0.010000002 -0.037296284 -0.0016150137 0
0.0099999895 -0.037397731 0.0016140487 0
0.0099999784 -0.03751532 0.0045470423 0
0.0099999681 -0.037616298 0.0074218311 0
0.0097454013 -0.037481148 0.0097406264 0
-0.0097148148 -0.034478877 -0.0097489432 0
-0.0099999672 -0.034603067 -0.0074099051 0
-0.0099999793 -0.034458213 -0.0043613501 0
-0.0099999905 -0.034558438 -0.0014156841 0
-0.010000001 -0.034229714 0.0014864437 0
-0.010000011 -0.034498207 0.0044433773 0
-0.010000023 -0.034617424 0.0076195654 0
-0.0096357698 -0.034680806 0.0098091299 0
-0.0074256286 -0.034416467 -0.0099998973 0
-0.007406801 -0.034606688 0.010000094 0
-0.0044617499 -0.034445602 -0.0099998862 0
-0.0046479627 -0.034566134 0.010000103 0
-0.0014719709 -0.034547906 -0.0099998768 0
-0.0014623877 -0.034541618 0.010000114 0
0.0015873234 -0.03443547 -0.0099998647 0
0.0015852598 -0.034355965 0.010000125 0
0.00456477 -0.034424443 -0.0099998526 0
0.0044180425 -0.034523778 0.010000136 0
0.0075339787 -0.034647994 -0.0099998433 0
0.0074373106 -0.034475114 0.010000146 0
0.0097464193 -0.034408998 -0.0097885439 0
0.010000021 -0.034626484 -0.0074808202 0
0.010000011 -0.034493204 -0.0044509955 0
0.0099999998 -0.0345806 -0.0014942329 0
0.0099999895 -0.034601901 0.0013806508 0
0.0099999784 -0.03457737 0.0043614828 0
0.0099999672 -0.034657292 0.0074663465 0
0.0097143278 -0.034361973 0.0097594997 0
-0.0097238719 -0.031542767 -0.0097487681 0
-0.009999969 -0.031706337 -0.0075777932 0
-0.0099999793 -0.031430431 -0.0044943178 0
-0.0099999886 -0.031613268 -0.0016752639 0
-0.0099999998 -0.031522572 0.0015375215 0
-0.010000011 -0.031614099 0.0043030153 0
-0.010000022 -0.03153047 0.0074366266 0
-0.0097508291 -0.031498834 0.009727844 0
-0.0075134784 -0.03140315 -0.0099999076 0
-0.0075735147 -0.031715326 0.010000083 0
-0.0045336457 -0.03155046 -0.0099998973 0
-0.0046788994 -0.031264737 0.010000092 0
-0.001519247 -0.031270653 -0.0099998871 0
-0.0014369697 -0.031394444 0.010000103 0
0.0014732254 -0.031560834 -0.009999874 0
0.00150008 -0.031440601 0.010000113 0
0.004324974 -0.031353578 -0.0099998666 0
0.0045137708 -0.031427614 0.010000126 0
0.0075556738 -0.031483021 -0.0099998536 0
0.0075671589 -0.031380452 0.010000136 0
0.0097055128 -0.031534676 -0.0097394064 0
0.010000021 -0.031485334 -0.0075503397 0
0.010000011 -0.031488828 -0.0044446127 0
0.010000001 -0.031482004 -0.0014447767 0
0.0099999895 -0.031457607 0.0015233094 0
0.0099999784 -0.0314028 0.0045442637 0
0.0099999681 -0.031702694 0.0074185841 0
0.0097329533 -0.031547386 0.0097874384 0
-0.0098158158 -0.02869343 -0.009667553 0
-0.0099999672 -0.028318841 -0.0076290108 0
-0.0099999812 -0.028616486 -0.0044492944 0
-0.0099999905 -0.02855579 -0.0013929654 0
-0.010000002 -0.028631093 0.0014412173 0
-0.010000012 -0.028307986 0.0043175803 0
-0.010000022 -0.028462296 0.007577619 0
-0.0097788917 -0.028348994 0.0096636666 0
-0.0076015494 -0.028349452 -0.0099999206 0
-0.0073975758 -0.028504677 0.010000073 0
-0.0044450024 -0.028416341 -0.0099999085 0
-0.0044095977 -0.028378753 0.010000083 0
-0.0014203722 -0.028374394 -0.0099998973 0
-0.0014565586 -0.028432293 0.010000092 0
0.0014729721 -0.028640436 -0.0099998852 0
0.0015730034 -0.028560547 0.010000104 0
0.0044007418 -0.028530614 -0.009999875 0
0.0046340344 -0.028457118 0.010000114 0
0.0074526523 -0.028418442 -0.0099998657 0
0.0073968852 -0.028592587 0.010000126 0
0.0097060157 -0.028678026 -0.0097525595 0
0.010000023 -0.028413162 -0.0076581235 0
0.010000011 -0.028309759 -0.0043502129 0
0.010000001 -0.028735112 -0.001468952 0
0.0099999886 -0.028563127 0.0016188837 0
0.0099999774 -0.028569851 0.004521599 0
0.009999969 -0.028482243 0.0073880521 0
0.0098184589 -0.028455479 0.0097000999 0
-0.0097540943 -0.025425041 -0.0096932733 0
-0.0099999681 -0.025618779 -0.0073761269 0
-0.0099999765 -0.025529014 -0.0045632063 0
-0.0099999895 -0.025490629 -0.0013079841 0
-0.010000002 -0.025716545 0.0014849029 0
-0.010000011 -0.025679 0.0045953323 0
-0.010000022 -0.025491633 0.0074766204 0
-0.0097601581 -0.02539408 0.0097091338 0
-0.0076002642 -0.025447153 -0.0099999318 0
-0.007634697 -0.025558479 0.010000059 0
-0.0045264633 -0.025441485 -0.0099999188 0
-0.0044794874 -0.025364175 0.010000071 0
-0.0015299182 -0.025521891 -0.0099999076 0
-0.0013290754 -0.025547044 0.010000083 0
0.0014260719 -0.025794348 -0.0099998964 0
0.0015100524 -0.025424119 0.010000093 0
0.0044011534 -0.025572522 -0.009999888 0
0.0044570086 -0.025624523 0.010000103 0
0.0074989442 -0.025543053 -0.0099998759 0
0.007378587 -0.025561534 0.010000115 0
0.0096633937 -0.025578937 -0.0097038196 0
0.010000023 -0.025455456 -0.0076940339 0
0.010000012 -0.025380518 -0.0045186607 0
0.010000002 -0.025509888 -0.0016059238 0
0.0099999905 -0.025340278 0.0014093895 0
0.0099999784 -0.025616093 0.0044527878 0
0.0099999681 -0.025600925 0.0075036627 0
0.0097326962 -0.025661798 0.0096920645 0
-0.0097442316 -0.022539698 -0.0097196922 0
-0.0099999681 -0.022653485 -0.0074183894 0
-0.0099999784 -0.022324441 -0.0046160258 0
-0.0099999905 -0.022357397 -0.0014132691 0
-0.010000002 -0.022432333 0.0015471053 0
-0.010000012 -0.022477139 0.0045364876 0
-0.010000021 -0.022441553 0.0073924423 0
-0.0098144226 -0.022688432 0.0097032823 0
-0.0074805687 -0.022546778 -0.0099999402 0
-0.0074788067 -0.022585778 0.010000051 0
-0.0043220171 -0.022598797 -0.0099999299 0
-0.0045046238 -0.022558719 0.01000006 0
-0.0014334687 -0.022396695 -0.0099999197 0
-0.0015387057 -0.02228024 0.010000071 0
0.0014054066 -0.022504613 -0.0099999094 0
0.001532928 -0.02252306 0.010000083 0
0.0043520923 -0.022474451 -0.0099998983 0
0.0045550866 -0.02236338 0.010000092 0
0.0075808507 -0.022676416 -0.0099998862 0
0.0073948167 -0.022530746 0.010000104 0
0.0097526293 -0.022289263 -0.009623006 0
0.010000022 -0.022427205 -0.007390677 0
0.010000011 -0.022481315 -0.0043779272 0
0.010000003 -0.022314627 -0.0016817764 0
0.0099999895 -0.022556541 0.0015309379 0
0.0099999784 -0.022573709 0.0044199605 0
0.0099999672 -0.02264462 0.0075291437 0
0.0098081063 -0.022571202 0.0096700266 0
-0.009720061 -0.019538622 -0.009817373 0
-0.009999969 -0.019593714 -0.0074765021 0
-0.0099999793 -0.019538766 -0.0044475985 0
-0.0099999905 -0.019535514 -0.0012611861 0
-0.010000001 -0.019589175 0.0014742255 0
-0.010000011 -0.019671744 0.0044932878 0
-0.010000021 -0.019407153 0.0074048848 0
-0.0097710881 -0.019510485 0.0097611332 0
-0.0074456926 -0.01960491 -0.0099999513 0
-0.0073645068 -0.019603301 0.010000038 0
-0.0043373904 -0.019516362 -0.0099999392 0
-0.0044849748 -0.019416925 0.010000049 0
-0.0015121463 -0.019349404 -0.0099999309 0
-0.001567772 -0.019642288 0.01000006 0
0.0016796762 -0.019432815 -0.0099999178 0
0.0013858433 -0.019494917 0.010000072 0
