# .PCD v0.7 - Point Cloud Data file format
VERSION 0.7
FIELDS x y z rgb
SIZE 4 4 4 4
TYPE F F F F
COUNT 1 1 1 1
WIDTH 1157
HEIGHT 1
VIEWPOINT 0 0 0 1 0 0 0
POINTS 1157
DATA ascii
-0.012571375 -0.1725478 -0.0013210786 0
-0.012554403 -0.17270035 0.0012494778 0
-0.010315857 -0.1724619 -0.0037615611 0
-0.011748833 -0.17292722 -0.0027940068 0
-0.011847354 -0.17264937 0.0027174966 0
-0.010361558 -0.17254476 0.0037369416 0
-0.0076177609 -0.17249224 -0.0037207836 0
-0.0062209568 -0.1724008 -0.0027674234 0
-0.0061902255 -0.17223704 0.0027074295 0
-0.0076331496 -0.17247482 0.0037125377 0
-0.0054651401 -0.17257451 -0.0012781008 0
-0.0055026142 -0.17255749 0.0013617268 0
-0.012043409 -0.16839387 -0.0030743899 0
-0.012831342 -0.16946514 -0.0015117773 0
-0.012840695 -0.16948408 0.001521905 0
-0.01205992 -0.16878688 0.0030184011 0
-0.010663791 -0.16945779 -0.0037436364 0
-0.011881433 -0.17067133 -0.0029660286 0
-0.011949453 -0.17061055 0.0029108713 0
-0.010609671 -0.16956082 0.0037713274 0
-0.0077814874 -0.16968121 -0.0036505251 0
-0.006383663 -0.16943237 -0.0024896385 0
-0.0063954438 -0.16903803 0.0024274637 0
-0.0078729885 -0.1695618 0.003715286 0
-0.0057388335 -0.1695732 -0.00095904735 0
-0.0057026893 -0.16964324 0.00084304641 0
-0.012180081 -0.16601855 -0.0031328918 0
-0.013125564 -0.16662809 -0.0015228781 0
-0.013118902 -0.16637027 0.0015895375 0
-0.012177346 -0.16619921 0.0031297992 0
-0.010772072 -0.1665695 -0.0038319377 0
-0.01045346 -0.16652353 0.0039103222 0
-0.0080052959 -0.16659516 -0.0036170625 0
-0.0064195395 -0.16647336 -0.0019226078 0
-0.006390146 -0.16643377 0.0018439849 0
-0.0080551254 -0.16653699 0.0036554346 0
-0.0059358128 -0.1669289 -0.00048735872 0
-0.0058863978 -0.16713636 0.0003069838 0
-0.012181733 -0.16351159 -0.0032247498 0
-0.013243834 -0.163525 -0.0015535062 0
-0.013270265 -0.16362871 0.0015282029 0
-0.012231134 -0.16311017 0.0031972821 0
-0.010472511 -0.16351809 -0.0039068554 0
-0.010617854 -0.16347942 0.0039015519 0
-0.0080817696 -0.16356447 -0.0035862038 0
-0.0064457078 -0.16336606 -0.001531698 0
-0.0064667738 -0.16351697 0.0015833179 0
-0.0081062876 -0.16360827 0.0036022619 0
-0.0059863366 -0.16475156 -2.4898562e-05 0
-0.0059983735 -0.16474597 7.8120691e-05 0
-0.012273229 -0.16056398 -0.0032406894 0
-0.013304379 -0.16071507 -0.0016575413 0
-0.013323732 -0.16052465 0.0016767846 0
-0.012261858 -0.16053514 0.0032532222 0
-0.010546952 -0.16054569 -0.0039270869 0
-0.010538879 -0.16058806 0.003943136 0
-0.0080812499 -0.16050194 -0.0035250515 0
-0.0065557025 -0.16051674 -0.0015628122 0
-0.0065191188 -0.16058208 0.0014414297 0
-0.0080848522 -0.1605005 0.0035238974 0
-0.012198087 -0.1573292 -0.0032400708 0
-0.013276552 -0.15735911 -0.0016031972 0
-0.013305083 -0.15747775 0.0015562188 0
-0.012259556 -0.15753664 0.0031950087 0
-0.010530954 -0.1575004 -0.0039256969 0
-0.010561903 -0.15736073 0.0039137136 0
-0.0080620032 -0.15731923 -0.0035485176 0
-0.006483621 -0.15759376 -0.0015002498 0
-0.0065192762 -0.15744171 0.0016249451 0
-0.0081012761 -0.15749738 0.0035807327 0
-0.012205496 -0.15455669 -0.003132506 0
-0.013164458 -0.15442795 -0.0015815127 0
-0.013180512 -0.15449835 0.0015592964 0
-0.012154834 -0.15443854 0.0031733622 0
-0.010467881 -0.15448362 -0.0039019391 0
-0.010556011 -0.15445559 0.0038982313 0
-0.0079452358 -0.15439539 -0.0035651587 0
-0.0064370893 -0.15463196 -0.0017233776 0
-0.0064536198 -0.15469122 0.00178869 0
-0.0080277463 -0.15436533 0.0036095011 0
-0.0059654182 -0.1539634 -0.00026196009 0
-0.0059566293 -0.15388821 0.00025985966 0
-0.012106673 -0.15221204 -0.0030857644 0
-0.012992849 -0.15154068 -0.0014641299 0
-0.012915436 -0.15150821 0.0016492349 0
-0.012045636 -0.15160583 0.0030738141 0
-0.010562725 -0.15138483 -0.00380674 0
-0.010628783 -0.1514041 0.0038048611 0
-0.0080055157 -0.15137808 -0.0037190947 0
-0.0063406061 -0.15172724 -0.0021722142 0
-0.0063967672 -0.1516726 0.0022709037 0
-0.0079228301 -0.1513844 0.0036800248 0
-0.0057972935 -0.151425 -0.00071332866 0
-0.0058183474 -0.15123054 0.00090864295 0
-0.012667573 -0.14855857 -0.0014143148 0
-0.012682225 -0.14840089 0.0012965288 0
-0.010503674 -0.14852826 -0.0037076317 0
-0.011812192 -0.14794929 -0.002852059 0
-0.011842567 -0.14843591 0.0028906802 0
-0.010453038 -0.14844108 0.0037593215 0
-0.0076469276 -0.14844853 -0.0036897082 0
-0.0062822066 -0.14886917 -0.0026449892 0
-0.0062996736 -0.14871544 0.0026988687 0
-0.0075936276 -0.14846639 0.0036522115 0
-0.005546296 -0.14845011 -0.0011143023 0
-0.0055579934 -0.14857773 0.001090902 0
-0.012376093 -0.14571601 -0.0011720312 0
-0.012352941 -0.14544371 0.0011171807 0
-0.01026467 -0.14552997 -0.0036740042 0
-0.011665493 -0.14525656 -0.0025351916 0
-0.011638064 -0.1452893 0.0025802073 0
-0.010193134 -0.14561719 0.0037210165 0
-0.0074678841 -0.14544486 -0.0037612198 0
-0.006100927 -0.1462644 -0.0028652304 0
-0.0061314655 -0.14610057 0.0029251142 0
-0.0074861357 -0.14552194 0.003768736 0
-0.0059650354 -0.14429922 -0.0030858647 0
-0.0052028405 -0.14534703 -0.0014556327 0
-0.0051999073 -0.14544247 0.001401728 0
-0.0059764418 -0.14472035 0.0030257469 0
-0.012105217 -0.14353058 -0.000619522 0
-0.01211431 -0.14359562 0.0006300704 0
-0.0099091511 -0.14253011 -0.0035835959 0
-0.011458149 -0.14238238 -0.0016922845 0
-0.011427322 -0.14241125 0.0018412544 0
-0.010016081 -0.14257768 0.003530124 0
-0.0074239816 -0.14253899 -0.0039154054 0
-0.007562682 -0.14251836 0.0039459015 0
-0.0057484047 -0.14226636 -0.0032576628 0
-0.0046688039 -0.1424626 -0.0015943605 0
-0.0046213293 -0.14250109 0.0015071686 0
-0.0056809336 -0.14220999 0.0032057294 0
-0.0095745483 -0.13942482 -0.0034238789 0
-0.01087137 -0.13936442 -0.0016006234 0
-0.010953922 -0.13952884 0.0014986874 0
-0.0095752329 -0.13960287 0.0034465478 0
-0.0074530654 -0.13951737 -0.0039862767 0
-0.0076165246 -0.13942915 0.0039708894 0
-0.0052791499 -0.13937873 -0.0033922221 0
-0.0039573787 -0.13944857 -0.0015485982 0
-0.0039744563 -0.1395174 0.0015327646 0
-0.005365504 -0.13928978 0.0034622783 0
-0.0092557976 -0.13702928 -0.0031829025 0
-0.010127262 -0.1365667 -0.0016062745 0
-0.010120213 -0.13648012 0.0015405144 0
-0.0092526693 -0.1374909 0.0033012109 0
-0.0075487564 -0.13627142 -0.0038464672 0
-0.0074782572 -0.13656265 0.0038832962 0
-0.0049941465 -0.13640091 -0.0037054431 0
-0.0034189238 -0.13701697 -0.0019949921 0
-0.003443684 -0.136961 0.0020533851 0
-0.0050103506 -0.13645165 0.0037043972 0
-0.0027267791 -0.13616556 -0.0009537806 0
-0.0027103366 -0.13599145 0.0010878443 0
-0.0095023522 -0.13370581 -0.0011689021 0
-0.0094901426 -0.13383302 0.0012104734 0
-0.0071590901 -0.13351446 -0.0037403598 0
-0.0086011533 -0.13317642 -0.0026399144 0
-0.0086238459 -0.13324831 0.0026237483 0
-0.0071707182 -0.1335308 0.0037300785 0
-0.0045357831 -0.13355228 -0.00376418 0
-0.0031760684 -0.13433599 -0.0028398482 0
-0.0032644265 -0.1345699 0.0028664423 0
-0.0044480991 -0.13348801 0.003768658 0
-0.0027589775 -0.13224643 -0.0031356276 0
-0.0022089819 -0.13353783 -0.0016895393 0
-0.0021477283 -0.13352293 0.0015435653 0
-0.0029238453 -0.13236053 0.0032408983 0
-0.0090780528 -0.13157189 -0.00034107751 0
-0.0091076866 -0.13172022 0.00044741877 0
-0.0066551073 -0.13055968 -0.003540064 0
-0.0081498567 -0.13028327 -0.0016330953 0
-0.0081969425 -0.13037351 0.0016416175 0
-0.0065999618 -0.13052084 0.0035559083 0
-0.004676613 -0.13041939 -0.0039854068 0
-0.0045432127 -0.13064726 0.0039592958 0
-0.0023678588 -0.13030957 -0.0033865478 0
-0.00096767873 -0.13049749 -0.0014435898 0
-0.0010918314 -0.13047968 0.0017267155 0
-0.0023781057 -0.13036722 0.0033898323 0
-0.0062911259 -0.1282603 -0.0032037203 0
-0.0071898028 -0.12764995 -0.0015263089 0
-0.0070893131 -0.12741873 0.001581697 0
-0.0062342384 -0.12820339 0.0032358507 0
-0.0046138158 -0.12753679 -0.0038385333 0
-0.0059747132 -0.12655036 -0.0029246856 0
-0.0058765369 -0.12634166 0.0029418406 0
-0.0044414187 -0.12747353 0.0038527534 0
-0.001820772 -0.12729257 -0.0036986035 0
-0.00037234777 -0.12806016 -0.0021721679 0
-0.00037318782 -0.12804471 0.0022224381 0
-0.0016869145 -0.1272625 0.0036462639 0
0.00044897973 -0.12717712 -0.0012485351 0
0.00045620344 -0.12721284 0.0011741718 0
-0.0063818702 -0.12511563 -0.0012003349 0
-0.0063880836 -0.1249932 0.00097266206 0
-0.004038902 -0.12479757 -0.0036848194 0
-0.0054265782 -0.12401138 -0.0020944432 0
-0.0054882709 -0.12398398 0.0019683233 0
-0.0040929797 -0.12465064 0.0036330421 0
-0.001487624 -0.12457933 -0.0039148629 0
-0.0015726725 -0.12457315 0.0039370372 0
0.00048985158 -0.12408358 -0.0032793193 0
0.0015486442 -0.12452113 -0.0015801977 0
0.0015605959 -0.1245693 0.0014644784 0
0.00043968027 -0.1240332 0.0033416625 0
-0.003473581 -0.12213252 -0.003318646 0
-0.0044814409 -0.12148215 -0.0014922334 0
-0.0045007616 -0.12159491 0.0015975807 0
-0.0033740902 -0.12202431 0.0033614838 0
-0.0013678179 -0.12150739 -0.0039493665 0
-0.0029667558 -0.12028768 0.0029962934 0
-0.0015892454 -0.121452 0.0038776589 0
0.0011165788 -0.1213709 -0.0036499917 0
0.0025153337 -0.12211794 -0.0020429508 0
0.0025713749 -0.12206312 0.0019390363 0
0.0011603222 -0.12137807 0.0036151831 0
0.003464249 -0.12100077 -0.001041799 0
0.0034236559 -0.12098047 0.001125942 0
-0.0034765338 -0.11912429 -0.0012684857 0
-0.0034996746 -0.11903872 0.0010892395 0
-0.0012140268 -0.11870039 -0.0036311157 0
-0.0026271176 -0.11803254 -0.0020032995 0
-0.0024796072 -0.11799106 0.00218453 0
-0.0011642099 -0.11883956 0.0036686687 0
0.0014909114 -0.11864333 -0.0039000956 0
0.002990216 -0.11986613 -0.0028727897 0
0.0015431403 -0.11853403 0.0038839062 0
0.0034536696 -0.11766154 -0.00331093 0
0.0043025324 -0.11848992 -0.0016627697 0
0.0044158646 -0.11851467 0.0013956852 0
0.0033803922 -0.11784825 0.0032900448 0
-0.00052347494 -0.11592502 -0.0033700357 0
-0.0016806939 -0.11545173 -0.0015326669 0
-0.0016796786 -0.11546908 0.0015965451 0
-0.00042407244 -0.11581851 0.0033947378 0
0.0014160411 -0.11543383 -0.0039425185 0
0.0013044645 -0.11560185 0.0039301086 0
0.0038742768 -0.11523504 -0.0036105576 0
0.0054088943 -0.1157813 -0.0017246736 0
0.0054436484 -0.11574487 0.0016763301 0
0.0039256052 -0.1153788 0.003561208 0
0.0061807255 -0.11467312 -0.0008021578 0
0.0062005813 -0.11465681 0.00070179283 0
-0.000684303 -0.11270037 -0.0013881293 0
-0.00073242997 -0.11276487 0.0012874659 0
-7.252099e-05 -0.11382283 0.0030380178 0
0.0015821913 -0.11252573 -0.0037188351 0
0.00020309845 -0.11196495 -0.0026522914 0
0.00032854636 -0.11163533 0.0026466954 0
0.0014930635 -0.1126134 0.0036844602 0
0.0044767619 -0.11241493 -0.0037194104 0
0.0057589705 -0.11340179 -0.0027015023 0
0.0058123097 -0.11342503 0.0026220067 0
0.0043726582 -0.11242364 0.0037678573 0
0.006157632 -0.11105345 -0.0031235693 0
0.0067307437 -0.11235191 -0.0014985541 0
0.006772554 -0.1123012 0.0014556386 0
0.0060994076 -0.11147184 0.0030585499 0
-0.0001299321 -0.11055198 -0.00082538853 0
-0.00016766606 -0.11055935 0.00067814434 0
0.0021577796 -0.10975012 -0.003602722 0
0.00064770144 -0.10940089 -0.0017784262 0
0.00060232927 -0.10934101 0.0016697381 0
0.0021154687 -0.10953601 0.0035568164 0
0.0046715802 -0.10939176 -0.0039433991 0
0.0045157722 -0.10955436 0.0039584134 0
0.0063429754 -0.10940482 -0.0033285134 0
0.0075219963 -0.109694 -0.0015150735 0
0.0075352229 -0.10956354 0.00152202 0
0.0064034103 -0.1093158 0.0032997683 0
0.0025366526 -0.10660423 -0.0033264246 0
0.0013768624 -0.10651956 -0.0015952435 0
0.0014353172 -0.10636679 0.0016227362 0
0.0025648503 -0.10670134 0.0033561965 0
0.0043839091 -0.10641647 -0.0039543812 0
0.0044412883 -0.10640108 0.0039569968 0
0.006826173 -0.10633848 -0.0035277824 0
0.0083152866 -0.10649114 -0.0015612807 0
0.00831383 -0.10637024 0.0016525737 0
0.0068333307 -0.10637871 0.0035257034 0
0.0090089273 -0.10518733 1.4158114e-05 0
0.0028567493 -0.10419436 -0.003105972 0
0.0020870324 -0.10349712 -0.001538111 0
0.0020644031 -0.10354349 0.0015057938 0
0.0028646092 -0.10406707 0.0030927991 0
0.004351093 -0.10357542 -0.003802787 0
0.0030664715 -0.10251849 0.0029983954 0
0.0043694982 -0.10356784 0.0038033547 0
0.0071052187 -0.10343306 -0.0036897662 0
0.008636551 -0.10374377 -0.0022785931 0
0.0086437576 -0.10377311 0.0022790749 0
0.0071230149 -0.10332107 0.003665173 0
0.0092663048 -0.1031812 -0.00086168019 0
0.0092639225 -0.10332988 0.00080579787 0
0.0025222469 -0.10070587 -0.0013678122 0
0.0024533921 -0.10070531 0.0012310315 0
0.004612688 -0.10064548 -0.003708309 0
0.0032267924 -0.10035593 -0.0026703104 0
0.0032678307 -0.10045067 0.0027587628 0
0.0046968008 -0.10041367 0.0037601721 0
0.0073078964 -0.10040282 -0.0037724248 0
0.0088219177 -0.1007916 -0.0028104966 0
0.0088142557 -0.10092025 0.002792753 0
0.0073183952 -0.10048983 0.0037784227 0
0.0095944088 -0.10034121 -0.0014266327 0
0.0096244682 -0.10048348 0.0012820421 0
0.0027510948 -0.097791024 -0.00086864957 0
0.0027487755 -0.097685635 0.00085349887 0
0.0047915424 -0.097369567 -0.0036265634 0
0.0033796099 -0.097233661 -0.0023430493 0
0.0034047361 -0.097223833 0.0023498153 0
0.004845737 -0.097601421 0.0036593874 0
0.0075798673 -0.097446494 -0.003780734 0
0.0089221979 -0.098611489 -0.0029981832 0
0.0089455899 -0.098683745 0.0029717016 0
0.0075010466 -0.09742777 0.0038282094 0
0.0090155024 -0.096515715 -0.0031223933 0
0.0098400535 -0.097555816 -0.0016204636 0
0.0098415073 -0.097589493 0.0015757321 0
0.0090939095 -0.09644217 0.0030626711 0
0.002940302 -0.094592735 -0.00028509248 0
0.0029119409 -0.095218085 0.00035941627 0
0.0048887753 -0.094523095 -0.0035508086 0
0.0034175948 -0.094451584 -0.0018365865 0
0.0034237411 -0.094308548 0.0018143842 0
0.0049403827 -0.094514102 0.0035844806 0
0.0075771441 -0.094554991 -0.0038810458 0
0.0076721599 -0.094502643 0.0038614138 0
0.0091441274 -0.094669417 -0.0031392048 0
0.010132255 -0.09453322 -0.0015678584 0
0.010111314 -0.09453506 0.0016079531 0
0.0091752335 -0.094418801 0.0031243085 0
0.0029959895 -0.092960209 -0.00018460014 0
0.0029841913 -0.092930019 2.1157075e-05 0
0.0051313415 -0.091457404 -0.0036170054 0
0.0034378432 -0.091593295 -0.0015706213 0
0.0035230902 -0.091510981 0.0017353443 0
0.0051599252 -0.091462292 0.0036433295 0
0.0076003084 -0.091481373 -0.0039198725 0
0.0075242459 -0.091504753 0.003919974 0
0.0091855843 -0.0914777 -0.0032136419 0
0.010287776 -0.091542289 -0.001508079 0
0.010222317 -0.091408446 0.00160643 0
0.0092358617 -0.091167763 0.0031811292 0
0.0029966873 -0.087190986 -6.2047708e-05 0
0.0029979229 -0.087101556 0.00017882891 0
0.0051429616 -0.088508092 -0.0036339243 0
0.0034079682 -0.088356741 -0.0014707481 0
0.0034088781 -0.088560678 0.0014621915 0
0.0051037804 -0.08841309 0.0036149928 0
0.0075091026 -0.088617466 -0.0039475905 0
0.0074009588 -0.088360071 0.0039525833 0
0.0091830576 -0.088592656 -0.0032180266 0
0.010200372 -0.088488482 -0.0016661496 0
0.010244826 -0.088373333 0.0015784667 0
0.0092234919 -0.088497713 0.0031803367 0
0.0029274158 -0.085036911 -0.00033361238 0
0.0029267371 -0.084925599 0.00036364168 0
0.0049688909 -0.085461333 -0.0035930737 0
0.0034118656 -0.085577697 -0.0018210431 0
0.0035059021 -0.085520923 0.0020127639 0
0.0050240448 -0.085476302 0.003627015 0
0.0077222083 -0.0855131 -0.0038490146 0
0.007521397 -0.085454606 0.0038855511 0
0.0091591664 -0.085571326 -0.003136686 0
0.010115238 -0.085490823 -0.0016260374 0
0.010106682 -0.085480794 0.0016036523 0
0.0091521377 -0.08544936 0.003138907 0
0.0027702521 -0.082398057 -0.00090356322 0
0.0027707377 -0.082565181 0.00076281489 0
0.0048388909 -0.08241871 -0.0036575659 0
0.0033989795 -0.082639627 -0.0023870282 0
0.0034545732 -0.082692467 0.0024747285 0
0.0049264417 -0.082470618 0.0036998405 0
0.0075121531 -0.08263696 -0.0038254939 0
0.0089618862 -0.081172489 -0.0029429018 0
0.0075542349 -0.082463346 0.0037899665 0
0.0090895947 -0.083488025 -0.0030588778 0
0.0098342178 -0.082491554 -0.001637285 0
0.0098900301 -0.082572915 0.0015211945 0
0.0090594534 -0.083151713 0.0030526856 0
0.0025022516 -0.079421334 -0.0012798114 0
0.0024660761 -0.079293571 0.0012478762 0
0.0046503819 -0.079354428 -0.0037341884 0
0.0032588891 -0.079744466 -0.0027055021 0
0.0033197058 -0.079810791 0.0027565719 0
0.0046691485 -0.07925427 0.0037424541 0
0.0074530826 -0.079469912 -0.0037201925 0
0.0088299355 -0.07897222 -0.0027639829 0
0.0088221673 -0.079237252 0.0028157434 0
0.0074560237 -0.079703212 0.0037334627 0
0.0095974673 -0.079589188 -0.0013848548 0
0.0095811998 -0.079523489 0.0013722079 0
0.0028734342 -0.075537443 -0.0031623275 0
0.0020794165 -0.076541096 -0.0015041955 0
0.0021489572 -0.076560415 0.0016476644 0
0.0028554671 -0.075892657 0.003090383 0
0.0044432296 -0.076606691 -0.0038298687 0
0.0030598 -0.077491537 0.0029898293 0
0.004517355 -0.07658302 0.0038525767 0
0.0070751118 -0.076515488 -0.0036813933 0
0.0086617563 -0.076166481 -0.0022326524 0
0.0086500887 -0.076117121 0.0022121414 0
0.00703575 -0.076490469 0.003697755 0
0.0092474679 -0.076891847 -0.0010471658 0
0.0092798909 -0.076851197 0.00086234079 0
0.0025380517 -0.07327868 -0.0033459384 0
0.0013772602 -0.073479138 -0.0015947761 0
0.0013744681 -0.073500253 0.0015850021 0
0.0025522218 -0.073294953 0.0033529096 0
0.0044856723 -0.07348717 -0.003957089 0
0.0043376884 -0.073486403 0.0039444906 0
0.0067133601 -0.073505044 -0.0035747106 0
0.0083751427 -0.073602661 -0.0015183103 0
0.0083139502 -0.073442928 0.0015766653 0
0.0068468363 -0.073592417 0.003503521 0
-0.00014565929 -0.069479682 -0.00070775038 0
-0.0001221898 -0.069464847 0.00088725949 0
0.002104501 -0.070393614 -0.0035596222 0
0.00064801006 -0.07074187 -0.0016936655 0
0.00072583318 -0.070843421 0.0018032757 0
0.0021068729 -0.070517853 0.0035351671 0
0.0045512458 -0.070579983 -0.0039637745 0
0.0045169936 -0.070408218 0.0039438587 0
0.0063560428 -0.070792466 -0.0033554046 0
0.007477459 -0.070515454 -0.0017110107 0
0.0075570527 -0.070551895 0.0015425992 0
0.0063346811 -0.070748374 0.0033649947 0
-6.5144828e-05 -0.066138752 -0.0030555662 0
-0.00067014352 -0.067455098 -0.0012653595 0
-0.00068228261 -0.067266747 0.0013405939 0
-2.670263e-05 -0.066317581 0.0030344485 0
0.0015897308 -0.067456245 -0.0037192102 0
0.00021432061 -0.068189472 -0.0025762101 0
0.00029141226 -0.068134934 0.0027148626 0
0.001672497 -0.067472629 0.0037508442 0
0.0046077045 -0.067533448 -0.0036988107 0
0.005754007 -0.066577934 -0.0026981048 0
0.0057434328 -0.066775598 0.0028027105 0
0.0043641515 -0.067413203 0.0037650131 0
0.0060743592 -0.068564929 -0.0030872547 0
0.0067415144 -0.067604609 -0.0014516073 0
0.0067475117 -0.067680582 0.0015072419 0
0.0062004486 -0.068690792 0.0030242892 0
-0.00045590408 -0.06397 -0.0034702423 0
-0.0016527195 -0.064537562 -0.0016387476 0
-0.0017941616 -0.064368837 0.0014747964 0
-0.00060221122 -0.064022012 0.0033418487 0
0.0014612679 -0.06463816 -0.0039438931 0
0.0014988019 -0.064450189 0.0039723068 0
0.0038594536 -0.064534724 -0.0035857067 0
0.0053905249 -0.064259209 -0.0018066898 0
0.0053797388 -0.064294063 0.0018639645 0
0.0039137965 -0.064693287 0.0035819127 0
0.0062382878 -0.065474406 -0.00078001129 0
0.0062014405 -0.065452211 0.00089836796 0
-0.0095660491 -0.060000028 -0.0072259163 0
-0.0095622567 -0.060000021 -0.0039596856 0
-0.0095758596 -0.06000001 -0.001462544 0
-0.0095336717 -0.059999995 0.0015685314 0
-0.0093195327 -0.059999991 0.0034542503 0
-0.0094789071 -0.059999976 0.007361745 0
-0.0079526426 -0.060000036 -0.0096311532 0
-0.0073765665 -0.060000032 -0.0074398112 0
-0.0073181349 -0.060000002 -0.0044466732 0
-0.0073611881 -0.059999999 -0.0015019347 0
-0.0076934784 -0.059999999 0.0016760386 0
-0.007237256 -0.059999969 0.0045195729 0
-0.0080311578 -0.059999976 0.0070716804 0
-0.0061543789 -0.059999969 0.0097357826 0
-0.0041587991 -0.060000036 -0.0096677784 0
-0.0046259649 -0.060000032 -0.0076208021 0
-0.0048474348 -0.06000001 -0.0047183107 0
-0.0036805577 -0.060770411 -0.0011551372 0
-0.0035188345 -0.060997661 0.0011839836 0
-0.0045826286 -0.059999984 0.00450096 0
-0.0047649257 -0.059999973 0.0074547143 0
-0.0046975026 -0.059999969 0.009270424 0
-0.0017770439 -0.06000004 -0.0094498331 0
-0.0015651428 -0.060000017 -0.0075718397 0
-0.0011512178 -0.061255787 -0.00377588 0
-0.0025879142 -0.061945807 -0.0021040007 0
-0.0025517123 -0.062081624 0.0020301002 0
-0.001194453 -0.061210502 0.0037654948 0
-0.0015393059 -0.059999973 0.0074225483 0
-0.0020045235 -0.059999969 0.0095447162 0
0.0015264824 -0.060000036 -0.0092577189 0
0.0014852644 -0.060000028 -0.0077825258 0
0.0015641063 -0.061342914 -0.0039839987 0
0.002917971 -0.060139749 -0.0029360221 0
0.0029390617 -0.060225379 0.0029498595 0
0.001463328 -0.061324265 0.0039989161 0
0.0013664592 -0.059999969 0.007496201 0
0.0019190692 -0.059999973 0.009589348 0
0.0040963399 -0.060000036 -0.0090589402 0
0.0044567678 -0.060000025 -0.0074283024 0
0.0035843605 -0.061578915 -0.0036112317 0
0.0043792953 -0.061547764 -0.0017310573 0
0.0044246037 -0.061554946 0.0015659484 0
0.0037169855 -0.061390013 0.0036526173 0
0.0045986897 -0.059999976 0.0076383874 0
0.0038687512 -0.059999969 0.0094154291 0
0.007332704 -0.060000021 -0.0075172805 0
0.0073213275 -0.060000014 -0.004873455 0
0.0079068514 -0.059999995 -0.0012923193 0
0.0077809431 -0.059999984 0.001612774 0
0.0070734955 -0.059999984 0.0045745545 0
0.0070354836 -0.059999976 0.0072780806 0
0.0076984977 -0.059999969 0.0093388977 0
0.0090058325 -0.060000032 -0.0082286159 0
0.0092304191 -0.060000021 -0.0049240072 0
0.0094606802 -0.060000006 -0.00094147702 0
0.0095363883 -0.059999999 0.001209626 0
0.0091760485 -0.059999984 0.00486437 0
0.009454459 -0.059999976 0.0072800121 0
-0.0097370157 -0.059053298 -0.0096293595 0
-0.0098751932 -0.05891712 -0.0072857658 0
-0.0098738568 -0.058664493 -0.0043415623 0
-0.0098241037 -0.058734048 -0.0014946966 0
-0.0099201296 -0.058757894 0.0014321696 0
-0.0098661687 -0.058890641 0.0045584049 0
-0.0098728389 -0.05901223 0.0077329157 0
-0.0095999213 -0.058863174 0.009780868 0
-0.0074824998 -0.058873668 -0.00991813 0
-0.0078419428 -0.059999991 -0.0075723226 0
-0.0075195292 -0.05999998 -0.0045214449 0
-0.007609556 -0.059999965 -0.0012375822 0
-0.0074424543 -0.059999976 0.0013203608 0
-0.0074774213 -0.059999947 0.0044529717 0
-0.007750778 -0.059999943 0.0074733193 0
-0.0074832821 -0.058895413 0.0099199004 0
-0.004378967 -0.058936745 -0.0098325014 0
-0.0044895643 -0.059999991 -0.0075182291 0
-0.0043124715 -0.059999984 -0.004389233 0
-0.0047330367 -0.059999987 -0.0019723473 0
-0.0048904391 -0.059999969 0.0015653165 0
-0.0043231645 -0.059999954 0.0043590101 0
-0.0046916371 -0.059999939 0.0077165468 0
-0.0045074928 -0.05860557 0.0099763153 0
-0.0015966246 -0.058854345 -0.0098809199 0
-0.0014804082 -0.059999995 -0.0074062282 0
-0.001598904 -0.059999991 -0.0047709327 0
-0.0014139217 -0.059999958 0.0047504599 0
-0.0016354462 -0.059999943 0.0076418938 0
-0.0013086513 -0.058771733 0.0098756747 0
0.0014696951 -0.058706738 -0.0099531934 0
0.0013659217 -0.059999995 -0.0074887448 0
0.0015390373 -0.060000002 -0.004846354 0
0.0029835654 -0.059999987 0.0029917143 0
0.0014793745 -0.059999954 0.0048698038 0
0.0015962146 -0.059999935 0.0076615056 0
0.0013445854 -0.058726814 0.009901884 0
0.0047251079 -0.058622755 -0.009923758 0
0.0043611336 -0.059999991 -0.007764033 0
0.0045201383 -0.05999998 -0.0044043669 0
0.0048037963 -0.059999987 -0.001759447 0
0.0049762283 -0.059999973 0.0013449022 0
0.0046123033 -0.05999995 0.0042108861 0
0.0046484726 -0.059999939 0.0074784751 0
0.0046259887 -0.058683883 0.0099167144 0
0.0075701252 -0.058963612 -0.0098635955 0
0.0075835492 -0.059999995 -0.0075716479 0
0.0074139084 -0.059999984 -0.0046651703 0
0.0074923276 -0.059999965 -0.0014120766 0
0.0074871518 -0.059999961 0.0014002254 0
0.0074917744 -0.059999954 0.0045436509 0
0.0074450588 -0.059999943 0.0076841344 0
0.0075976853 -0.058830652 0.0099093979 0
0.0097577525 -0.05865255 -0.00972158 0
0.0098811556 -0.05883738 -0.0076822359 0
0.0099245245 -0.058596272 -0.0047098906 0
0.0099182343 -0.05881634 -0.0014860415 0
0.0099213598 -0.058742452 0.0014231133 0
0.0099391071 -0.058805846 0.0047121304 0
0.009899132 -0.058989864 0.0074904971 0
0.009622884 -0.058722105 0.0098076453 0
-0.0097069563 -0.055437598 -0.0097331256 0
-0.0099999681 -0.055634957 -0.0074733766 0
-0.0099999784 -0.055452924 -0.004585952 0
-0.0099999895 -0.055528961 -0.001552108 0
-0.010000002 -0.05563087 0.001262653 0
-0.010000012 -0.055448856 0.0044799647 0
-0.010000024 -0.055626769 0.0078322776 0
-0.0097454078 -0.055364192 0.0097901141 0
-0.0074187666 -0.055581354 -0.0099998228 0
-0.0074493941 -0.055587921 0.01000017 0
-0.0047136573 -0.055738296 -0.0099998098 0
-0.0046273363 -0.05559786 0.010000181 0
-0.0016599621 -0.055380117 -0.0099998014 0
-0.0015087783 -0.05539342 0.010000191 0
0.0015045644 -0.0553427 -0.0099997902 0
0.0013256602 -0.05550117 0.010000202 0
0.0043948647 -0.055633634 -0.0099997791 0
0.0043605207 -0.05541563 0.010000212 0
0.0075332164 -0.0556149 -0.0099997669 0
0.0074318075 -0.055371989 0.010000224 0
0.0097570196 -0.05568796 -0.0097230887 0
0.010000023 -0.055393182 -0.0076219509 0
0.010000014 -0.055421881 -0.0042829639 0
0.0099999998 -0.055325858 -0.0014082348 0
0.0099999895 -0.055542182 0.0014364363 0
0.0099999812 -0.05525336 0.0044877273 0
0.009999969 -0.055601861 0.0074897832 0
0.0097538717 -0.055530936 0.0097763771 0
-0.0097464286 -0.052475337 -0.0097428784 0
-0.0099999672 -0.052357782 -0.0076363124 0
-0.0099999774 -0.052564915 -0.0045626233 0
-0.0099999895 -0.052516803 -0.0015498663 0
-0.010000002 -0.052439712 0.0015191342 0
-0.010000012 -0.052498996 0.0046458701 0
-0.010000023 -0.052489724 0.0074637197 0
-0.0097424518 -0.052472707 0.0098294429 0
-0.0075576422 -0.052525699 -0.0099998331 0
-0.0074075367 -0.052267391 0.010000158 0
-0.0045744134 -0.052468482 -0.0099998238 0
-0.0042802189 -0.052404817 0.010000171 0
-0.0016160542 -0.052512806 -0.0099998116 0
-0.0013923559 -0.052486628 0.010000182 0
0.0015151489 -0.052280232 -0.0099998005 0
0.0013018275 -0.05248066 0.010000191 0
0.0046357461 -0.05255862 -0.0099997893 0
0.0044069793 -0.052828033 0.010000203 0
0.0074210302 -0.052534267 -0.0099997781 0
0.007549922 -0.052366093 0.010000213 0
0.0096859606 -0.052524988 -0.009840481 0
0.010000024 -0.052531883 -0.007667345 0
0.010000011 -0.05245984 -0.0043830117 0
0.010000001 -0.052609473 -0.0015488593 0
0.0099999914 -0.052441977 0.0013823465 0
0.0099999793 -0.052433111 0.0046446119 0
0.009999969 -0.052311517 0.0073786634 0
0.0097365612 -0.052608896 0.0097435592 0
-0.00978838 -0.049486198 -0.0097186696 0
-0.0099999681 -0.049444962 -0.0077538462 0
-0.0099999793 -0.049575042 -0.0046316953 0
-0.0099999895 -0.049303673 -0.0015777063 0
-0.010000001 -0.049356345 0.001559232 0
-0.010000012 -0.049403869 0.0044087539 0
-0.010000023 -0.049888417 0.0075277174 0
-0.0098541183 -0.049692858 0.009610611 0
-0.007464176 -0.049619164 -0.0099998424 0
-0.0075295637 -0.049336419 0.010000148 0
-0.0045268214 -0.049549077 -0.0099998321 0
-0.0046080365 -0.049373839 0.010000159 0
-0.0014539983 -0.049407996 -0.0099998228 0
-0.0012883256 -0.049727697 0.010000171 0
0.001523754 -0.049564578 -0.0099998107 0
0.001587779 -0.04954071 0.01000018 0
0.004494308 -0.049558781 -0.0099998014 0
0.0045709619 -0.049275454 0.010000192 0
0.0074509657 -0.049521904 -0.0099997893 0
0.0075813928 -0.049523577 0.010000202 0
0.0098140631 -0.049541038 -0.0098198773 0
0.010000024 -0.049440943 -0.0075186389 0
0.010000013 -0.049422264 -0.0045818551 0
0.010000003 -0.049465302 -0.0014689866 0
0.0099999914 -0.049148683 0.0016552404 0
0.0099999793 -0.049516417 0.0045827217 0
0.0099999681 -0.049738333 0.0075843087 0
0.0097142449 -0.049863473 0.009842867 0
-0.0098120924 -0.046491727 -0.0096773822 0
-0.009999969 -0.046504173 -0.0075670611 0
-0.0099999793 -0.046479803 -0.0044363379 0
-0.0099999895 -0.046572439 -0.0014882789 0
-0.010000001 -0.046461031 0.001506403 0
-0.010000012 -0.046604175 0.0044600284 0
-0.010000023 -0.046577793 0.0074503534 0
-0.0097425329 -0.046365786 0.0096918773 0
-0.0075360327 -0.046695888 -0.0099998536 0
-0.0077040815 -0.046617847 0.010000138 0
-0.0045011844 -0.046505142 -0.0099998415 0
-0.0043283408 -0.04649372 0.010000149 0
-0.0014939231 -0.04669125 -0.0099998321 0
-0.0015758693 -0.04644854 0.010000158 0
0.0015955409 -0.04655889 -0.0099998219 0
0.0014829098 -0.046446942 0.01000017 0
0.004408753 -0.046545718 -0.0099998126 0
0.0044738245 -0.046219017 0.010000179 0
0.0076608863 -0.046419535 -0.0099997995 0
0.0076287547 -0.046390805 0.010000192 0
0.0097337021 -0.046259668 -0.0097415932 0
0.010000022 -0.04666096 -0.0074371481 0
0.010000013 -0.046731938 -0.0042854589 0
0.010000002 -0.046569381 -0.0015755265 0
0.0099999895 -0.046409577 0.0015720758 0
0.0099999793 -0.046423648 0.0045929914 0
0.0099999681 -0.046436589 0.0073945341 0
0.0098502636 -0.046585191 0.0097346632 0
-0.0098078419 -0.043594837 -0.0097471615 0
-0.009999969 -0.043478601 -0.007506452 0
-0.0099999793 -0.043494496 -0.0044589769 0
-0.0099999905 -0.043424275 -0.0015688512 0
-0.010000003 -0.043252185 0.0017026922 0
-0.010000011 -0.043411303 0.0044198344 0
-0.010000024 -0.043610793 0.0075969077 0
-0.009743209 -0.043620322 0.0097777899 0
-0.0074933576 -0.043503147 -0.0099998666 0
-0.0075731445 -0.043619864 0.010000126 0
-0.0045389999 -0.043446016 -0.0099998554 0
-0.0045678029 -0.043511052 0.010000136 0
-0.0016236695 -0.043606568 -0.0099998442 0
-0.0014868585 -0.043494333 0.010000147 0
0.0014891417 -0.043484185 -0.0099998331 0
0.0015719378 -0.04366355 0.01000016 0
0.0045696767 -0.043568816 -0.0099998228 0
0.0045306343 -0.043358635 0.01000017 0
0.0073947106 -0.043531161 -0.0099998126 0
0.007582841 -0.04365205 0.01000018 0
0.0096879508 -0.043397207 -0.0097279781 0
0.010000024 -0.043388423 -0.0077240104 0
0.010000013 -0.043451235 -0.0045759375 0
0.010000002 -0.043527126 -0.0015047297 0
0.0099999895 -0.0432822 0.0015812392 0
0.0099999802 -0.043406609 0.004451578 0
0.009999969 -0.043048728 0.0076099518 0
0.009817699 -0.043448355 0.0097167492 0
-0.0098074768 -0.040701352 -0.0097134216 0
-0.0099999681 -0.040550057 -0.0076055024 0
-0.0099999793 -0.040573422 -0.0046404316 0
-0.0099999895 -0.040713981 -0.0017701121 0
-0.0099999998 -0.040781401 0.0013891439 0
-0.010000011 -0.04079093 0.0044351476 0
-0.010000022 -0.040688481 0.0075752269 0
-0.0097623253 -0.040456828 0.0097228354 0
-0.0076761572 -0.040364154 -0.0099998787 0
-0.0077119828 -0.040548004 0.010000114 0
-0.0048529888 -0.040440954 -0.0099998666 0
-0.0047224239 -0.040402431 0.010000125 0
-0.0015116598 -0.040368263 -0.0099998545 0
-0.0014099331 -0.040470563 0.010000138 0
0.001582232 -0.040427886 -0.0099998442 0
0.0012433245 -0.040300731 0.010000148 0
0.0045793392 -0.040626805 -0.0099998312 0
0.0045987386 -0.040454723 0.010000159 0
0.0074427263 -0.040477891 -0.0099998219 0
0.0073705795 -0.040479373 0.010000168 0
0.0097284801 -0.040412173 -0.0097170519 0
0.010000023 -0.040588349 -0.0074442537 0
0.010000011 -0.040651992 -0.0044034431 0
0.010000002 -0.040661864 -0.001624246 0
0.0099999905 -0.04035541 0.0014792284 0
0.0099999793 -0.040492337 0.004512025 0
0.009999969 -0.040468402 0.007443503 0
0.0096754264 -0.040184472 0.0097530549 0
-0.0097663272 -0.037491519 -0.0097786812 0
-0.0099999681 -0.037542131 -0.007435435 0
-0.0099999802 -0.037335943 -0.0043620826 0
-0.0099999905 -0.03744261 -0.0016014484 0
-0.0099999998 -0.03760178 0.0013773252 0
-0.010000012 -0.037507381 0.0044720899 0
-0.010000022 -0.037436638 0.0075656674 0
-0.0096911695 -0.037458807 0.0098163486 0
-0.0074910247 -0.037397251 -0.0099998871 0
-0.0075172395 -0.037514139 0.010000105 0
-0.0046105394 -0.037493933 -0.0099998759 0
-0.0046735457 -0.037665352 0.010000116 0
-0.0012648827 -0.037377302 -0.0099998657 0
-0.0015262482 -0.037550937 0.010000126 0
0.0014291866 -0.037484404 -0.0099998536 0
0.0015714326 -0.037322376 0.010000137 0
0.0044278456 -0.037587129 -0.0099998433 0
0.0045843739 -0.037503637 0.010000148 0
0.0074650133 -0.037472297 -0.0099998331 0
0.0074437759 -0.037347443 0.010000157 0
0.0098297428 -0.03730502 -0.0096465573 0
0.010000023 -0.037302554 -0.0074412609 0
0.010000012 -0.037387125 -0.0044958778 0
0.010000002 -0.037332777 -0.001556871 0
0.0099999895 -0.037454057 0.0014971971 0
0.0099999784 -0.037683487 0.0045433585 0
0.0099999681 -0.037451915 0.0076700025 0
0.009733256 -0.037339237 0.0097872 0
-0.0097847851 -0.034491133 -0.0097774938 0
-0.0099999681 -0.034457278 -0.0076356134 0
-0.0099999793 -0.034500804 -0.0045693195 0
-0.0099999905 -0.034547895 -0.0015440725 0
-0.010000002 -0.034521539 0.0015994615 0
-0.010000011 -0.034436498 0.0044645695 0
-0.010000023 -0.03432063 0.0074610794 0
-0.0097301593 -0.034567218 0.0097686974 0
-0.007524203 -0.034566227 -0.0099998992 0
-0.0073754219 -0.034424905 0.010000093 0
-0.0043992721 -0.034408681 -0.009999888 0
-0.0045024045 -0.034520589 0.010000102 0
-0.0015956893 -0.034393612 -0.0099998759 0
-0.0014354592 -0.034555286 0.010000115 0
0.001231636 -0.034594554 -0.0099998666 0
0.0015789345 -0.034432374 0.010000126 0
0.0045427368 -0.03444298 -0.0099998536 0
0.0044571511 -0.034570374 0.010000136 0
0.0075954506 -0.034526065 -0.0099998442 0
0.007355378 -0.034593381 0.010000148 0
0.0097048609 -0.034457941 -0.0098185912 0
0.010000022 -0.034610327 -0.0073680533 0
0.010000011 -0.034570023 -0.0044210521 0
0.010000002 -0.034419436 -0.0014520831 0
0.0099999905 -0.034284025 0.0013191858 0
0.0099999784 -0.034407765 0.0046401941 0
0.0099999672 -0.034444869 0.0076575312 0
0.0098107532 -0.034429111 0.0097033931 0
-0.0096929614 -0.031498782 -0.0097499611 0
-0.009999969 -0.031584654 -0.0073208231 0
-0.0099999802 -0.03142998 -0.0043631503 0
-0.0099999895 -0.031679999 -0.0017548262 0
-0.010000001 -0.031436548 0.0015120995 0
-0.010000012 -0.031434268 0.0045468826 0
-0.010000023 -0.031450819 0.0074511766 0
-0.0096090855 -0.031632215 0.009775281 0
-0.0076327198 -0.031450003 -0.0099999094 0
-0.0076250038 -0.031460021 0.010000082 0
-0.0044323783 -0.031368051 -0.0099998983 0
-0.004514304 -0.031410631 0.010000093 0
-0.0013700245 -0.031371385 -0.0099998862 0
-0.0015145233 -0.031563152 0.010000105 0
0.0015605618 -0.031558834 -0.0099998759 0
0.0014067147 -0.031588811 0.010000115 0
0.0047838916 -0.031539615 -0.0099998638 0
0.0046227206 -0.03140505 0.010000126 0
0.0076745176 -0.031715777 -0.0099998536 0
0.0073678922 -0.031307176 0.010000137 0
0.0097675035 -0.031709075 -0.0097691016 0
0.010000023 -0.031675335 -0.0075201388 0
0.010000012 -0.031630084 -0.0046119932 0
0.010000001 -0.031355485 -0.001514364 0
0.0099999895 -0.031368464 0.0015518706 0
0.0099999812 -0.031463269 0.0044744033 0
0.009999969 -0.031618219 0.007575836 0
0.0097965235 -0.031458393 0.009701754 0
-0.0097628776 -0.02850417 -0.0096903462 0
-0.009999969 -0.028507689 -0.0072310851 0
-0.0099999812 -0.02835973 -0.0043689348 0
-0.0099999895 -0.028600473 -0.0015726651 0
-0.010000002 -0.028556481 0.0015134698 0
-0.010000012 -0.028593369 0.0043520224 0
-0.010000024 -0.028622882 0.0076397406 0
-0.0097151948 -0.028391141 0.0097823776 0
-0.0074744094 -0.028477248 -0.0099999197 0
-0.0075052087 -0.028375359 0.010000071 0
-0.0043012332 -0.028443217 -0.0099999085 0
-0.0045862622 -0.028669866 0.010000084 0
-0.0015244299 -0.028518114 -0.0099998992 0
-0.0014550762 -0.028496677 0.010000093 0
0.0016152982 -0.028638706 -0.009999888 0
0.0013796675 -0.028599465 0.010000103 0
0.0044390736 -0.028276492 -0.0099998768 0
0.0044213086 -0.028687548 0.010000115 0
0.0077047893 -0.028352508 -0.0099998647 0
0.0075579188 -0.028421748 0.010000125 0
0.009765083 -0.028412264 -0.0097740209 0
0.010000024 -0.028424958 -0.0076661287 0
0.010000012 -0.028476425 -0.0041744672 0
0.010000001 -0.028361442 -0.0016514012 0
0.0099999895 -0.028526805 0.0015392683 0
0.0099999784 -0.028402748 0.0045802034 0
0.0099999681 -0.028596094 0.0074439324 0
0.009832033 -0.028430864 0.0097341603 0
-0.0097897025 -0.025381975 -0.0097246934 0
-0.0099999672 -0.025557086 -0.0073514143 0
-0.0099999793 -0.025500808 -0.0044201482 0
-0.0099999905 -0.025629399 -0.0015065871 0
-0.010000002 -0.025314206 0.001428024 0
-0.010000012 -0.0254272 0.0044256607 0
-0.010000025 -0.025503723 0.0076940339 0
-0.0097531592 -0.025530705 0.0097186547 0
-0.0074425405 -0.025438709 -0.0099999309 0
-0.0076119937 -0.025478695 0.010000059 0
-0.0045172893 -0.025417358 -0.0099999197 0
-0.0045384406 -0.025444124 0.010000071 0
-0.0012567732 -0.02540879 -0.0099999085 0
-0.0016297894 -0.025537446 0.010000084 0
0.0014456579 -0.025601525 -0.0099998973 0
0.0015663274 -0.025581567 0.010000092 0
0.00437064 -0.025356671 -0.0099998889 0
0.0046792813 -0.025711393 0.010000106 0
0.0075647407 -0.025557807 -0.0099998768 0
0.0076619368 -0.025428941 0.010000115 0
0.0097729852 -0.02562565 -0.0096814157 0
0.010000021 -0.025429279 -0.0072577768 0
0.010000012 -0.025575228 -0.0045146826 0
0.010000003 -0.025518149 -0.0015042534 0
0.0099999905 -0.025579059 0.0016033762 0
0.0099999784 -0.025733249 0.0046829307 0
0.009999969 -0.025629928 0.0075517553 0
0.0097732432 -0.025645152 0.0096974047 0
-0.009765666 -0.022646921 -0.0097470265 0
-0.009999969 -0.022445768 -0.0074519664 0
-0.0099999793 -0.02278403 -0.0043950654 0
-0.0099999895 -0.022605987 -0.0014659383 0
-0.010000002 -0.022443462 0.0014787712 0
-0.010000012 -0.022570763 0.0045016743 0
-0.010000022 -0.022426751 0.0075060721 0
-0.0097623728 -0.022528786 0.0097577572 0
-0.0075473785 -0.022503747 -0.009999942 0
-0.0073762974 -0.022553954 0.01000005 0
-0.0046935799 -0.022666367 -0.0099999309 0
-0.0046058861 -0.022658469 0.010000061 0
-0.0014538275 -0.022420514 -0.0099999206 0
-0.0014110841 -0.022541026 0.010000072 0
0.0017066901 -0.022468789 -0.0099999076 0
0.0013687653 -0.022540137 0.010000083 0
0.004562973 -0.022384059 -0.0099998983 0
0.0046037771 -0.022394132 0.010000093 0
0.0072705261 -0.022737112 -0.0099998889 0
0.0073982119 -0.022396823 0.010000104 0
0.0097285891 -0.022876576 -0.0097334338 0
0.010000022 -0.022544062 -0.0075757448 0
0.010000011 -0.022700192 -0.004420259 0
0.010000002 -0.022373231 -0.001490259 0
0.0099999895 -0.022506038 0.0015007114 0
0.0099999784 -0.022585724 0.0045223585 0
0.009999969 -0.022487249 0.0074146157 0
0.0097319186 -0.02260799 0.0097840764 0
-0.0097716097 -0.019575197 -0.009799893 0
-0.00999997 -0.019359853 -0.0073019546 0
-0.0099999784 -0.019412713 -0.0045204964 0
-0.0099999905 -0.019563526 -0.0017002553 0
-0.010000001 -0.019639499 0.0014910843 0
-0.010000013 -0.019416096 0.0047312602 0
-0.010000022 -0.019232424 0.0074699763 0
-0.0097239465 -0.019604709 0.0098370723 0
-0.0076072877 -0.019598011 -0.0099999532 0
-0.0075154547 -0.019690864 0.010000041 0
-0.00444155 -0.019400802 -0.009999942 0
-0.0046545002 -0.01937384 0.010000049 0
-0.0014567174 -0.019429605 -0.0099999299 0
-0.001524315 -0.019432237 0.010000061 0
0.001668431 -0.019387987 -0.0099999188 0
0.0012345955 -0.01952727 0.010000071 0
0.0046095289 -0.019304309 -0.0099999104 0
0.0045003216 -0.019568304 0.010000084 0
0.0073630498 -0.019535029 -0.0099998983 0
0.0075966031 -0.019723041 0.010000096 0
0.0097610159 -0.019472936 -0.0097974194 0
0.010000021 -0.019768221 -0.0072938334 0
0.010000011 -0.019356713 -0.0044007106 0
0.0099999998 -0.019376526 -0.0013573796 0
0.0099999895 -0.019501595 0.0015379505 0
0.0099999793 -0.019605866 0.0043830229 0
0.009999969 -0.019549625 0.0074060867 0
0.0098071285 -0.019427242 0.0097388197 0
-0.009653789 -0.016547943 -0.0098416973 0
-0.0099999681 -0.016592102 -0.0077460962 0
-0.0099999793 -0.016547296 -0.0044659027 0
-0.0099999914 -0.016648535 -0.001668545 0
-0.010000001 -0.01639742 0.0015312696 0
-0.010000013 -0.016440364 0.0045316555 0
-0.010000023 -0.016480131 0.0075308774 0
-0.0096690869 -0.016736818 0.0098530222 0
-0.0075267181 -0.01671337 -0.0099999625 0
-0.0074910931 -0.01664081 0.01000003 0
-0.0046643894 -0.01658009 -0.0099999532 0
-0.0045652189 -0.016543239 0.010000039 0
-0.0012905098 -0.016569823 -0.0099999411 0
-0.0015557603 -0.016639087 0.010000052 0
0.0014586288 -0.016476447 -0.0099999299 0
0.0013557774 -0.016487895 0.010000063 0
0.0043155937 -0.016542483 -0.0099999206 0
0.0046382225 -0.016535563 0.010000072 0
0.007297378 -0.016366137 -0.0099999113 0
0.0075633796 -0.016379913 0.010000083 0
0.0097038634 -0.016374977 -0.0097888801 0
0.010000024 -0.016451994 -0.0075015449 0
0.010000012 -0.016600464 -0.0045104097 0
0.010000001 -0.016712744 -0.0015256675 0
0.0099999905 -0.016305264 0.0015096065 0
0.0099999793 -0.01658514 0.004488084 0
0.0099999681 -0.016601715 0.0075143529 0
0.0097335884 -0.016636422 0.0098226685 0
-0.0097788144 -0.013470785 -0.0098240925 0
-0.0099999681 -0.013603671 -0.0075570848 0
-0.0099999793 -0.013422997 -0.0044634882 0
-0.0099999905 -0.01349788 -0.0014627924 0
-0.010000001 -0.013522621 0.0014495954 0
-0.010000013 -0.013458634 0.0046219388 0
-0.010000023 -0.013383563 0.0073519647 0
-0.009712805 -0.013590801 0.009749759 0
-0.0074146795 -0.013398576 -0.0099999746 0
-0.0072747567 -0.01362446 0.010000019 0
-0.0044638473 -0.013575619 -0.0099999616 0
-0.0045163534 -0.013455339 0.010000027 0
-0.001597481 -0.013618913 -0.0099999513 0
-0.0014520754 -0.013404216 0.010000039 0
0.0014392284 -0.013649262 -0.009999942 0
0.0014598062 -0.013481924 0.01000005 0
0.0045694211 -0.013535658 -0.009999929 0
0.0046791085 -0.013331113 0.01000006 0
0.0075577628 -0.013514576 -0.0099999197 0
0.0073133931 -0.013318863 0.01000007 0
0.0097572887 -0.01343869 -0.0097793769 0
0.010000022 -0.013552446 -0.0075425124 0
0.010000013 -0.013580143 -0.0045686043 0
0.010000002 -0.013520055 -0.0016280184 0
0.0099999905 -0.013407828 0.001249006 0
0.0099999793 -0.013492103 0.0044939825 0
0.0099999709 -0.013181325 0.0075369803 0
0.0097983871 -0.013426214 0.009745759 0
-0.0096989106 -0.01061435 -0.0097795688 0
-0.0099999718 -0.010641129 -0.0072988924 0
-0.0099999793 -0.010522253 -0.00453257 0
-0.0099999905 -0.010375152 -0.0014787193 0
-0.0099999998 -0.01034824 0.0012993572 0
-0.010000012 -0.010704773 0.0044142846 0
-0.010000024 -0.010352068 0.0076704277 0
-0.0098289633 -0.010285379 0.0095973974 0
-0.0075741662 -0.010450882 -0.0099999839 0
-0.0074205366 -0.010442322 0.010000005 0
-0.0042411378 -0.010364845 -0.0099999737 0
-0.0044004088 -0.010518326 0.010000017 0
-0.0015180856 -0.010642334 -0.0099999625 0
-0.0016867229 -0.01037168 0.010000028 0
0.0016909165 -0.010459875 -0.0099999504 0
0.0012562602 -0.01040608 0.010000038 0
0.0043302057 -0.010528633 -0.009999942 0
0.0045907809 -0.010337884 0.01000005 0
0.0075228214 -0.010366946 -0.0099999318 0
0.0075740116 -0.010621521 0.010000059 0
0.0096447766 -0.010437833 -0.0098041194 0
0.010000024 -0.010397456 -0.0076893573 0
0.010000013 -0.010616523 -0.0045738234 0
0.010000001 -0.010329857 -0.0014159897 0
0.0099999905 -0.010586267 0.0014771017 0
0.0099999793 -0.010549393 0.0044960319 0
0.0099999681 -0.010347479 0.0073846527 0
0.0098375101 -0.010414714 0.0096709635 0
-0.0096917031 -0.0074847392 -0.0097536491 0
-0.00999997 -0.0076556862 -0.0075822026 0
-0.0099999784 -0.0076257745 -0.004520576 0
-0.0099999895 -0.0076052966 -0.0015663184 0
-0.010000001 -0.0075862859 0.0015730312 0
-0.010000013 -0.0076374579 0.0046888236 0
-0.010000024 -0.0074113444 0.0076305182 0
-0.0097234799 -0.0074370299 0.0097746039 0
-0.007378181 -0.0075056185 -0.0099999961 0
-0.0076923589 -0.0070782816 0.0099999933 0
-0.0043661068 -0.0075292117 -0.0099999858 0
-0.004401987 -0.0075302278 0.010000008 0
-0.0016125457 -0.0078865439 -0.0099999718 0
-0.0013322136 -0.0074101342 0.010000018 0
0.0014627462 -0.00727187 -0.0099999653 0
0.001606459 -0.00742664 0.010000029 0
0.0043330011 -0.0075385254 -0.0099999523 0
0.0041908142 -0.007643152 0.010000039 0
0.0075811204 -0.0075411838 -0.009999942 0
0.0075585805 -0.0075314245 0.01000005 0
0.0097345868 -0.0077192085 -0.009778358 0
0.010000024 -0.0075371293 -0.0076570101 0
0.010000012 -0.0074559283 -0.0044633993 0
0.010000002 -0.0074982732 -0.0015331646 0
0.0099999895 -0.0073797489 0.0014923885 0
0.0099999793 -0.0074883616 0.0045003542 0
0.009999969 -0.007379279 0.0074931337 0
0.009658373 -0.0075921416 0.0098456973 0
-0.009749773 -0.0045482903 -0.0097825164 0
-0.0099999672 -0.0044606146 -0.0075686476 0
-0.0099999784 -0.0044029029 -0.0045701386 0
-0.0099999905 -0.0044747437 -0.0015293078 0
-0.010000001 -0.0044369968 0.0013875985 0
-0.010000013 -0.0043370314 0.0045380378 0
-0.010000022 -0.0045333845 0.0075051361 0
-0.0098013878 -0.004290672 0.0096657937 0
-0.0075634932 -0.0044336668 -0.010000008 0
-0.0074431291 -0.0043013408 0.0099999839 0
-0.0046340418 -0.0044000479 -0.0099999961 0
-0.0044579566 -0.0044734809 0.009999997 0
-0.0016875796 -0.0045097158 -0.0099999858 0
-0.0013865769 -0.0046069594 0.010000008 0
0.0014766952 -0.0044992659 -0.0099999737 0
0.0014621645 -0.0046407129 0.010000017 0
0.00444633 -0.0044945027 -0.0099999644 0
0.0046260986 -0.004710352 0.010000029 0
0.0074762241 -0.0047292835 -0.0099999523 0
0.0074570184 -0.0045020543 0.010000039 0
0.0098163234 -0.0045471452 -0.0097111929 0
0.010000024 -0.0045099854 -0.0074567115 0
0.010000013 -0.0046687089 -0.0043806029 0
0.010000001 -0.0044083339 -0.0015849409 0
0.0099999914 -0.0046355375 0.0013581845 0
0.0099999784 -0.0044275443 0.0046344632 0
0.0099999681 -0.0045863879 0.0074886177 0
0.0096928291 -0.0045675053 0.0097781392 0
-0.0097539509 -0.0014840332 -0.0097185345 0
-0.00999997 -0.0015418278 -0.0072540655 0
-0.0099999802 -0.0017749475 -0.0044521317 0
-0.0099999905 -0.0014229194 -0.0015256132 0
-0.010000001 -0.0015479561 0.0015667496 0
-0.010000011 -0.0015343047 0.0044843946 0
-0.010000023 -0.0013971262 0.0074079772 0
-0.0097729675 -0.0014200987 0.0096931914 0
-0.0075490461 -0.0014767507 -0.010000017 0
-0.0075053629 -0.0017009034 0.0099999746 0
-0.0046396744 -0.0016535296 -0.010000007 0
-0.0046433569 -0.0015636397 0.0099999839 0
-0.0013122197 -0.001579877 -0.0099999942 0
-0.0014110393 -0.0014173443 0.0099999961 0
0.0012617832 -0.001564664 -0.0099999849 0
0.0015418369 -0.0016727704 0.010000007 0
0.0043896148 -0.0015871427 -0.0099999756 0
0.0045688995 -0.0015172557 0.010000017 0
0.0073439335 -0.0012697023 -0.0099999635 0
0.0074748672 -0.0014974881 0.010000031 0
0.0098099532 -0.0014645539 -0.0097115599 0
0.010000022 -0.0013783232 -0.0073494017 0
0.010000011 -0.0014564801 -0.0044625904 0
0.010000002 -0.0015603154 -0.001568506 0
0.0099999895 -0.0015007105 0.0014856039 0
0.0099999812 -0.0015257102 0.0044030421 0
0.0099999681 -0.0016556939 0.0075842687 0
0.0097487886 -0.0015144091 0.0097468048 0
-0.0096911909 -3.4204895e-08 -0.0094488915 0
-0.0095920106 -2.6861624e-08 -0.0074203582 0
-0.0094018746 -1.5783598e-08 -0.0043601221 0
-0.0094188144 -5.9130283e-09 -0.0016334377 0
-0.0094612716 5.0654139e-09 0.0013992895 0
-0.0094714705 1.4644231e-08 0.0040453784 0
-0.0095535489 2.6323818e-08 0.0072717927 0
-0.0094530499 3.3733613e-08 0.0093187029 0
-0.0073428117 -3.4251222e-08 -0.0094616897 0
-0.0076461346 -2.6748635e-08 -0.0073891459 0
-0.0076899356 -1.532505e-08 -0.0042334506 0
-0.0074393274 -5.6495844e-09 -0.0015606629 0
-0.007336251 5.2654685e-09 0.0014545532 0
-0.0074675959 1.6478193e-08 0.0045519993 0
-0.0075330646 2.700054e-08 0.0074587334 0
-0.0074258819 3.4516443e-08 0.0095349541 0
-0.0045073871 -3.4381095e-08 -0.0094975661 0
-0.004421337 -2.6794819e-08 -0.0074019036 0
-0.0043485826 -1.6496481e-08 -0.0045570512 0
-0.004401281 -5.4027538e-09 -0.0014924775 0
-0.0045866808 5.8427529e-09 0.0016140245 0
-0.0045115137 1.6561314e-08 0.004574961 0
-0.0046824478 2.7328394e-08 0.0075493008 0
-0.0047068112 3.4817859e-08 0.009618219 0
-0.0013175911 -3.4142495e-08 -0.0094316537 0
-0.0013878777 -2.7136322e-08 -0.0074962419 0
-0.0014342453 -1.6830853e-08 -0.0046494193 0
-0.0013488879 -5.5144822e-09 -0.0015233418 0
-0.001611043 4.9508073e-09 0.0013676301 0
-0.0015906545 1.640532e-08 0.0045318687 0
-0.001491875 2.7411915e-08 0.0075723724 0
-0.0015372528 3.4423419e-08 0.009509258 0
0.0012288204 -3.4245158e-08 -0.0094600143 0
0.0012472782 -2.7414618e-08 -0.0075731194 0
0.0014648561 -1.6882028e-08 -0.0046635568 0
0.0013901643 -6.0895284e-09 -0.0016821948 0
0.0014018064 5.951351e-09 0.0016440242 0
0.0013556284 1.6271034e-08 0.0044947732 0
0.0013354662 2.7170314e-08 0.007505632 0
0.0015313849 3.4150986e-08 0.0094339997 0
0.0042824829 -3.4772913e-08 -0.0096058035 0
0.0044995667 -2.7195989e-08 -0.0075127245 0
0.0045548654 -1.6513839e-08 -0.0045618471 0
0.0045104166 -5.941649e-09 -0.0016413439 0
0.0044405409 5.3861018e-09 0.0014878775 0
0.0045377715 1.6540488e-08 0.0045692082 0
0.00459396 2.7694089e-08 0.0076503218 0
0.0045343405 3.4305788e-08 0.0094767632 0
