# .PCD v0.7 - Point Cloud Data file format
VERSION 0.7
FIELDS x y z rgb
SIZE 4 4 4 4
TYPE F F F F
COUNT 1 1 1 1
WIDTH 1164
HEIGHT 1
VIEWPOINT 0 0 0 1 0 0 0
POINTS 1164
DATA ascii
-0.0061101643 -0.12000003 -0.0091673164 0
-0.0074508158 -0.12000003 -0.0074437787 0
-0.0076668351 -0.12 -0.004369182 0
-0.0078980904 -0.12 -0.0015572022 0
-0.0075962921 -0.11999995 0.0014418832 0
-0.0075431713 -0.11999997 0.0044591608 0
-0.0074884645 -0.11999996 0.0071742521 0
-0.0071140337 -0.11999996 0.0093972776 0
-0.0037119775 -0.12000003 -0.0094160829 0
-0.0047784471 -0.12000003 -0.0077332561 0
-0.0044384976 -0.12 -0.0043838532 0
-0.0040774466 -0.1211459 -0.00070978823 0
-0.0040547401 -0.12121653 0.00085016811 0
-0.0044310554 -0.11999995 0.0046604257 0
-0.0045766942 -0.11999997 0.0074116695 0
-0.0039386195 -0.11999996 0.0094223004 0
-0.0013585147 -0.12000003 -0.0093505709 0
-0.0016202828 -0.12000002 -0.0075222682 0
-0.0015460493 -0.11999998 -0.0045009009 0
-0.001440405 -0.12151081 -0.0017875982 0
-0.001653856 -0.12130237 0.0017571895 0
-0.001242695 -0.12 0.0043324358 0
-0.0015413994 -0.11999993 0.0076220855 0
-0.0018378043 -0.11999996 0.0094347205 0
0.0011914293 -0.12000003 -0.0095747439 0
0.001446301 -0.12000002 -0.007782565 0
0.0017107391 -0.12124518 -0.0037111028 0
0.00046761706 -0.12163778 -0.0027406402 0
0.0004754299 -0.12152712 0.0026834074 0
0.0019284606 -0.12132865 0.003718839 0
0.0012393801 -0.11999999 0.0071971999 0
0.001587057 -0.11999996 0.0095011462 0
0.0038242582 -0.12000003 -0.0092586176 0
0.0045554456 -0.12000003 -0.0074294666 0
0.0044156159 -0.12127835 -0.0043298313 0
0.005037487 -0.12143523 -0.0015734627 0
0.0050532715 -0.12124307 0.0015010868 0
0.0044743679 -0.12118738 0.004432186 0
0.0042783301 -0.11999999 0.0071130791 0
0.0044882712 -0.11999996 0.0096567916 0
0.0072830422 -0.12000003 -0.0094557637 0
0.0071962853 -0.12000003 -0.0073091486 0
0.0073671434 -0.12 -0.0044278279 0
0.0073671089 -0.12 -0.0015043556 0
0.0079245893 -0.11999998 0.0016454001 0
0.0075928024 -0.11999998 0.0043662176 0
0.0078332433 -0.11999999 0.0071553062 0
0.0071574138 -0.11999996 0.0095409583 0
0.0097136479 -0.12000002 -0.0070892586 0
0.0096724778 -0.12000001 -0.0047210939 0
0.0094962474 -0.12 -0.0014906114 0
0.0093808696 -0.11999999 0.0014990157 0
0.0094633996 -0.12 0.0042147445 0
0.009618219 -0.11999997 0.0072534978 0
0.0094869509 -0.11999997 0.0091701634 0
-0.0096669309 -0.11851599 -0.0097209066 0
-0.0099353315 -0.11874454 -0.0074921865 0
-0.0098980237 -0.11881074 -0.0045336317 0
-0.0099264663 -0.11889904 -0.0014782201 0
-0.0099020489 -0.11878183 0.0014393275 0
-0.009912882 -0.11872579 0.0045680269 0
-0.0098769804 -0.11894922 0.007490084 0
-0.0097358087 -0.11861334 0.0096777724 0
-0.0073843095 -0.1189016 -0.0098661631 0
-0.0074070427 -0.11999995 -0.0076394295 0
-0.0074264081 -0.11999994 -0.0047050221 0
-0.0072785439 -0.11999994 -0.0016177148 0
-0.0075847637 -0.11999993 0.0014506306 0
-0.0075661018 -0.11999994 0.0043831584 0
-0.0073519922 -0.1199999 0.0074693668 0
-0.0074812477 -0.11880133 0.009886289 0
-0.0044426234 -0.11881886 -0.0098965811 0
-0.0045835683 -0.11999996 -0.0074123084 0
-0.0043577873 -0.11999995 -0.0045758006 0
-0.0046836101 -0.11999994 -0.0015533628 0
-0.0047872881 -0.11999995 0.00158632 0
-0.0044055362 -0.11999992 0.0046977219 0
-0.0046040229 -0.11999992 0.0076151821 0
-0.0043333005 -0.11868839 0.0098929666 0
-0.0014186157 -0.11883923 -0.0098784752 0
-0.0015318325 -0.11999995 -0.0075303987 0
-0.0016977341 -0.11999994 -0.0043853084 0
-0.0016486626 -0.12 -0.0025210376 0
-0.0018181291 -0.11999999 0.0021549079 0
-0.0015586803 -0.11999992 0.0041006906 0
-0.0015558876 -0.11999989 0.0074683237 0
-0.0016455796 -0.11874133 0.0099138161 0
0.0016151725 -0.11874089 -0.0098864185 0
0.001318979 -0.11999996 -0.0074285311 0
0.0014850938 -0.11999995 -0.0048315576 0
0.000664444 -0.11999998 0.0029090897 0
0.0011916579 -0.11999991 0.0045184083 0
0.0014766349 -0.11999989 0.0075320699 0
0.0014320901 -0.11872406 0.0098801544 0
0.0045916056 -0.11879074 -0.0099178981 0
0.0044080177 -0.11999996 -0.0073037758 0
0.0046905088 -0.11999995 -0.0049229101 0
0.0054029967 -0.12 -0.0014012064 0
0.0054408731 -0.11999999 0.0021778159 0
0.0043545361 -0.11999992 0.0051482804 0
0.0047061173 -0.11999989 0.0076190243 0
0.0046188096 -0.11871453 0.009956412 0
0.0075500398 -0.1189407 -0.0098893922 0
0.0075539299 -0.11999996 -0.007619686 0
0.007503306 -0.11999994 -0.0046297791 0
0.0076619564 -0.11999994 -0.0014596822 0
0.0074233073 -0.11999993 0.0014769899 0
0.007601921 -0.11999992 0.004586204 0
0.007464712 -0.1199999 0.0072523886 0
0.0074604917 -0.11884863 0.0099111181 0
0.0096591925 -0.11874221 -0.0097414115 0
0.0098814853 -0.11900111 -0.0075670001 0
0.0098586716 -0.1189355 -0.0044564875 0
0.0099172508 -0.11890399 -0.0013679462 0
0.0099258926 -0.11872302 0.0015197566 0
0.0098835351 -0.11894719 0.0047569252 0
0.0099246483 -0.11870927 0.0075358008 0
0.0096955784 -0.11842369 0.009692749 0
-0.0097343642 -0.11571316 -0.0097623654 0
-0.0099999672 -0.11558971 -0.0075399559 0
-0.0099999774 -0.11538684 -0.0045103286 0
-0.0099999914 -0.11518469 -0.001393432 0
-0.010000001 -0.11518122 0.00152584 0
-0.010000011 -0.11567479 0.0044695577 0
-0.010000022 -0.11551108 0.0074825496 0
-0.009747237 -0.11561703 0.0097829411 0
-0.0074262298 -0.11538865 -0.009999604 0
-0.0074023316 -0.11546889 0.010000387 0
-0.0043972982 -0.11552766 -0.0099995928 0
-0.0044154688 -0.11535059 0.010000397 0
-0.0016744485 -0.11556528 -0.0099995835 0
-0.0013629862 -0.11547641 0.010000408 0
0.0015279566 -0.1155903 -0.0099995714 0
0.0014563681 -0.11532791 0.010000418 0
0.0045702248 -0.11549827 -0.0099995611 0
0.0044118762 -0.11561124 0.010000429 0
0.0074100834 -0.11548566 -0.009999549 0
0.0075287805 -0.1156053 0.01000044 0
0.0097268503 -0.11533859 -0.0097462442 0
0.010000022 -0.11561516 -0.0074918675 0
0.010000012 -0.1153798 -0.0046298136 0
0.010000001 -0.11533145 -0.0014649425 0
0.0099999877 -0.11546702 0.0017124976 0
0.0099999793 -0.11561186 0.0044721914 0
0.0099999681 -0.11536554 0.0075427457 0
0.0098065324 -0.11556453 0.009746816 0
-0.0098000355 -0.11266499 -0.0097404523 0
-0.0099999681 -0.11264239 -0.0075446907 0
-0.0099999793 -0.11255944 -0.0043994877 0
-0.0099999895 -0.11264548 -0.0015585757 0
-0.010000002 -0.11256811 0.0017458566 0
-0.010000011 -0.11227333 0.0044788877 0
-0.010000023 -0.11265276 0.0073526162 0
-0.0097455047 -0.11234368 0.0097470451 0
-0.0075834012 -0.11261868 -0.0099996142 0
-0.0074833184 -0.1125202 0.010000375 0
-0.0044027995 -0.11261623 -0.009999603 0
-0.0045653922 -0.11243292 0.010000385 0
-0.0016092462 -0.11259504 -0.0099995928 0
-0.001475552 -0.11241828 0.010000396 0
0.0013483235 -0.11257756 -0.0099995816 0
0.0013417802 -0.11254522 0.010000407 0
0.0046336451 -0.11261716 -0.0099995714 0
0.0045437501 -0.11239278 0.010000419 0
0.0073792972 -0.11266082 -0.0099995593 0
0.0075722653 -0.11239015 0.010000428 0
0.0097018089 -0.11251943 -0.0097926529 0
0.010000025 -0.11244778 -0.0076054209 0
0.010000014 -0.11229695 -0.0046359766 0
0.0099999998 -0.11237435 -0.0013529623 0
0.0099999895 -0.11235949 0.0014887347 0
0.0099999793 -0.11216079 0.0044632182 0
0.009999969 -0.11254951 0.0073786266 0
0.0097495941 -0.11259528 0.0096986955 0
-0.0096538793 -0.1095569 -0.0097898887 0
-0.009999969 -0.10933856 -0.0075597139 0
-0.0099999802 -0.10963771 -0.0043264874 0
-0.0099999914 -0.10967179 -0.0012923982 0
-0.010000001 -0.10953413 0.0014563848 0
-0.010000011 -0.10954349 0.0044343872 0
-0.010000024 -0.10934544 0.0073601329 0
-0.0097223595 -0.10943494 0.0097448202 0
-0.0075206361 -0.109428 -0.0099996263 0
-0.007437394 -0.10951991 0.010000365 0
-0.0044753929 -0.1092209 -0.0099996151 0
-0.0046742233 -0.10941204 0.010000375 0
-0.0015293317 -0.10951994 -0.009999604 0
-0.001477809 -0.10957661 0.010000386 0
0.0015642855 -0.10944796 -0.0099995956 0
0.0015256297 -0.10965397 0.010000398 0
0.0045538773 -0.1094656 -0.0099995825 0
0.0045103882 -0.10971876 0.01000041 0
0.007599859 -0.10960627 -0.0099995695 0
0.0076520541 -0.10968573 0.01000042 0
0.0097010229 -0.10981034 -0.0097366599 0
0.010000022 -0.10951429 -0.0073811081 0
0.01000001 -0.10955028 -0.0044832644 0
0.010000001 -0.10962453 -0.0015995181 0
0.0099999895 -0.10948803 0.0014954645 0
0.0099999793 -0.10950957 0.0045759194 0
0.0099999672 -0.10951348 0.0076563442 0
0.0097723743 -0.10926075 0.0097476058 0
-0.0097226761 -0.10640574 -0.0097906897 0
-0.0099999681 -0.10651869 -0.0074651609 0
-0.0099999784 -0.10652942 -0.0045566023 0
-0.0099999886 -0.10667579 -0.0015673201 0
-0.010000001 -0.10644651 0.0015022604 0
-0.010000012 -0.10632353 0.0044124317 0
-0.010000023 -0.10658148 0.0074519408 0
-0.0097271623 -0.10649543 0.0097670816 0
-0.0076033673 -0.10654598 -0.0099996384 0
-0.0074428422 -0.1064617 0.010000355 0
-0.0043884353 -0.10660183 -0.0099996254 0
-0.0045075133 -0.10649409 0.010000364 0
-0.0013993835 -0.10640677 -0.0099996142 0
-0.0014776427 -0.10669085 0.010000376 0
0.0014378293 -0.10658423 -0.009999604 0
0.00156695 -0.10663647 0.010000386 0
0.0045216535 -0.10642765 -0.0099995937 0
0.0046086698 -0.10638008 0.010000397 0
0.0074997111 -0.1065902 -0.0099995825 0
0.0075412206 -0.10639713 0.010000409 0
0.0097896969 -0.10648749 -0.009707883 0
0.010000022 -0.10659093 -0.0075826962 0
0.010000013 -0.10648589 -0.0045140167 0
0.010000002 -0.10643028 -0.0015663166 0
0.0099999914 -0.10632645 0.0014893351 0
0.0099999793 -0.10660206 0.0044408636 0
0.0099999681 -0.10652041 0.0075237579 0
0.0097241933 -0.10649993 0.0097470442 0
-0.0096945018 -0.10333919 -0.0097802794 0
-0.0099999662 -0.1035664 -0.0075930874 0
-0.0099999793 -0.10344913 -0.0044422713 0
-0.0099999895 -0.10342523 -0.0015100829 0
-0.0099999998 -0.10365649 0.0015633415 0
-0.010000012 -0.1036017 0.00461498 0
-0.010000022 -0.10350101 0.0073595564 0
-0.0097247027 -0.10335958 0.0097762365 0
-0.0073737754 -0.1034225 -0.0099996487 0
-0.007471439 -0.10337844 0.010000343 0
-0.0045064022 -0.10344541 -0.0099996384 0
-0.0047870912 -0.10352428 0.010000352 0
-0.001459625 -0.10347712 -0.0099996272 0
-0.0016073521 -0.1034665 0.010000364 0
0.0014732676 -0.10359177 -0.0099996142 0
0.0014718149 -0.10351171 0.010000375 0
0.0045524323 -0.10341573 -0.009999604 0
0.004506343 -0.10340177 0.010000386 0
0.0074220751 -0.10342249 -0.0099995937 0
0.0074402452 -0.10346338 0.010000396 0
0.0097115766 -0.10360856 -0.0097421706 0
0.010000022 -0.10339683 -0.0075188051 0
0.010000014 -0.10342561 -0.0045588836 0
0.0099999998 -0.1034724 -0.0014012589 0
0.0099999895 -0.10347974 0.0014641909 0
0.0099999793 -0.10339204 0.004421216 0
0.0099999681 -0.10352462 0.0076368633 0
0.0097161969 -0.10356648 0.0098312115 0
-0.0097313849 -0.10070334 -0.0098095629 0
-0.0099999681 -0.10056582 -0.0074264803 0
-0.0099999802 -0.10045405 -0.0043390598 0
-0.0099999905 -0.10039135 -0.0014472259 0
-0.010000001 -0.10051825 0.0014928835 0
-0.010000011 -0.10046781 0.0043876991 0
-0.010000023 -0.10027032 0.00760527 0
-0.0097856503 -0.10056225 0.0097800186 0
-0.0075561004 -0.10078043 -0.0099996589 0
-0.0075812163 -0.10054845 0.010000333 0
-0.004494837 -0.10030004 -0.0099996487 0
-0.0048725475 -0.10051341 0.010000343 0
-0.0014672967 -0.1005082 -0.0099996375 0
-0.0014180182 -0.10045157 0.010000353 0
0.0016342608 -0.10013109 -0.0099996272 0
0.0014747868 -0.10052978 0.010000365 0
0.0042922962 -0.1005046 -0.0099996151 0
0.0044213254 -0.10061108 0.010000377 0
0.007497272 -0.10063596 -0.009999604 0
0.0073988917 -0.10058311 0.010000387 0
0.0097622406 -0.10067621 -0.0097481422 0
0.010000023 -0.10054509 -0.0076176557 0
0.010000012 -0.10063373 -0.0045142374 0
0.010000001 -0.10045328 -0.0015117847 0
0.0099999905 -0.10034885 0.0014904172 0
0.0099999774 -0.10063372 0.0045337854 0
0.0099999681 -0.1005006 0.0075446535 0
0.0097024236 -0.1003908 0.0097686108 0
-0.009772893 -0.097669035 -0.009784881 0
-0.009999969 -0.097483501 -0.0073813037 0
-0.0099999793 -0.097334072 -0.0044839256 0
-0.0099999895 -0.097642377 -0.0013673675 0
-0.010000001 -0.097446851 0.0015412197 0
-0.010000013 -0.097506762 0.0045347782 0
-0.010000023 -0.097471349 0.0076463129 0
-0.0097778067 -0.097568743 0.0097098704 0
-0.0073692105 -0.097463705 -0.0099996692 0
-0.0075584659 -0.097409077 0.01000032 0
-0.0045985836 -0.097507082 -0.0099996589 0
-0.0044703246 -0.097385831 0.010000332 0
-0.0012243626 -0.097470604 -0.0099996477 0
-0.001578474 -0.097553432 0.010000343 0
0.0015965538 -0.097502977 -0.0099996366 0
0.0014299203 -0.09741044 0.010000354 0
0.0043816343 -0.097512782 -0.0099996272 0
0.0046212007 -0.097469762 0.010000365 0
0.0075472347 -0.097607426 -0.0099996151 0
0.0073744454 -0.09747003 0.010000377 0
0.0097879218 -0.097765841 -0.0097004324 0
0.010000022 -0.097336747 -0.0074598128 0
0.010000011 -0.097484156 -0.0042920588 0
0.0099999988 -0.097477987 -0.0012173754 0
0.0099999914 -0.097305246 0.0012851653 0
0.0099999793 -0.097579606 0.0044694906 0
0.0099999672 -0.097459435 0.0076166415 0
0.0097847255 -0.097429857 0.0097082844 0
-0.0096832924 -0.094470404 -0.0097483853 0
-0.0099999681 -0.094321989 -0.0074098157 0
-0.0099999793 -0.094396628 -0.0045999945 0
-0.0099999886 -0.094423257 -0.001546967 0
-0.0099999998 -0.094511166 0.0015734202 0
-0.010000011 -0.094584562 0.0044332216 0
-0.010000023 -0.094765186 0.0074515031 0
-0.009798252 -0.094531029 0.0096988436 0
-0.0075127482 -0.094382256 -0.0099996803 0
-0.0073388168 -0.094554946 0.010000311 0
-0.0043695965 -0.094661474 -0.0099996682 0
-0.0044635837 -0.094475299 0.01000032 0
-0.0014522448 -0.094481252 -0.0099996589 0
-0.0015741976 -0.094562717 0.010000332 0
0.001588242 -0.094475113 -0.0099996468 0
0.0014433573 -0.094301715 0.010000343 0
0.0045156474 -0.09447974 -0.0099996366 0
0.0044453084 -0.094590321 0.010000354 0
0.0075722011 -0.094494775 -0.0099996263 0
0.0075480957 -0.094489858 0.010000364 0
0.0097154882 -0.094384849 -0.0098028034 0
0.010000022 -0.094500482 -0.0074357032 0
0.010000011 -0.094413526 -0.0044787293 0
0.010000002 -0.094653003 -0.0016039495 0
0.0099999905 -0.094508238 0.0014011133 0
0.0099999793 -0.094442032 0.0044404608 0
0.0099999672 -0.094493344 0.0073513202 0
0.0097792242 -0.094428122 0.0097498437 0
-0.009774413 -0.091311127 -0.0098152356 0
-0.0099999672 -0.091506623 -0.0074964431 0
-0.0099999784 -0.091587558 -0.0045809303 0
-0.0099999905 -0.091513053 -0.0012815525 0
-0.010000001 -0.091415979 0.0015658211 0
-0.010000012 -0.091767594 0.0045424732 0
-0.010000022 -0.091406487 0.0075439238 0
-0.0097406469 -0.091448806 0.0097999359 0
-0.007646942 -0.091410711 -0.0099996924 0
-0.00766742 -0.091505103 0.010000299 0
-0.0044389362 -0.091382295 -0.0099996803 0
-0.0044288193 -0.091614343 0.010000311 0
-0.001376693 -0.091504768 -0.0099996682 0
-0.0015009742 -0.09146665 0.010000321 0
0.0015254632 -0.091380648 -0.0099996589 0
0.0015211767 -0.091668278 0.010000332 0
0.0045445519 -0.09145277 -0.0099996477 0
0.0045063947 -0.091477282 0.010000343 0
0.0075947009 -0.091427073 -0.0099996366 0
0.0074539385 -0.091635905 0.010000354 0
0.00975555 -0.091463126 -0.0097030364 0
0.010000023 -0.091545887 -0.007684995 0
0.010000011 -0.091444932 -0.00451465 0
0.0099999998 -0.091439858 -0.0013151452 0
0.0099999905 -0.091590486 0.0015182722 0
0.0099999784 -0.091457061 0.004581159 0
0.0099999681 -0.091575518 0.0075352797 0
0.0097342441 -0.091364771 0.0096899364 0
-0.0097617181 -0.088595577 -0.0098402184 0
-0.0099999672 -0.088417903 -0.0077399742 0
-0.0099999793 -0.088537313 -0.0044459468 0
-0.0099999905 -0.088580064 -0.0013078912 0
-0.010000003 -0.088540331 0.0016825878 0
-0.010000011 -0.088498816 0.0044364869 0
-0.010000023 -0.08838442 0.0074267457 0
-0.0097448416 -0.088338733 0.0097948341 0
-0.0075987149 -0.088613555 -0.0099997036 0
-0.0074809184 -0.088564828 0.010000288 0
-0.004514962 -0.088477112 -0.0099996915 0
-0.0045417389 -0.088425003 0.010000298 0
-0.001434163 -0.088267095 -0.0099996813 0
-0.001631413 -0.088540271 0.01000031 0
0.0015921224 -0.088360213 -0.0099996701 0
0.0015193385 -0.088393964 0.010000324 0
0.0046219644 -0.088386141 -0.009999658 0
0.004398304 -0.088493496 0.01000033 0
0.0074529918 -0.08851745 -0.0099996477 0
0.0077071227 -0.088418394 0.010000343 0
0.0097298361 -0.088600367 -0.009828276 0
0.010000022 -0.088623203 -0.0076077664 0
0.010000013 -0.088483028 -0.0047088643 0
0.010000001 -0.088507868 -0.0014544526 0
0.0099999895 -0.088597573 0.0015354509 0
0.0099999784 -0.088233896 0.0045416402 0
0.009999969 -0.088525936 0.0075478358 0
0.0097272154 -0.08881253 0.0097549828 0
-0.0097395033 -0.08534801 -0.0097786095 0
-0.009999969 -0.085672274 -0.0073054773 0
-0.0099999784 -0.085526891 -0.0044392967 0
-0.0099999905 -0.085535996 -0.0016189148 0
-0.010000002 -0.085553996 0.0016358044 0
-0.010000011 -0.085602462 0.0045434386 0
-0.010000021 -0.085457422 0.0074600875 0
-0.0097738644 -0.085699715 0.0097869169 0
-0.0075522074 -0.08533629 -0.0099997129 0
-0.0076295636 -0.08570689 0.010000278 0
-0.0043690763 -0.085395619 -0.0099997018 0
-0.004449246 -0.085543804 0.01000029 0
-0.0014182682 -0.085555285 -0.0099996915 0
-0.0014574626 -0.08540675 0.010000299 0
0.0016161305 -0.085467704 -0.0099996803 0
0.0016862613 -0.085464492 0.010000311 0
0.0043914849 -0.085539244 -0.009999671 0
0.0045517324 -0.085204512 0.01000032 0
0.0074900617 -0.085453026 -0.0099996598 0
0.0076217819 -0.085539527 0.010000333 0
0.0097560156 -0.085694633 -0.0096713761 0
0.010000021 -0.085483044 -0.007501632 0
0.010000011 -0.08551342 -0.0044742697 0
0.010000001 -0.085760877 -0.0016467024 0
0.0099999886 -0.085363552 0.0015435369 0
0.0099999784 -0.085405827 0.004339403 0
0.0099999681 -0.085511178 0.0073808641 0
0.0098158624 -0.085450068 0.0096499305 0
-0.0097359465 -0.082325928 -0.0097135734 0
-0.0099999681 -0.082415543 -0.0073977243 0
-0.0099999784 -0.082264423 -0.0045344629 0
-0.0099999905 -0.082308285 -0.0014081502 0
-0.010000003 -0.082435586 0.0018207065 0
-0.010000013 -0.08248882 0.0045322697 0
-0.010000023 -0.082566947 0.0075263232 0
-0.0097331395 -0.082474224 0.0097987996 0
-0.0076178457 -0.082340777 -0.009999725 0
-0.0075210952 -0.08250007 0.010000267 0
-0.0044666827 -0.082742766 -0.009999712 0
-0.0046219993 -0.082449406 0.010000276 0
-0.0014437671 -0.082535081 -0.0099997018 0
-0.0014955841 -0.082503147 0.010000288 0
0.0013911311 -0.082578376 -0.0099996906 0
0.0016046765 -0.082521021 0.0100003 0
0.0043400973 -0.082615048 -0.0099996803 0
0.0045767301 -0.082446218 0.010000309 0
0.0075851404 -0.082452111 -0.0099996701 0
0.0076083587 -0.082595922 0.010000321 0
0.0097539788 -0.082727879 -0.0097209914 0
0.010000022 -0.082416363 -0.0074346242 0
0.010000011 -0.082320385 -0.0042509749 0
0.010000001 -0.08251743 -0.0014344645 0
0.0099999895 -0.08248952 0.0015099999 0
0.0099999793 -0.082518205 0.0044316039 0
0.0099999681 -0.082537711 0.0072498671 0
0.0097396728 -0.082527481 0.0097858757 0
-0.0097791869 -0.079523921 -0.0097374106 0
-0.009999969 -0.079529934 -0.0074156239 0
-0.0099999793 -0.079454228 -0.0044571105 0
-0.0099999895 -0.079343237 -0.0015677379 0
-0.0099999998 -0.07949014 0.0014418666 0
-0.010000011 -0.079339698 0.0043913214 0
-0.010000023 -0.079373069 0.0075461855 0
-0.0097668739 -0.079544514 0.0097983722 0
-0.0073905108 -0.079474904 -0.0099997353 0
-0.0077112247 -0.079220861 0.010000254 0
-0.0044255066 -0.079525605 -0.0099997232 0
-0.0047661751 -0.079510376 0.010000265 0
-0.0014191185 -0.079407535 -0.0099997129 0
-0.001713356 -0.079620451 0.010000276 0
0.0013525945 -0.079454064 -0.0099997018 0
0.0013699036 -0.079429336 0.010000288 0
0.0043572187 -0.079708137 -0.0099996915 0
0.0044057039 -0.079631306 0.010000301 0
0.007509287 -0.079513848 -0.0099996803 0
0.0073448964 -0.079434171 0.010000311 0
0.0097906375 -0.079551995 -0.0096985158 0
0.010000022 -0.079387851 -0.0075266706 0
0.010000013 -0.079619534 -0.0042835153 0
0.010000002 -0.079597555 -0.0015503695 0
0.0099999895 -0.079554223 0.00146762 0
0.0099999802 -0.079672612 0.0044347635 0
0.0099999681 -0.079604082 0.0075324154 0
0.0097453808 -0.079697847 0.0097868098 0
-0.0097505292 -0.07644406 -0.0096863518 0
-0.009999969 -0.07640776 -0.0074499398 0
-0.0099999793 -0.076651044 -0.0043132156 0
-0.0099999905 -0.076485589 -0.0014056725 0
-0.010000001 -0.076461703 0.0014997494 0
-0.010000012 -0.076772951 0.0044040363 0
-0.010000023 -0.076620393 0.0075794738 0
-0.0097348411 -0.076655 0.0097387824 0
-0.0074161463 -0.07650844 -0.0099997446 0
-0.0073896465 -0.076607525 0.010000247 0
-0.0046732049 -0.076611429 -0.0099997362 0
-0.004761016 -0.076656938 0.010000256 0
-0.0015417127 -0.076395623 -0.009999725 0
-0.0014466088 -0.076364398 0.010000266 0
0.0015546307 -0.07650502 -0.0099997129 0
0.0014441194 -0.076549388 0.010000278 0
0.0044846982 -0.076488167 -0.0099997018 0
0.0043800059 -0.076598093 0.010000289 0
0.0076630982 -0.076448061 -0.0099996906 0
0.0075542349 -0.076393872 0.010000299 0
0.0097878268 -0.076598004 -0.0097103873 0
0.010000023 -0.076508097 -0.0076409378 0
0.01000001 -0.07635048 -0.0044873045 0
0.010000002 -0.076531991 -0.0016592134 0
0.0099999895 -0.076485895 0.0014595424 0
0.0099999812 -0.076597393 0.0044157519 0
0.0099999672 -0.076467536 0.007344998 0
0.0098279519 -0.076452397 0.0096911183 0
-0.0096895015 -0.073456481 -0.0097477902 0
-0.009999969 -0.073444612 -0.0073630037 0
-0.0099999784 -0.07344266 -0.0043633929 0
-0.0099999886 -0.073476031 -0.0017886619 0
-0.010000002 -0.073520005 0.0015746887 0
-0.010000012 -0.073565423 0.0046381857 0
-0.010000022 -0.07357844 0.0075602955 0
-0.0097581903 -0.073326878 0.0097332187 0
-0.0073682256 -0.073518068 -0.0099997558 0
-0.0074623297 -0.073700212 0.010000234 0
-0.0043791975 -0.073582888 -0.0099997446 0
-0.0044121807 -0.073642649 0.010000248 0
-0.0014882749 -0.073473871 -0.0099997343 0
-0.0016130609 -0.073553145 0.010000256 0
0.0013636257 -0.073471107 -0.0099997241 0
0.0013910349 -0.073403627 0.010000265 0
0.0043744775 -0.073510014 -0.0099997129 0
0.0044250893 -0.073440053 0.010000276 0
0.0075470372 -0.073508859 -0.0099997018 0
0.0074057709 -0.073607951 0.010000288 0
0.0096590854 -0.073282063 -0.0098647922 0
0.010000021 -0.073453322 -0.0075190701 0
0.010000011 -0.073635168 -0.0044738934 0
0.010000001 -0.073664017 -0.0013317742 0
0.0099999886 -0.073751882 0.0015733333 0
0.0099999793 -0.07361985 0.0045839171 0
0.0099999681 -0.073478892 0.0074826172 0
0.0097643081 -0.073567703 0.0097526032 0
-0.0096513554 -0.07036525 -0.0097515853 0
-0.0099999672 -0.070622742 -0.007575952 0
-0.0099999784 -0.070459172 -0.0045911106 0
-0.0099999914 -0.070721075 -0.0013466534 0
-0.010000001 -0.070604742 0.0014376534 0
-0.010000012 -0.070576474 0.0045649852 0
-0.010000024 -0.07044863 0.0076378244 0
-0.0097068166 -0.07019908 0.0097515052 0
-0.0076341219 -0.070394374 -0.0099997688 0
-0.0075863698 -0.070436195 0.010000223 0
-0.0044041323 -0.070682228 -0.0099997567 0
-0.0046184175 -0.07046248 0.010000234 0
-0.0016890694 -0.070514239 -0.0099997455 0
-0.0015198904 -0.070581414 0.010000245 0
0.0012786295 -0.070488565 -0.0099997353 0
0.0015867453 -0.070420772 0.010000256 0
0.0044188048 -0.070472486 -0.0099997241 0
0.0045144577 -0.070390917 0.010000267 0
0.0075199725 -0.070590593 -0.0099997129 0
0.0073568178 -0.070372283 0.010000277 0
0.0098064877 -0.070427358 -0.0097058583 0
0.010000022 -0.070582129 -0.0074702562 0
0.010000013 -0.070287466 -0.0043648719 0
0.010000002 -0.070569359 -0.0015531882 0
0.0099999905 -0.070383079 0.0015966272 0
0.0099999793 -0.070414871 0.0043550045 0
0.0099999681 -0.070431031 0.0076795053 0
0.0097317155 -0.070231572 0.0097131412 0
-0.0097825034 -0.067419022 -0.0097039416 0
-0.0099999681 -0.067348883 -0.0074527552 0
-0.0099999793 -0.067565113 -0.0047124089 0
-0.0099999905 -0.067589752 -0.0012964994 0
-0.0099999998 -0.067478023 0.0013411588 0
-0.010000012 -0.067427315 0.0044750846 0
-0.010000022 -0.067325115 0.0074898181 0
-0.0098043988 -0.067622468 0.0097375121 0
-0.0074939514 -0.067547671 -0.0099997781 0
-0.0074811098 -0.06745638 0.010000212 0
-0.0044150506 -0.067443438 -0.0099997679 0
-0.0045708576 -0.067423239 0.010000222 0
-0.0015594697 -0.067520194 -0.0099997576 0
-0.0016294211 -0.06753806 0.010000234 0
0.0014525454 -0.067498796 -0.0099997446 0
0.0015760016 -0.067502104 0.010000245 0
0.0044927895 -0.067371652 -0.0099997353 0
0.0044993847 -0.067614555 0.010000255 0
0.007469777 -0.067583442 -0.0099997232 0
0.007394922 -0.067437433 0.010000266 0
0.0098239155 -0.067488857 -0.0097115804 0
0.010000022 -0.067457683 -0.0075592832 0
0.010000012 -0.067459092 -0.0043849475 0
0.010000001 -0.0675641 -0.0014703444 0
0.0099999905 -0.067431681 0.0012607643 0
0.0099999793 -0.067456126 0.0044608675 0
0.0099999681 -0.067512065 0.0072689871 0
0.0096878549 -0.067525409 0.0098205265 0
-0.0096816616 -0.064401813 -0.0097669363 0
-0.0099999681 -0.064657398 -0.0074703651 0
-0.0099999784 -0.064487107 -0.0044116275 0
-0.0099999895 -0.064738087 -0.0015401796 0
-0.010000002 -0.064562701 0.0014303683 0
-0.010000011 -0.064628579 0.0044731204 0
-0.010000024 -0.064539984 0.0075500887 0
-0.0097259516 -0.064515531 0.0097591635 0
-0.0073928609 -0.064511672 -0.0099997893 0
-0.007469249 -0.064437494 0.0100002 0
-0.0043549309 -0.064865619 -0.0099997763 0
-0.0042672968 -0.064376347 0.010000212 0
-0.0014064207 -0.064386003 -0.0099997679 0
-0.0014864116 -0.064468056 0.010000222 0
0.0014292719 -0.064456142 -0.0099997558 0
0.0015113875 -0.064488783 0.010000235 0
0.004452351 -0.064676084 -0.0099997455 0
0.0044139065 -0.064324848 0.010000244 0
0.0074655307 -0.064632952 -0.0099997353 0
0.007289778 -0.064340293 0.010000254 0
0.0096881259 -0.064568751 -0.0098424852 0
0.010000022 -0.064470343 -0.0075393324 0
0.010000013 -0.064510688 -0.0045049447 0
0.010000001 -0.064548478 -0.0015026111 0
0.0099999886 -0.064503357 0.0014910491 0
0.0099999784 -0.064570479 0.0044710105 0
0.009999969 -0.064750209 0.0072916285 0
0.009646575 -0.064487018 0.0098473383 0
-0.009753379 -0.061586156 -0.0097615374 0
-0.009999969 -0.06148367 -0.0074046804 0
-0.0099999793 -0.061419751 -0.004457227 0
-0.0099999895 -0.061494559 -0.0016072813 0
-0.010000001 -0.061436348 0.0016092563 0
-0.010000012 -0.061339274 0.0043970817 0
-0.010000023 -0.061426196 0.007749571 0
-0.0097412905 -0.061579339 0.0097387722 0
-0.0073759831 -0.061359528 -0.0099997995 0
-0.0075849332 -0.06159655 0.010000191 0
-0.0045477166 -0.061406538 -0.0099997893 0
-0.0045563993 -0.061504025 0.010000201 0
-0.0015895898 -0.061571501 -0.0099997791 0
-0.0015215116 -0.061651345 0.010000213 0
0.0014693917 -0.061432347 -0.0099997679 0
0.0015548819 -0.061417613 0.010000223 0
0.0045018401 -0.061221857 -0.0099997576 0
0.0042740409 -0.061689474 0.010000235 0
0.0075969007 -0.06160672 -0.0099997446 0
0.0073883412 -0.061525561 0.010000245 0
0.0096772108 -0.061606903 -0.0097773373 0
0.010000022 -0.061284151 -0.0073765558 0
0.010000012 -0.061552707 -0.0046343268 0
0.010000001 -0.061355721 -0.0015788493 0
0.0099999895 -0.061563283 0.0015113312 0
0.0099999793 -0.061325703 0.0043472764 0
0.009999969 -0.061492655 0.0075407005 0
0.0097673237 -0.061777968 0.0097351773 0
-0.0096923728 -0.05820591 -0.0097900257 0
-0.009999969 -0.058510702 -0.0072834478 0
-0.0099999793 -0.058633097 -0.0044416864 0
-0.0099999895 -0.058586471 -0.0015529897 0
-0.010000001 -0.05842742 0.001552649 0
-0.010000012 -0.058530878 0.0046106321 0
-0.010000022 -0.058442801 0.0073527996 0
-0.0097223129 -0.058588907 0.0097700078 0
-0.0075129112 -0.058560126 -0.0099998098 0
-0.0074829427 -0.058534127 0.01000018 0
-0.0045629092 -0.058648165 -0.0099997986 0
-0.0046390095 -0.058523651 0.010000189 0
-0.0016525233 -0.058554657 -0.0099997893 0
-0.0014050975 -0.058523282 0.010000203 0
0.0014269147 -0.058286719 -0.0099997791 0
0.0013979685 -0.058479507 0.010000211 0
0.0044695484 -0.05842752 -0.0099997679 0
0.0044734641 -0.058403283 0.010000222 0
0.0075111832 -0.058316987 -0.0099997567 0
0.0075999289 -0.058462366 0.010000235 0
0.0097516803 -0.058508649 -0.0098663541 0
0.010000022 -0.058456317 -0.0075625181 0
0.010000012 -0.058472272 -0.0046501262 0
0.0099999988 -0.058623906 -0.0013568529 0
0.0099999895 -0.058465254 0.0015052501 0
0.0099999793 -0.058471125 0.004592312 0
0.0099999681 -0.058445618 0.0074493196 0
0.0097496705 -0.058472339 0.0098041361 0
-0.0098010469 -0.055511113 -0.009651646 0
-0.0099999681 -0.055344265 -0.0074755908 0
-0.0099999793 -0.055471502 -0.0044505592 0
-0.0099999895 -0.055537015 -0.0015907222 0
-0.010000001 -0.055480242 0.0014370801 0
-0.010000013 -0.05536817 0.0046095136 0
-0.010000023 -0.055273451 0.0076021836 0
-0.009762303 -0.055307526 0.0097669205 0
-0.0074513317 -0.055651039 -0.009999821 0
-0.0072946125 -0.05530211 0.01000017 0
-0.0043666451 -0.055436607 -0.0099998107 0
-0.0045034024 -0.055509008 0.01000018 0
-0.0015894454 -0.055525657 -0.0099997986 0
-0.0015343003 -0.055403497 0.01000019 0
0.0015425491 -0.055395897 -0.0099997893 0
0.001570368 -0.055455282 0.010000202 0
0.0045596459 -0.055454839 -0.0099997772 0
0.0043803495 -0.055685855 0.010000213 0
0.0074968319 -0.055626977 -0.0099997669 0
0.0075442209 -0.055571843 0.010000223 0
0.0097469054 -0.055239696 -0.0098032001 0
0.010000023 -0.055472042 -0.0073474534 0
0.01000001 -0.055428196 -0.0043853605 0
0.010000001 -0.055701334 -0.0015139446 0
0.0099999895 -0.055368591 0.0015148061 0
0.0099999784 -0.055478331 0.0046374127 0
0.0099999681 -0.055414122 0.0073961159 0
0.0097414646 -0.055503644 0.0097249346 0
-0.0097336546 -0.052160189 -0.0097694928 0
-0.009999969 -0.05255048 -0.0075079273 0
-0.0099999793 -0.052301083 -0.0045678094 0
-0.0099999895 -0.052359078 -0.0015957651 0
-0.0099999988 -0.052426703 0.0013986807 0
-0.010000012 -0.052467372 0.0045928522 0
-0.010000023 -0.05257431 0.0076190787 0
-0.0096862884 -0.052270118 0.0097568296 0
-0.0075994795 -0.052533772 -0.0099998331 0
-0.007489433 -0.052387927 0.010000158 0
-0.004440282 -0.052581429 -0.009999821 0
-0.0044372915 -0.052489176 0.01000017 0
-0.0015814739 -0.052723952 -0.0099998098 0
-0.001628218 -0.052329447 0.01000018 0
0.0015926709 -0.052301411 -0.0099998005 0
0.0014158936 -0.052475315 0.010000191 0
0.0043119024 -0.052370761 -0.0099997912 0
0.0044650268 -0.052391343 0.010000201 0
0.007448439 -0.052647728 -0.0099997781 0
0.0075863251 -0.052534822 0.010000213 0
0.009829714 -0.052224386 -0.0096893432 0
0.010000021 -0.052516431 -0.0074273315 0
0.010000012 -0.052360427 -0.0043854066 0
0.010000001 -0.052456785 -0.0015062822 0
0.0099999886 -0.052412361 0.0014186252 0
0.0099999793 -0.052585512 0.0045020478 0
0.0099999681 -0.052480735 0.0074827964 0
0.009781586 -0.052679237 0.0096879359 0
-0.0097456239 -0.049451083 -0.00987544 0
-0.0099999681 -0.049439158 -0.0074634566 0
-0.0099999774 -0.049476199 -0.0045395447 0
-0.0099999886 -0.049466677 -0.0015248735 0
-0.010000003 -0.049438428 0.001453836 0
-0.010000012 -0.049467918 0.0046083131 0
-0.010000021 -0.049424857 0.0075857071 0
-0.0097819632 -0.049429279 0.0097576026 0
-0.007381632 -0.049643736 -0.0099998433 0
-0.0074920338 -0.049621385 0.010000148 0
-0.0045474139 -0.049528476 -0.0099998321 0
-0.004531486 -0.049615253 0.010000157 0
-0.0015688123 -0.049314715 -0.0099998228 0
-0.0014803886 -0.049601167 0.010000171 0
0.001492844 -0.049367432 -0.0099998107 0
0.0014850587 -0.049203929 0.010000179 0
0.0045921966 -0.049397126 -0.0099997995 0
0.0042432747 -0.049596239 0.010000191 0
0.0075965468 -0.049577001 -0.0099997874 0
0.0078091994 -0.049446736 0.010000202 0
0.0097595472 -0.049454641 -0.0096958922 0
0.010000021 -0.049477033 -0.0075081848 0
0.010000013 -0.049779695 -0.0045478684 0
0.0099999998 -0.049364556 -0.0012774795 0
0.0099999905 -0.049574193 0.0015592579 0
0.0099999784 -0.049371094 0.0047665304 0
0.0099999681 -0.049429912 0.0075029777 0
0.0096717244 -0.049630806 0.0097385654 0
-0.0098177129 -0.046356153 -0.0096009159 0
-0.0099999681 -0.046522211 -0.0074029951 0
-0.0099999784 -0.046518292 -0.0045910128 0
-0.0099999905 -0.046584535 -0.0016501332 0
-0.010000002 -0.046518322 0.0014641044 0
-0.010000011 -0.046637699 0.0043991809 0
-0.010000022 -0.046571266 0.0075071291 0
-0.0097038159 -0.046385728 0.0098211914 0
-0.0075963796 -0.046477053 -0.0099998545 0
-0.0074238051 -0.046527404 0.010000137 0
-0.0043165819 -0.046574432 -0.0099998424 0
-0.0045750802 -0.046559129 0.010000147 0
-0.0015509949 -0.04648282 -0.0099998321 0
-0.0014279458 -0.046374954 0.010000157 0
0.0015062459 -0.046482861 -0.009999821 0
0.0015292079 -0.046586093 0.01000017 0
0.0043678856 -0.046444569 -0.0099998107 0
0.0044073695 -0.046616122 0.01000018 0
0.0075772791 -0.04634919 -0.0099997995 0
0.0074778325 -0.046342283 0.01000019 0
0.0097160731 -0.046547942 -0.0097667696 0
0.010000021 -0.046638958 -0.0075526852 0
0.01000001 -0.046476796 -0.0043309941 0
0.010000001 -0.046472888 -0.0014522029 0
0.0099999895 -0.046501644 0.0015501274 0
0.0099999793 -0.046555862 0.0046025845 0
0.0099999672 -0.046406154 0.0074434727 0
0.0097596422 -0.046294499 0.0097625395 0
-0.0097376285 -0.04370787 -0.0097916313 0
-0.0099999662 -0.043647002 -0.0075985342 0
-0.0099999793 -0.043605138 -0.0044595022 0
-0.0099999914 -0.04355862 -0.0013994717 0
-0.0099999998 -0.043427158 0.0014683796 0
-0.010000011 -0.043700237 0.0043906379 0
-0.010000022 -0.043409899 0.0074114786 0
-0.0097801462 -0.043534108 0.0097284568 0
-0.0074866903 -0.043394011 -0.0099998647 0
-0.0073965671 -0.043572817 0.010000126 0
-0.0044112201 -0.043472555 -0.0099998545 0
-0.0044855094 -0.043471564 0.010000138 0
-0.001741737 -0.043566756 -0.0099998442 0
-0.0014813839 -0.043685682 0.010000149 0
0.0014553539 -0.043550055 -0.0099998321 0
0.0015335615 -0.043586932 0.010000158 0
0.0045403386 -0.043626502 -0.00999982 0
0.0043832557 -0.043632209 0.01000017 0
0.0074919616 -0.043614388 -0.0099998098 0
0.0075279544 -0.043548912 0.01000018 0
0.0097838053 -0.043697547 -0.0098009389 0
0.010000022 -0.043624572 -0.0076018358 0
0.010000011 -0.043382138 -0.0044717151 0
0.010000002 -0.043311059 -0.0014190311 0
0.0099999895 -0.043266505 0.0017634843 0
0.0099999802 -0.043435868 0.0043154513 0
0.0099999672 -0.04354823 0.0074348808 0
0.0098431204 -0.043630015 0.0096196905 0
-0.0097219143 -0.040427923 -0.0097887535 0
-0.0099999681 -0.040518198 -0.0074615479 0
-0.0099999784 -0.04041367 -0.0046560122 0
-0.0099999905 -0.040636711 -0.0015716804 0
-0.010000001 -0.040577814 0.0015992097 0
-0.010000011 -0.040544413 0.0043371231 0
-0.010000022 -0.040547267 0.0074060634 0
-0.0096021816 -0.04081884 0.0098493956 0
-0.007560242 -0.04044953 -0.0099998768 0
-0.0073482045 -0.040570252 0.010000115 0
-0.0046798657 -0.040509362 -0.0099998666 0
-0.0046696132 -0.040374611 0.010000125 0
-0.0014598008 -0.04049816 -0.0099998554 0
-0.0013859583 -0.040318415 0.010000138 0
0.0014506571 -0.040599462 -0.0099998424 0
0.0013271871 -0.040495861 0.010000146 0
0.0045465138 -0.040604044 -0.0099998321 0
0.0046478165 -0.040570699 0.010000161 0
0.007537886 -0.040613052 -0.0099998219 0
0.0075352695 -0.040598955 0.010000169 0
0.0097857695 -0.04036114 -0.0096363556 0
0.010000022 -0.040473096 -0.0075867046 0
0.010000013 -0.04052062 -0.0047455393 0
0.010000001 -0.04049537 -0.001626931 0
0.0099999905 -0.040310178 0.0016627953 0
0.0099999802 -0.040603146 0.0044659753 0
0.0099999662 -0.040638901 0.0076068295 0
0.0098263724 -0.040286597 0.0097245378 0
-0.0097508905 -0.03739199 -0.009764581 0
-0.0099999681 -0.037441079 -0.0074977512 0
-0.0099999793 -0.037466213 -0.004413242 0
-0.0099999905 -0.037418012 -0.0015654258 0
-0.0099999998 -0.037564252 0.001377095 0
-0.010000012 -0.037547011 0.0045297807 0
-0.010000022 -0.037589762 0.0074762716 0
-0.0097912885 -0.037846062 0.0097090481 0
-0.0075769848 -0.037643641 -0.0099998862 0
-0.0074627115 -0.037368514 0.010000104 0
-0.0044138944 -0.037455533 -0.009999875 0
-0.0045265635 -0.037586246 0.010000114 0
-0.0016178199 -0.037517708 -0.0099998647 0
-0.0014077268 -0.037496679 0.010000127 0
0.0015529313 -0.037493084 -0.0099998536 0
0.0014281695 -0.03765294 0.010000137 0
0.0043553375 -0.037635762 -0.0099998433 0
0.0046509854 -0.037669644 0.010000148 0
0.0075910478 -0.037578456 -0.0099998312 0
0.0076316078 -0.037326168 0.010000158 0
0.0097241821 -0.037661318 -0.0097609032 0
0.010000021 -0.037456766 -0.0074814628 0
0.010000011 -0.037421826 -0.0042708102 0
0.0099999998 -0.037480455 -0.0015656 0
0.0099999905 -0.037759174 0.0012196618 0
0.0099999793 -0.037518986 0.0043686926 0
0.009999969 -0.037420589 0.0075259251 0
0.009754925 -0.037530497 0.0097258259 0
-0.0097596971 -0.034392983 -0.0097302999 0
-0.0099999672 -0.034569699 -0.0076822215 0
-0.0099999793 -0.034632463 -0.0043008928 0
-0.0099999905 -0.034433104 -0.0014340715 0
-0.010000001 -0.034346018 0.0014031547 0
-0.010000012 -0.034527428 0.0044505331 0
-0.010000023 -0.03452234 0.0074024051 0
-0.0096849985 -0.03425068 0.0098224301 0
-0.0075282357 -0.034337644 -0.0099998983 0
-0.0076114619 -0.03455016 0.010000092 0
-0.0047851047 -0.034484606 -0.009999888 0
-0.00449938 -0.034547135 0.010000104 0
-0.0014721574 -0.034378875 -0.009999875 0
-0.0015737063 -0.034592792 0.010000115 0
0.0014967289 -0.034344245 -0.0099998657 0
0.0015146277 -0.034560781 0.010000126 0
0.0045113675 -0.034627616 -0.0099998526 0
0.0045790775 -0.034358025 0.010000137 0
0.0074584964 -0.034551755 -0.0099998442 0
0.0075398916 -0.034433976 0.010000148 0
0.0096213408 -0.034426432 -0.0098508624 0
0.010000022 -0.034411497 -0.0074965395 0
0.010000013 -0.034615513 -0.0045729298 0
0.0099999988 -0.034578506 -0.0014102221 0
0.0099999886 -0.034668401 0.0015625209 0
0.0099999784 -0.034760073 0.0047969059 0
0.0099999681 -0.034587443 0.0075534005 0
0.0098247007 -0.034417912 0.0097277816 0
-0.0096860323 -0.031620629 -0.0097091729 0
-0.009999969 -0.031599957 -0.0075444486 0
-0.0099999802 -0.031512395 -0.0044675726 0
-0.0099999886 -0.031399831 -0.0016880661 0
-0.010000002 -0.031662904 0.0014441063 0
-0.010000011 -0.031536099 0.0043333373 0
-0.010000023 -0.031314883 0.0075293519 0
-0.0097799124 -0.03154733 0.0097088795 0
-0.0075184433 -0.03153374 -0.0099999076 0
-0.0075189779 -0.031262841 0.010000083 0
-0.0044899364 -0.031556129 -0.0099998964 0
-0.0045766351 -0.031567659 0.010000093 0
-0.0012722947 -0.031519666 -0.0099998852 0
-0.0016207293 -0.031549197 0.010000105 0
0.0016051512 -0.031399362 -0.0099998759 0
0.0013467827 -0.03119137 0.010000112 0
0.0045923544 -0.031573273 -0.0099998638 0
0.0046300418 -0.031471975 0.010000126 0
0.0074975356 -0.031337168 -0.0099998545 0
0.0074729598 -0.031638656 0.010000137 0
0.0097896922 -0.031422921 -0.0096271569 0
0.010000022 -0.031460963 -0.0073950319 0
0.010000011 -0.031500958 -0.0042992132 0
0.0099999998 -0.031420879 -0.0014281599 0
0.0099999886 -0.031291373 0.0015985454 0
0.0099999802 -0.031503085 0.0044575832 0
0.0099999662 -0.031496894 0.0076214862 0
0.0098386807 -0.031391934 0.009704086 0
-0.0097600464 -0.02822591 -0.0097243125 0
-0.0099999681 -0.02852544 -0.0074399086 0
-0.0099999774 -0.028376201 -0.0046497672 0
-0.0099999895 -0.028499646 -0.0014536823 0
-0.010000003 -0.028563153 0.0015840573 0
-0.010000013 -0.028630426 0.0045666946 0
-0.010000022 -0.028613979 0.0074336426 0
-0.009758153 -0.02847161 0.0097798556 0
-0.0076447763 -0.028440865 -0.0099999206 0
-0.0075142798 -0.028611461 0.010000071 0
-0.0046546813 -0.028523223 -0.0099999085 0
-0.0045421943 -0.028474271 0.010000082 0
-0.0014350471 -0.028675923 -0.0099998983 0
-0.0015743641 -0.028371634 0.010000092 0
0.0014472223 -0.028375795 -0.0099998871 0
0.0014209364 -0.028381055 0.010000103 0
0.0044273003 -0.028417094 -0.0099998768 0
0.0045551294 -0.028661367 0.010000115 0
0.0075319307 -0.028337501 -0.0099998657 0
0.0072781509 -0.028387602 0.010000125 0
0.0097071994 -0.028495055 -0.0097702881 0
0.010000023 -0.028547831 -0.0075136703 0
0.01000001 -0.028573781 -0.0043928381 0
0.0099999998 -0.028478798 -0.0016037428 0
0.0099999895 -0.028527927 0.001460501 0
0.0099999802 -0.02863227 0.0044267341 0
0.0099999681 -0.02853003 0.0074448478 0
0.0097023807 -0.028474992 0.0097581102 0
-0.0097980555 -0.02550175 -0.009737405 0
-0.009999969 -0.025545267 -0.0074434378 0
-0.0099999784 -0.02536696 -0.0045562661 0
-0.0099999905 -0.025637424 -0.0016000683 0
-0.010000001 -0.025572011 0.0016287649 0
-0.010000012 -0.025465693 0.0044203885 0
-0.010000022 -0.02547333 0.007392135 0
-0.0098038614 -0.025522534 0.0096477922 0
-0.0076538771 -0.025743084 -0.0099999299 0
-0.0075446097 -0.025429223 0.010000061 0
-0.0043038311 -0.025563212 -0.0099999188 0
-0.0044320473 -0.025493598 0.010000072 0
-0.0013509458 -0.02548036 -0.0099999076 0
-0.0014226674 -0.025452482 0.010000082 0
0.0014287218 -0.025466286 -0.0099998973 0
0.0015714887 -0.025643984 0.010000094 0
0.0046456777 -0.025491908 -0.0099998862 0
0.0044973549 -0.025407702 0.010000103 0
0.0073546031 -0.025602112 -0.009999875 0
0.0075853141 -0.025502125 0.010000115 0
0.0097484225 -0.025463127 -0.0097403852 0
0.010000023 -0.025505688 -0.0073545952 0
0.010000011 -0.025498884 -0.0044432543 0
0.010000002 -0.02554898 -0.0017622311 0
0.0099999895 -0.025353547 0.0016594768 0
0.0099999784 -0.025529601 0.0045211362 0
0.0099999681 -0.025351809 0.0075065927 0
0.0097284587 -0.025516821 0.0097329868 0
-0.0097664278 -0.022718513 -0.0097579956 0
-0.0099999681 -0.022632079 -0.0075502461 0
-0.0099999802 -0.022678355 -0.0042070281 0
-0.0099999886 -0.022404453 -0.001719325 0
-0.010000001 -0.022375226 0.0016439144 0
-0.010000013 -0.022531675 0.0046495781 0
-0.010000024 -0.022100216 0.0074550984 0
-0.0098293023 -0.022544997 0.0096433079 0
-0.0072998716 -0.022660026 -0.0099999392 0
-0.0072432011 -0.022571664 0.010000051 0
-0.0044918852 -0.022519598 -0.009999929 0
-0.0045330306 -0.022634324 0.01000006 0
-0.0013834954 -0.022399997 -0.0099999188 0
-0.001647576 -0.022447683 0.010000071 0
0.0014209012 -0.022531737 -0.0099999076 0
0.0011808038 -0.022550225 0.010000083 0
0.0046040928 -0.022305926 -0.0099998983 0
0.0044441405 -0.022659421 0.010000094 0
0.0075146146 -0.022384869 -0.0099998889 0
0.0075052241 -0.022636898 0.010000105 0
0.0097293947 -0.022599509 -0.0098007843 0
0.010000024 -0.022508651 -0.0076171248 0
0.010000012 -0.022451639 -0.0044284803 0
0.010000001 -0.02269615 -0.0015594375 0
0.0099999905 -0.022378949 0.0014714146 0
0.0099999784 -0.022327308 0.0045795194 0
0.0099999681 -0.022509756 0.007567619 0
0.009737228 -0.022528319 0.009694648 0
-0.0097636348 -0.019518698 -0.0096878028 0
-0.009999969 -0.019508025 -0.0073842518 0
-0.0099999793 -0.019532509 -0.0045105643 0
-0.0099999895 -0.019391706 -0.0016229878 0
-0.010000002 -0.01942162 0.0015260492 0
-0.010000012 -0.019442398 0.0045375512 0
-0.010000024 -0.019576626 0.007682723 0
-0.0097364858 -0.019544085 0.0097414488 0
-0.0075678658 -0.019511575 -0.0099999513 0
-0.0076371026 -0.019474141 0.010000038 0
-0.004500669 -0.019656116 -0.0099999402 0
-0.0043834932 -0.019460376 0.010000051 0
-0.001525922 -0.019366192 -0.0099999299 0
-0.0015362499 -0.019329019 0.010000059 0
0.0015356322 -0.019601054 -0.0099999188 0
0.0013568019 -0.019489685 0.010000071 0
0.0042981817 -0.019460499 -0.0099999094 0
0.0045949412 -0.019355837 0.010000082 0
0.0075907353 -0.019600475 -0.0099998964 0
0.007653154 -0.019592294 0.010000094 0
0.0097603556 -0.019473772 -0.0097291153 0
0.010000022 -0.019660318 -0.0075590573 0
0.01000001 -0.019396659 -0.0043573892 0
0.010000001 -0.019787852 -0.0014232794 0
0.0099999895 -0.019523531 0.0015082238 0
0.0099999793 -0.019575408 0.0044757342 0
0.0099999662 -0.01950936 0.0076691578 0
0.0096612014 -0.019334463 0.009804856 0
-0.0098088877 -0.016558828 -0.0096743349 0
-0.009999969 -0.01655273 -0.0075166626 0
-0.0099999793 -0.016594283 -0.004607995 0
-0.0099999905 -0.016460938 -0.0016301154 0
-0.010000002 -0.016463857 0.0015309488 0
-0.010000011 -0.016637655 0.0043149688 0
-0.010000022 -0.016676776 0.0075037866 0
-0.0097301053 -0.016148817 0.0097550731 0
-0.007476531 -0.016481541 -0.0099999625 0
-0.0076801698 -0.016560383 0.010000029 0
-0.0045138085 -0.01648009 -0.0099999513 0
-0.004477764 -0.016460139 0.01000004 0
-0.0015774312 -0.0167678 -0.0099999411 0
-0.0014540122 -0.01644766 0.010000049 0
0.0014172902 -0.016427873 -0.009999929 0
0.0014937504 -0.016370215 0.01000006 0
0.0046339664 -0.01638714 -0.0099999197 0
0.0042484752 -0.016631152 0.010000071 0
0.0074517601 -0.016618242 -0.0099999076 0
0.0076548229 -0.016545 0.010000083 0
0.0097339842 -0.016442172 -0.0097303009 0
0.010000023 -0.01615379 -0.0074713044 0
0.010000013 -0.016594024 -0.0045173266 0
0.0099999998 -0.016538033 -0.0012580649 0
0.0099999895 -0.016461879 0.001606856 0
0.0099999793 -0.01650667 0.0046054381 0
0.0099999681 -0.016643176 0.0075462121 0
0.0097631169 -0.016416965 0.0097839516 0
-0.0097104125 -0.013589477 -0.0098186312 0
-0.0099999681 -0.013444325 -0.0073517463 0
-0.0099999793 -0.013562432 -0.0045126001 0
-0.0099999905 -0.01351188 -0.0013709969 0
-0.010000001 -0.013380878 0.0014764989 0
-0.010000011 -0.013508672 0.0044920463 0
-0.010000022 -0.013590714 0.0075008711 0
-0.0097256992 -0.013615155 0.0097804293 0
-0.0075058383 -0.01372525 -0.0099999728 0
-0.0075194887 -0.013463956 0.010000017 0
-0.0044715903 -0.01352559 -0.0099999616 0
-0.0044520115 -0.013544944 0.010000028 0
-0.0016055616 -0.013258619 -0.0099999513 0
-0.0013056522 -0.013488145 0.010000039 0
0.0015698205 -0.013306901 -0.0099999411 0
0.001466039 -0.013589121 0.010000051 0
0.0045378678 -0.013601352 -0.0099999299 0
0.0043505961 -0.01341204 0.01000006 0
0.007478206 -0.013728076 -0.0099999197 0
0.0075090672 -0.013583547 0.010000071 0
0.009749678 -0.01353556 -0.0096908445 0
0.010000023 -0.013545513 -0.0075924816 0
0.01000001 -0.013550254 -0.0044052424 0
0.010000001 -0.013532032 -0.0016170021 0
0.0099999895 -0.013561947 0.0015583199 0
0.0099999774 -0.013417287 0.0046506003 0
0.0099999672 -0.013328402 0.0074253357 0
0.0097552594 -0.013291832 0.0096952515 0
-0.0097499611 -0.010731698 -0.00981915 0
-0.0099999681 -0.010440151 -0.0074709053 0
-0.0099999793 -0.010581106 -0.0043815537 0
-0.0099999886 -0.010486142 -0.0015642993 0
-0.010000002 -0.010459835 0.001426879 0
-0.010000013 -0.010388682 0.0046376763 0
-0.010000021 -0.010421407 0.0075519988 0
-0.009776311 -0.010318834 0.009749366 0
-0.0075161234 -0.010528152 -0.0099999839 0
-0.0074342666 -0.010436716 0.010000006 0
-0.0046511944 -0.010471283 -0.0099999737 0
-0.0043548769 -0.010433214 0.010000017 0
-0.0015290363 -0.010355703 -0.0099999644 0
-0.0013665111 -0.010297838 0.010000028 0
0.0017503728 -0.010333703 -0.0099999513 0
0.0015482435 -0.010442174 0.010000038 0
0.0044193119 -0.010311355 -0.009999942 0
0.0045706937 -0.010386238 0.010000049 0
0.0074094106 -0.010540446 -0.0099999299 0
0.0075616157 -0.010425319 0.01000006 0
0.0098620169 -0.010673163 -0.0096816886 0
0.010000022 -0.010545046 -0.0074587325 0
0.010000012 -0.010363435 -0.0045693698 0
0.010000003 -0.010703551 -0.0014870104 0
0.0099999905 -0.010536106 0.0013739956 0
0.0099999802 -0.010419244 0.004394074 0
0.0099999672 -0.010540471 0.0076345969 0
0.0097606443 -0.010646615 0.0097430479 0
-0.009742002 -0.0076692887 -0.0098014828 0
-0.0099999681 -0.0075798188 -0.0074595921 0
-0.0099999784 -0.0076568192 -0.0046652621 0
-0.0099999895 -0.007379848 -0.0015891811 0
-0.010000001 -0.0074501126 0.0012873588 0
-0.010000011 -0.0076848641 0.0044152751 0
-0.010000023 -0.0075046695 0.0076334868 0
-0.0097767022 -0.0076654623 0.0096861487 0
-0.0076989154 -0.0073741255 -0.0099999979 0
-0.0075335233 -0.0074260323 0.0099999942 0
-0.0045444267 -0.007415331 -0.0099999858 0
-0.0044749635 -0.007311576 0.010000005 0
-0.001469832 -0.0074033989 -0.0099999737 0
-0.0013976721 -0.0075112432 0.010000017 0
0.0014793661 -0.0074669993 -0.0099999625 0
0.0015188274 -0.0075720102 0.010000029 0
0.0044040936 -0.0074577215 -0.0099999532 0
0.0045893774 -0.0075184889 0.01000004 0
0.0075992565 -0.0074729202 -0.0099999402 0
0.0073868725 -0.0075779026 0.01000005 0
0.0097673247 -0.0073905964 -0.009781193 0
0.010000022 -0.0074616652 -0.007450887 0
0.010000011 -0.0075924331 -0.0043841088 0
0.010000001 -0.0077441595 -0.0013518777 0
0.0099999914 -0.007458705 0.0013823112 0
0.0099999784 -0.0075638094 0.0045760069 0
0.0099999681 -0.0075417259 0.0073568635 0
0.0097147943 -0.0075605651 0.0097350758 0
-0.0097307302 -0.0045774463 -0.0098248962 0
-0.0099999681 -0.0047487658 -0.0076613962 0
-0.0099999793 -0.0045696823 -0.0044219992 0
-0.0099999905 -0.004400149 -0.0016217334 0
-0.010000001 -0.0045974934 0.0014473142 0
-0.010000012 -0.004402847 0.0045066592 0
-0.010000023 -0.0043294868 0.007613285 0
-0.0096713165 -0.0044930945 0.0097902231 0
-0.0075630909 -0.0045524742 -0.010000005 0
-0.007533324 -0.0045491112 0.0099999849 0
