# .PCD v0.7 - Point Cloud Data file format
VERSION 0.7
FIELDS x y z rgb
SIZE 4 4 4 4
TYPE F F F F
COUNT 1 1 1 1
WIDTH 1169
HEIGHT 1
VIEWPOINT 0 0 0 1 0 0 0
POINTS 1169
DATA ascii
0.0049999929 -0.17534526 0.0013049394 0
0.0043740612 -0.17537908 0.0044704997 0
-0.0045137978 -0.1723195 -0.004554525 0
-0.0049999934 -0.17257243 -0.0013710619 0
-0.0050000027 -0.17254385 0.0014006296 0
-0.0045084781 -0.17240636 0.0044942177 0
-0.0015571089 -0.17239998 -0.0049993796 0
-0.0016237072 -0.17254348 0.0049668546 0
0.0014936235 -0.1723419 -0.0049993685 0
0.0014473628 -0.17248577 0.0049361554 0
0.0045603057 -0.17257218 -0.0044704182 0
0.0050000031 -0.17261998 -0.001538977 0
0.0049999934 -0.17255251 0.0013339635 0
0.0044236318 -0.17257139 0.0044114669 0
-0.0045760241 -0.16942273 -0.0043572285 0
-0.0049999924 -0.16935267 -0.0014510568 0
-0.0050000031 -0.16945735 0.0014361129 0
-0.0044769146 -0.16956808 0.004422755 0
-0.0013806571 -0.16935875 -0.0049993894 0
-0.0013231705 -0.16941646 0.0049638404 0
0.0014534502 -0.16939123 -0.0049993792 0
0.0014588403 -0.16950686 0.0049360297 0
0.0044914568 -0.16953993 -0.0045630382 0
0.0050000041 -0.16955888 -0.0016146019 0
0.004999991 -0.16955976 0.0017995175 0
0.0046353042 -0.16956352 0.0043805954 0
-0.0044682221 -0.16633841 -0.0044691162 0
-0.0049999915 -0.16650914 -0.0016367589 0
-0.0050000031 -0.16645527 0.0015295757 0
-0.0044697579 -0.16652849 0.0045537897 0
-0.00139228 -0.16657411 -0.0049993997 0
-0.0015727056 -0.16647165 0.0049663237 0
0.0014485341 -0.16655408 -0.0049993899 0
0.00164605 -0.16647521 0.004934147 0
0.004533337 -0.16666518 -0.0044175745 0
0.0050000036 -0.16638257 -0.0014987313 0
0.0049999924 -0.16633952 0.001430689 0
0.004454318 -0.16642527 0.0044631539 0
-0.0044785622 -0.16342156 -0.0045207818 0
-0.0049999924 -0.16352743 -0.0015189523 0
-0.0050000031 -0.16343062 0.001478292 0
-0.0045051444 -0.16329847 0.0044201096 0
-0.0014655465 -0.16359544 -0.0049994108 0
-0.0015795256 -0.16362602 0.0049663824 0
0.0014417673 -0.16369772 -0.0049993997 0
0.0012838945 -0.163487 0.0049377582 0
0.0044661155 -0.1634939 -0.004514744 0
0.0050000031 -0.16355343 -0.001184257 0
0.0049999915 -0.16363607 0.0016429821 0
0.0044506113 -0.16353734 0.0043788226 0
-0.0045516561 -0.16046014 -0.0045367475 0
-0.0049999929 -0.16032025 -0.001476818 0
-0.0050000041 -0.16010559 0.0016875665 0
-0.0045965728 -0.16060197 0.0045364569 0
-0.0015273226 -0.16065444 -0.004999422 0
-0.0015051824 -0.16051324 0.0049656262 0
0.0014799181 -0.16051719 -0.0049994108 0
0.001483226 -0.16064726 0.0049357545 0
0.0043940782 -0.16036478 -0.0045424388 0
0.0050000031 -0.16035485 -0.0015443813 0
0.0049999915 -0.16034764 0.0016662416 0
0.0044954191 -0.16064307 0.0045055961 0
-0.0047532306 -0.15748307 -0.0043238951 0
-0.0049999924 -0.15744765 -0.0014424025 0
-0.0050000036 -0.15748958 0.0015920044 0
-0.0044294475 -0.15755646 0.0045893365 0
-0.0015674738 -0.15767653 -0.0049994327 0
-0.0016399237 -0.15763193 0.004966964 0
0.0015256811 -0.15757658 -0.0049994215 0
0.0014092595 -0.15734637 0.0049364828 0
0.0046030749 -0.1573807 -0.0044451109 0
0.0050000045 -0.15748318 -0.0016355127 0
0.0049999915 -0.15735631 0.0015234901 0
0.0045853672 -0.15738243 0.0044388943 0
-0.0045611346 -0.1544874 -0.0044927257 0
-0.0049999924 -0.15459652 -0.0014605621 0
-0.0050000031 -0.15461144 0.0015746182 0
-0.0046429955 -0.15453818 0.0044486783 0
-0.0016245794 -0.15455748 -0.0049994439 0
-0.0017662842 -0.15457743 0.0049682148 0
0.0016046653 -0.15455142 -0.0049994332 0
0.0015838306 -0.15441361 0.0049347258 0
0.0045077284 -0.15447947 -0.0044425912 0
0.0050000031 -0.15464747 -0.0015533355 0
0.0049999915 -0.15446638 0.0016206009 0
0.0044301613 -0.15454349 0.0044423211 0
-0.004461525 -0.15161365 -0.0045773247 0
-0.0049999929 -0.15143143 -0.0014595985 0
-0.0050000036 -0.15152156 0.0016101249 0
-0.0044331336 -0.15154627 0.00464756 0
-0.0014642311 -0.15164147 -0.0049994537 0
-0.0013881823 -0.15166377 0.0049644257 0
0.0015238415 -0.15158527 -0.004999443 0
0.0015362246 -0.15169182 0.0049351924 0
0.0044940948 -0.15144922 -0.004527343 0
0.0050000031 -0.15159215 -0.001562927 0
0.0049999934 -0.15151556 0.0013410746 0
0.0045972518 -0.15146597 0.0043463446 0
-0.0043947482 -0.14861667 -0.004632079 0
-0.0049999915 -0.14850539 -0.0016967012 0
-0.0050000031 -0.14853817 0.0015745373 0
-0.0043132291 -0.14851175 0.0046218531 0
-0.0015129237 -0.14853221 -0.0049994653 0
-0.0015587592 -0.14876087 0.0049661202 0
0.0013996542 -0.14836305 -0.0049994565 0
0.0014573041 -0.14841816 0.0049359687 0
0.0045310538 -0.14856802 -0.004473222 0
0.0050000036 -0.14847629 -0.0015995189 0
0.0049999924 -0.14856246 0.0013812846 0
0.0045237402 -0.14855343 0.0044168467 0
-0.0043184301 -0.14563125 -0.0046035135 0
-0.004999992 -0.14558963 -0.0014966832 0
-0.0050000036 -0.14539395 0.0014918514 0
-0.0045910347 -0.14555797 0.004477486 0
-0.001627042 -0.14533217 -0.0049994774 0
-0.0012817407 -0.14535196 0.0049633384 0
0.0014972235 -0.1453476 -0.0049994658 0
0.0015850844 -0.14552806 0.0049346806 0
0.0045707948 -0.14552553 -0.0044120117 0
0.0050000036 -0.1454573 -0.0015088515 0
0.004999992 -0.14532562 0.0016780852 0
0.0044892654 -0.14553767 0.0044704648 0
-0.0044569336 -0.1423329 -0.0044709407 0
-0.0049999924 -0.14246787 -0.0015828019 0
-0.0050000041 -0.1424433 0.0015455915 0
-0.0043642614 -0.14241993 0.0046393038 0
-0.0015361015 -0.14248861 -0.0049994877 0
-0.0013257734 -0.14246279 0.0049637677 0
0.0016023676 -0.14249153 -0.004999476 0
0.0015534237 -0.14255908 0.0049349866 0
0.0044266651 -0.14245871 -0.0045326278 0
0.0050000036 -0.14270423 -0.0013841831 0
0.0049999924 -0.14247598 0.0012783817 0
0.0045629726 -0.14287496 0.0045098853 0
-0.0044108904 -0.13938685 -0.0045134481 0
-0.004999992 -0.139513 -0.0015904473 0
-0.0050000031 -0.13947742 0.0015347339 0
-0.0045441901 -0.13957947 0.0045098891 0
-0.0016119658 -0.13960712 -0.0049994984 0
-0.0014441808 -0.13962437 0.0049649421 0
0.0013763086 -0.13951214 -0.0049994877 0
0.001559112 -0.13966878 0.00493492 0
0.0045020017 -0.13944733 -0.0044765221 0
0.0050000045 -0.13952719 -0.0017687832 0
0.0049999924 -0.13932465 0.0014000938 0
0.0044724224 -0.13956282 0.00434952 0
-0.0046071233 -0.1365401 -0.0044156513 0
-0.0049999938 -0.13641044 -0.0013250882 0
-0.0050000041 -0.13647437 0.0016158235 0
-0.0045943395 -0.13636304 0.0044879941 0
-0.0014845429 -0.13646422 -0.00499951 0
-0.0017996576 -0.13646388 0.0049684844 0
0.0016982978 -0.13671485 -0.0049994965 0
0.0014281259 -0.13645847 0.0049362178 0
0.0044889487 -0.13660327 -0.0045458269 0
0.0050000022 -0.13660611 -0.001328657 0
0.0049999929 -0.13650873 0.0014174914 0
0.0044801598 -0.13658519 0.0044620982 0
-0.0046009435 -0.13349 -0.0044438015 0
-0.0049999924 -0.13337268 -0.0014021491 0
-0.0050000027 -0.1335341 0.0014359275 0
-0.0044354894 -0.13356097 0.004559766 0
-0.0015095568 -0.13361406 -0.0049995193 0
-0.001337534 -0.1335177 0.0049638534 0
0.0015246598 -0.13368392 -0.0049995086 0
0.001689575 -0.13375817 0.0049335947 0
0.0045321258 -0.13339055 -0.0044528656 0
0.0050000045 -0.13355936 -0.0017524152 0
0.0049999929 -0.13371611 0.0014295941 0
0.0045632939 -0.13358055 0.0043527512 0
-0.0043865535 -0.13061427 -0.0045771091 0
-0.004999992 -0.13054997 -0.001598229 0
-0.0050000036 -0.13057441 0.0016171326 0
-0.0044293893 -0.13051504 0.0046266676 0
-0.0013409877 -0.13051145 -0.0049995296 0
-0.001509968 -0.13054267 0.004965567 0
0.0014909924 -0.130537 -0.0049995198 0
0.0012962515 -0.13057826 0.0049375151 0
0.0045598601 -0.13059326 -0.0045795594 0
0.0050000031 -0.13051695 -0.0014394167 0
0.0049999915 -0.13034998 0.0016010538 0
0.0044692885 -0.13037263 0.0044334456 0
-0.004500791 -0.12754242 -0.004476028 0
-0.0049999924 -0.12760414 -0.0014606164 0
-0.0050000041 -0.12732136 0.0016537571 0
-0.0046101059 -0.12736462 0.0044570309 0
-0.0016232356 -0.12722205 -0.0049995435 0
-0.0016075136 -0.12737122 0.0049665309 0
0.0014676062 -0.12725355 -0.0049995324 0
0.0014055562 -0.12749425 0.0049364115 0
0.0046141394 -0.12738594 -0.0044696615 0
0.0050000027 -0.12768708 -0.0013111546 0
0.0049999929 -0.12757082 0.001276758 0
0.0046008779 -0.12752083 0.0044323751 0
-0.004481547 -0.12456709 -0.0045256144 0
-0.0049999924 -0.12458916 -0.0014561436 0
-0.0050000022 -0.12456945 0.0013449 0
-0.0045364662 -0.12462317 0.0045277621 0
-0.0015774448 -0.12479349 -0.0049995524 0
-0.0016147022 -0.12450241 0.004966591 0
0.0013143285 -0.12425642 -0.0049995435 0
0.0015170426 -0.12462243 0.0049352851 0
0.0045418628 -0.1244524 -0.0044241436 0
0.0050000027 -0.12445397 -0.001478135 0
0.0049999924 -0.12465351 0.0013815427 0
0.0045083449 -0.12455411 0.0043011103 0
-0.0090838047 -0.12000002 -0.0070755314 0
-0.0095261373 -0.12000001 -0.0037649248 0
-0.0093095973 -0.12 -0.0015832449 0
-0.0093868198 -0.11999999 0.0018907614 0
-0.0093496516 -0.11999998 0.0043390193 0
-0.009252904 -0.11999997 0.008136645 0
-0.0094746165 -0.11999996 0.0092722541 0
-0.0077565797 -0.12000004 -0.0075268769 0
-0.0075421883 -0.12000001 -0.0046760058 0
-0.0071177031 -0.12 -0.0010236747 0
-0.0075148516 -0.11999996 0.0015816796 0
-0.0072781364 -0.11999997 0.0045311353 0
-0.0074773328 -0.11999997 0.007600307 0
-0.0077107619 -0.11999997 0.0092229079 0
-0.0043552197 -0.12000005 -0.0095702522 0
-0.0045670471 -0.12000004 -0.0074020848 0
-0.0046014381 -0.12141056 -0.004463336 0
-0.0050328244 -0.12123769 -0.0017558221 0
-0.0050086086 -0.12150769 0.0015251616 0
-0.0045548915 -0.12124234 0.0044050426 0
-0.0046959547 -0.11999996 0.0077793766 0
-0.0044427295 -0.11999996 0.0095407553 0
-0.0011225336 -0.12000003 -0.0095748268 0
-0.0017569705 -0.12 -0.0079385312 0
-0.0013635134 -0.12138564 -0.0050444975 0
-0.0015600042 -0.12145636 0.005011112 0
-0.0016422964 -0.11999994 0.0079210168 0
-0.0014339888 -0.11999997 0.0093969619 0
0.0022947891 -0.12000003 -0.0094491011 0
0.0016917813 -0.11999999 -0.0074931378 0
0.0014648443 -0.1215535 -0.0050170426 0
0.0014412863 -0.1215814 0.0049844938 0
0.0014491912 -0.11999997 0.0073339562 0
0.0018241314 -0.11999996 0.0095489472 0
0.0042071631 -0.12000005 -0.0095194252 0
0.0044351104 -0.12000003 -0.0073388433 0
0.0045915847 -0.12147018 -0.0045723217 0
0.005107847 -0.12125292 -0.0015942479 0
0.0050137779 -0.1214256 0.0014073115 0
0.0044924188 -0.12123679 0.0045506982 0
0.0039983001 -0.11999996 0.0073926938 0
0.0051070447 -0.11999996 0.0095781386 0
0.0080824681 -0.12000003 -0.0097438702 0
0.0076774228 -0.12000004 -0.0075315628 0
0.0074245911 -0.11999997 -0.0046410807 0
0.0077269059 -0.12000002 -0.0010995207 0
0.0072563314 -0.11999999 0.0016027527 0
0.0075907768 -0.12 0.0044639627 0
0.007735848 -0.11999996 0.0073580756 0
0.0082528098 -0.11999997 0.00923659 0
0.0099276425 -0.12000003 -0.0099594342 0
0.0093701519 -0.12000003 -0.0078068078 0
0.0093646981 -0.12000001 -0.003717754 0
0.0093811573 -0.12000002 -0.0012590237 0
0.0092289103 -0.11999999 0.0017477419 0
0.0093590403 -0.11999998 0.004437875 0
0.0095409025 -0.11999997 0.0075261113 0
0.0091805235 -0.11999996 0.0095616262 0
-0.0095849503 -0.11873712 -0.0097276643 0
-0.0099261766 -0.11878634 -0.0075272028 0
-0.0098725576 -0.1190407 -0.0045093824 0
-0.0099449344 -0.11868345 -0.0015324038 0
-0.0099015301 -0.11873778 0.0014279478 0
-0.0099053644 -0.11874978 0.004582108 0
-0.0098902825 -0.1189636 0.0075998302 0
-0.009722678 -0.11868072 0.0097206021 0
-0.0073464522 -0.11884715 -0.0098882522 0
-0.0075150584 -0.11999996 -0.0074144267 0
-0.0073700789 -0.11999995 -0.004504954 0
-0.0074693635 -0.11999994 -0.0014971863 0
-0.0072107925 -0.11999992 0.0014998231 0
-0.0074926526 -0.11999991 0.004666714 0
-0.007649716 -0.1199999 0.0077598179 0
-0.0074318522 -0.11866581 0.0099242833 0
-0.0045829262 -0.11883496 -0.0098965317 0
-0.004665995 -0.11999996 -0.0078474795 0
-0.0046749315 -0.11999997 -0.004984342 0
-0.0054976689 -0.12 -0.0013196585 0
-0.005673538 -0.11999999 0.0015091156 0
-0.0051682079 -0.11999997 0.0047048354 0
-0.0044690501 -0.11999991 0.0073666866 0
-0.0043132752 -0.11851985 0.0099543864 0
-0.0014511069 -0.11877324 -0.0098743318 0
-0.0014326331 -0.11999998 -0.0072952937 0
-0.0013115141 -0.12000002 -0.0055348747 0
-0.0012600576 -0.11999997 0.0055418005 0
-0.0015016918 -0.11999991 0.0072655687 0
-0.0015208469 -0.11875685 0.0098879915 0
0.0015860053 -0.11877627 -0.0098860292 0
0.0013080148 -0.11999996 -0.0074378215 0
0.001167035 -0.12000002 -0.005416268 0
0.0014682467 -0.11999997 0.0054526222 0
0.001399343 -0.1199999 0.0075995284 0
0.0014153098 -0.11871375 0.0099108191 0
0.0045690467 -0.11858635 -0.0099213654 0
0.0047087846 -0.11999997 -0.0075271032 0
0.0049282257 -0.11999997 -0.0050568189 0
0.0054555051 -0.12 -0.0010378016 0
0.0055026235 -0.11999995 0.0013945705 0
0.0048375712 -0.11999995 0.0049520968 0
0.004329362 -0.11999991 0.0077164588 0
0.0046144398 -0.11899869 0.009868891 0
0.0073569468 -0.11886115 -0.0099094529 0
0.0075491229 -0.11999995 -0.0071018832 0
0.0077451235 -0.11999997 -0.0044387882 0
0.0074556088 -0.11999996 -0.0012954854 0
0.0074545033 -0.11999995 0.0013682169 0
0.0077162678 -0.11999991 0.0045035882 0
0.0073731919 -0.1199999 0.00774096 0
0.007518813 -0.11902041 0.0098682987 0
0.0096442383 -0.11881651 -0.0097307265 0
0.0099248942 -0.11886284 -0.0074733505 0
0.0099539505 -0.11881547 -0.0044308081 0
0.0098944101 -0.11891305 -0.0015265541 0
0.0099153379 -0.11880874 0.0015211584 0
0.0099027772 -0.11877909 0.0046607009 0
0.0099276463 -0.11880349 0.0075188577 0
0.009741568 -0.11831933 0.0096304789 0
-0.009768568 -0.11566178 -0.0097587556 0
-0.0099999672 -0.1155663 -0.0076199709 0
-0.0099999793 -0.11534929 -0.004484253 0
-0.0099999923 -0.11508062 -0.001407139 0
-0.010000001 -0.11527865 0.0014742723 0
-0.010000011 -0.11563803 0.0044196332 0
-0.010000023 -0.11553531 0.0075493869 0
-0.0097423205 -0.11560794 0.0098219886 0
-0.007474639 -0.11555231 -0.009999604 0
-0.0072927508 -0.11555018 0.010000389 0
-0.0045108548 -0.11558019 -0.0099995937 0
-0.0044338703 -0.11534461 0.010000397 0
-0.0017358683 -0.11562052 -0.0099995835 0
-0.0014480008 -0.11548413 0.010000408 0
0.001520797 -0.1155948 -0.0099995714 0
0.0014326279 -0.11534575 0.010000419 0
0.004485447 -0.11538425 -0.0099995621 0
0.0044037793 -0.11549135 0.010000429 0
0.0075444304 -0.11541323 -0.0099995509 0
0.0075361487 -0.11568096 0.010000442 0
0.009762777 -0.11548269 -0.0096922629 0
0.010000023 -0.11548266 -0.0073978533 0
0.010000012 -0.11542732 -0.0044804197 0
0.010000002 -0.1156259 -0.0013179515 0
0.0099999895 -0.11551324 0.0016385433 0
0.0099999793 -0.11542766 0.0044699977 0
0.0099999681 -0.11553926 0.0074842675 0
0.009780488 -0.11566786 0.0097655104 0
-0.0097808791 -0.11264877 -0.0098023638 0
-0.0099999681 -0.11256679 -0.0075514633 0
-0.0099999802 -0.11250918 -0.0044685327 0
-0.0099999905 -0.11259501 -0.0015402156 0
-0.010000003 -0.11252059 0.0017267013 0
-0.010000012 -0.11220326 0.0045466651 0
-0.010000021 -0.11256806 0.0072844257 0
-0.0097420728 -0.11241181 0.0097866813 0
-0.0076352335 -0.11267969 -0.0099996161 0
-0.0074085956 -0.11256677 0.010000377 0
-0.0043391963 -0.11259662 -0.009999604 0
-0.0045210547 -0.1124256 0.010000386 0
-0.0016025074 -0.11257349 -0.0099995928 0
-0.0015385516 -0.11241182 0.010000397 0
0.0015624736 -0.11267443 -0.0099995816 0
0.0013378345 -0.11252638 0.010000407 0
0.0045559211 -0.11263318 -0.0099995714 0
0.0045923996 -0.11242063 0.01000042 0
0.0074211024 -0.11253193 -0.0099995602 0
0.0076404563 -0.11240327 0.010000429 0
0.0097308196 -0.11249312 -0.0098058246 0
0.010000024 -0.1123407 -0.0075834687 0
0.010000012 -0.11234373 -0.004522379 0
0.010000001 -0.11241269 -0.0013305801 0
0.0099999895 -0.11225864 0.0014163401 0
0.0099999784 -0.11224736 0.004545887 0
0.009999969 -0.11247605 0.0074693891 0
0.0097035216 -0.11236867 0.0097814389 0
-0.0096450234 -0.1094352 -0.0098155802 0
-0.00999997 -0.10933372 -0.0075610783 0
-0.0099999802 -0.10960071 -0.0043909978 0
-0.0099999914 -0.10962952 -0.0013081157 0
-0.010000001 -0.10960849 0.001460548 0
-0.010000011 -0.10949577 0.0043464783 0
-0.010000023 -0.10944898 0.0074229962 0
-0.0097300904 -0.10936261 0.0097314194 0
-0.0076441816 -0.10933012 -0.0099996272 0
-0.0074449922 -0.1093675 0.010000365 0
-0.0045424197 -0.10927423 -0.009999617 0
-0.0046626246 -0.1094153 0.010000375 0
-0.0017086867 -0.10967427 -0.0099996049 0
-0.0014138207 -0.10958067 0.010000387 0
0.0015790355 -0.10939727 -0.0099995956 0
0.0014861661 -0.10966133 0.010000398 0
0.004602673 -0.10952568 -0.0099995816 0
0.0044987113 -0.10968608 0.010000409 0
0.0075561469 -0.10956503 -0.0099995714 0
0.0077935131 -0.10974194 0.010000421 0
0.0096996678 -0.10979309 -0.0097558079 0
0.010000024 -0.10936722 -0.0073896218 0
0.010000011 -0.10959311 -0.0044025006 0
0.010000003 -0.10954281 -0.001545455 0
0.0099999914 -0.1095431 0.0013611719 0
0.0099999784 -0.10954657 0.0045865676 0
0.0099999681 -0.10931153 0.0074142106 0
0.0097908909 -0.10930263 0.0097460477 0
-0.009728401 -0.10649686 -0.0097574852 0
-0.009999969 -0.10629587 -0.007471947 0
-0.0099999784 -0.10643218 -0.0045351209 0
-0.0099999886 -0.10672352 -0.0014992412 0
-0.010000002 -0.10656054 0.0015435016 0
-0.010000011 -0.10632435 0.0044988091 0
-0.010000023 -0.10648302 0.0073604435 0
-0.0097287623 -0.10654221 0.0098034833 0
-0.0076449011 -0.10649901 -0.0099996375 0
-0.0074416595 -0.10643896 0.010000356 0
-0.004340284 -0.10659103 -0.0099996254 0
-0.0044732471 -0.10647069 0.010000366 0
-0.0013304405 -0.10665135 -0.0099996142 0
-0.0015587581 -0.10665702 0.010000376 0
0.0015205356 -0.10669906 -0.009999604 0
0.0016365669 -0.10653472 0.010000387 0
0.0045814794 -0.1065385 -0.0099995937 0
0.0046407366 -0.10635791 0.010000397 0
0.0073851547 -0.1063277 -0.0099995844 0
0.0075128647 -0.10640265 0.01000041 0
0.0098017156 -0.10667134 -0.009617975 0
0.010000022 -0.10670403 -0.0074225394 0
0.010000013 -0.10651655 -0.0045945481 0
0.010000003 -0.10644078 -0.0014945482 0
0.0099999905 -0.10638208 0.0013831245 0
0.0099999784 -0.10659136 0.0044358172 0
0.0099999681 -0.10649408 0.0074092858 0
0.0097882403 -0.10639444 0.009691814 0
-0.0096683679 -0.10330176 -0.0098191388 0
-0.0099999681 -0.1035525 -0.0074526784 0
-0.0099999802 -0.10344636 -0.0044038305 0
-0.0099999905 -0.10356545 -0.0014867588 0
-0.010000001 -0.10359094 0.0015707867 0
-0.010000012 -0.10359552 0.0046243928 0
-0.010000022 -0.10361499 0.0074271671 0
-0.0097304787 -0.1033316 0.009752986 0
-0.0074240263 -0.10345935 -0.0099996496 0
-0.0075142598 -0.10334615 0.010000343 0
-0.004525831 -0.10367125 -0.0099996375 0
-0.0047572972 -0.10351846 0.010000353 0
-0.0015751094 -0.10359868 -0.0099996254 0
-0.0015807002 -0.10353937 0.010000364 0
0.0015888165 -0.10349989 -0.0099996161 0
0.001498524 -0.10350199 0.010000375 0
0.0044717891 -0.10342687 -0.0099996049 0
0.0044981362 -0.10337863 0.010000385 0
0.0074499049 -0.10340673 -0.0099995937 0
0.0074612903 -0.10345796 0.010000397 0
0.0097340085 -0.10365166 -0.0097066564 0
0.010000023 -0.10338166 -0.0074798036 0
0.010000014 -0.10334998 -0.0048303762 0
0.010000001 -0.10344768 -0.0014985837 0
0.0099999923 -0.10352385 0.0013288842 0
0.0099999793 -0.10341135 0.0043969317 0
0.009999969 -0.1036609 0.0075492426 0
0.0097159119 -0.10365348 0.0097667268 0
-0.0097242547 -0.10061817 -0.0098055415 0
-0.009999969 -0.10049984 -0.0074533434 0
-0.0099999802 -0.1004398 -0.0043061832 0
-0.0099999905 -0.10041761 -0.0014572942 0
-0.010000001 -0.10057281 0.0015012026 0
-0.010000012 -0.10045268 0.0043682992 0
-0.010000023 -0.10032205 0.007437719 0
-0.0098286448 -0.1004465 0.0097027132 0
-0.007452636 -0.10065327 -0.0099996598 0
-0.0076440684 -0.10049044 0.010000332 0
-0.0043097418 -0.10049596 -0.0099996477 0
-0.0047243251 -0.10049547 0.010000344 0
-0.0014727373 -0.10067032 -0.0099996375 0
-0.0013867444 -0.10049039 0.010000355 0
0.0014923963 -0.10020392 -0.0099996272 0
0.0014245326 -0.10048249 0.010000366 0
0.0044117342 -0.10062439 -0.0099996151 0
0.0044627744 -0.10056251 0.010000377 0
0.0075225686 -0.10062933 -0.009999604 0
0.0074160774 -0.10057557 0.010000387 0
0.0097701252 -0.10046611 -0.0096955169 0
0.010000023 -0.10060463 -0.0077132862 0
0.010000012 -0.10036519 -0.0045872391 0
0.0099999998 -0.10043672 -0.0013847058 0
0.0099999905 -0.10032313 0.0014056296 0
0.0099999793 -0.10062245 0.0044251671 0
0.0099999672 -0.10047508 0.0076746847 0
0.0097371563 -0.1004713 0.0096972231 0
-0.0098042199 -0.097628303 -0.0097835492 0
-0.0099999709 -0.09741699 -0.0072512534 0
-0.0099999793 -0.097398683 -0.0044923401 0
-0.0099999886 -0.097618684 -0.0014607083 0
-0.010000002 -0.097426116 0.0015180513 0
-0.010000011 -0.097591445 0.004423778 0
-0.010000023 -0.097438 0.0075654294 0
-0.0098089427 -0.097438551 0.0097027197 0
-0.0073128869 -0.097525641 -0.0099996682 0
-0.0075244256 -0.097411685 0.010000321 0
-0.0046466459 -0.097516067 -0.0099996598 0
-0.0044368231 -0.097418688 0.010000333 0
-0.001289347 -0.097497568 -0.0099996487 0
-0.0015946669 -0.097497165 0.010000343 0
0.0015618036 -0.097584218 -0.0099996366 0
0.0014828915 -0.09741018 0.010000354 0
0.0043253517 -0.097470373 -0.0099996263 0
0.0045191883 -0.097407632 0.010000365 0
0.0075215497 -0.097482212 -0.0099996151 0
0.0073203673 -0.097499199 0.010000376 0
0.0097620301 -0.097512409 -0.0097393058 0
0.010000022 -0.097624063 -0.0073626898 0
0.010000011 -0.097561203 -0.0044708303 0
0.0099999998 -0.097457945 -0.0013468028 0
0.0099999895 -0.097339138 0.0015361883 0
0.0099999793 -0.097704127 0.0045368215 0
0.00999997 -0.09743613 0.0075535369 0
0.0097606545 -0.097387284 0.0097963233 0
-0.0096584894 -0.094446138 -0.0097610475 0
-0.00999997 -0.094352953 -0.007411954 0
-0.0099999802 -0.094496071 -0.0044820555 0
-0.0099999886 -0.094414234 -0.0015546816 0
-0.010000001 -0.094465174 0.0015501308 0
-0.010000013 -0.09446308 0.004513084 0
-0.010000023 -0.094605803 0.0073563126 0
-0.0098013617 -0.094430655 0.0097070849 0
-0.0074703395 -0.094548784 -0.0099996803 0
-0.0072973231 -0.094517596 0.010000311 0
-0.0044401507 -0.094620034 -0.0099996682 0
-0.0045646164 -0.094509847 0.01000032 0
-0.0014876793 -0.094483316 -0.0099996598 0
-0.0014638016 -0.094491832 0.010000332 0
0.0015139633 -0.094410375 -0.0099996468 0
0.0013261003 -0.094354577 0.010000343 0
0.0043426296 -0.094376206 -0.0099996384 0
0.0043630353 -0.094617091 0.010000354 0
0.007440384 -0.094392069 -0.0099996272 0
0.0075601744 -0.094402701 0.010000366 0
0.0097034825 -0.09448348 -0.0097959051 0
0.010000023 -0.094396181 -0.0074622859 0
0.010000013 -0.0944506 -0.0045285062 0
0.010000002 -0.09453278 -0.0015594449 0
0.0099999895 -0.094419174 0.0015170857 0
0.0099999793 -0.094465293 0.0045412169 0
0.009999969 -0.094465882 0.007286014 0
0.0098240757 -0.094444625 0.0096827634 0
-0.0097037433 -0.091366693 -0.0098290229 0
-0.0099999672 -0.091423653 -0.0075122933 0
-0.0099999802 -0.091507472 -0.0044738036 0
-0.0099999905 -0.09153033 -0.0013190616 0
-0.010000002 -0.091447636 0.0015145178 0
-0.010000011 -0.091757096 0.0046294075 0
-0.010000024 -0.091473281 0.0074537448 0
-0.0097718742 -0.091429546 0.0097874664 0
-0.0074865799 -0.0915296 -0.0099996915 0
-0.0076775779 -0.091514274 0.0100003 0
-0.0044785896 -0.091434024 -0.0099996822 0
-0.0044097132 -0.091552041 0.010000311 0
-0.0014292249 -0.091549054 -0.0099996701 0
-0.0014426407 -0.091584958 0.010000321 0
0.0016071298 -0.091309272 -0.0099996598 0
0.0015978935 -0.091668442 0.010000332 0
0.0045879865 -0.091411352 -0.0099996487 0
0.0045699156 -0.091548346 0.010000343 0
0.0076953392 -0.091458417 -0.0099996366 0
0.007499462 -0.091634445 0.010000354 0
0.0097575858 -0.091335952 -0.0096886819 0
0.010000022 -0.091682501 -0.0077157258 0
0.010000011 -0.091528662 -0.0044914763 0
0.010000001 -0.091475971 -0.0014140556 0
0.0099999905 -0.091683805 0.0016605093 0
0.0099999784 -0.091300443 0.0046025617 0
0.0099999681 -0.091541022 0.0075407377 0
0.009747847 -0.091471612 0.0096644089 0
-0.0097139524 -0.088671535 -0.0098506855 0
-0.0099999681 -0.088366613 -0.0077567464 0
-0.0099999793 -0.088610426 -0.0045709019 0
-0.0099999905 -0.088535577 -0.0013143613 0
-0.010000004 -0.088615529 0.0017088659 0
-0.010000012 -0.088501066 0.0043272758 0
-0.010000022 -0.088423379 0.0074213096 0
-0.0097738151 -0.088386118 0.0097998865 0
-0.0075426148 -0.088550463 -0.0099997018 0
-0.0074999314 -0.088521637 0.010000288 0
-0.0045040697 -0.088357173 -0.0099996934 0
-0.004585349 -0.088401288 0.010000299 0
-0.0014272252 -0.088249654 -0.0099996813 0
-0.0016450305 -0.088563398 0.01000031 0
0.0015287625 -0.088292964 -0.009999672 0
0.0015838351 -0.088418327 0.010000325 0
0.0043688505 -0.088374674 -0.0099996598 0
0.0044118762 -0.088419281 0.010000331 0
0.0074328305 -0.088545673 -0.0099996477 0
0.0077069476 -0.088410906 0.010000344 0
0.0098008448 -0.088496014 -0.0097642168 0
0.010000022 -0.088721521 -0.0075610238 0
0.010000012 -0.088483155 -0.0046704402 0
0.0099999998 -0.088723764 -0.0015094009 0
0.0099999895 -0.088696219 0.0014787166 0
0.0099999793 -0.088362925 0.0043659746 0
0.0099999681 -0.088560022 0.0075811464 0
0.009762709 -0.088858008 0.0097096544 0
-0.0096521918 -0.085500009 -0.0098156864 0
-0.0099999709 -0.085520864 -0.0071962061 0
-0.0099999793 -0.085602105 -0.0045391563 0
-0.0099999905 -0.085645236 -0.0016608041 0
-0.010000002 -0.085626997 0.0017068686 0
-0.010000011 -0.085389018 0.0044860155 0
-0.010000022 -0.085491575 0.0075221956 0
-0.0097538857 -0.085622676 0.0097895786 0
-0.0074992799 -0.085327692 -0.0099997129 0
-0.0076225358 -0.085690431 0.010000278 0
-0.00425176 -0.085348047 -0.0099997018 0
-0.0044842032 -0.085546933 0.01000029 0
-0.0015804823 -0.085685238 -0.0099996915 0
-0.0014482292 -0.085406862 0.010000299 0
0.0014795841 -0.085551761 -0.0099996803 0
0.001718753 -0.08554104 0.010000312 0
0.0046356278 -0.085484721 -0.0099996701 0
0.0044693933 -0.085256726 0.010000319 0
0.0075140921 -0.085651129 -0.009999658 0
0.0076753045 -0.085587882 0.010000335 0
0.0097763771 -0.085634559 -0.0096254554 0
0.010000022 -0.08537399 -0.007437801 0
0.010000012 -0.085618064 -0.0044877199 0
0.010000002 -0.085509084 -0.0016837398 0
0.0099999886 -0.085388631 0.0015217579 0
0.0099999802 -0.08550214 0.0042507621 0
0.009999969 -0.085525684 0.0074663945 0
0.009747223 -0.085549891 0.0097781708 0
-0.0096583385 -0.082200319 -0.0097573949 0
-0.0099999681 -0.082515687 -0.0074748783 0
-0.0099999784 -0.082394898 -0.0045998767 0
-0.0099999914 -0.082327835 -0.001310191 0
-0.010000001 -0.082484148 0.001648985 0
-0.010000012 -0.082478248 0.004501767 0
-0.010000023 -0.082569487 0.0074836528 0
-0.009754993 -0.082418047 0.0097900797 0
-0.007594394 -0.08241187 -0.009999725 0
-0.0075682336 -0.082509279 0.010000267 0
-0.0041403905 -0.08267232 -0.0099997129 0
-0.0046158265 -0.082461037 0.010000278 0
-0.0013947845 -0.082523696 -0.0099997018 0
-0.0015457055 -0.082441665 0.010000288 0
0.0013523748 -0.082551859 -0.0099996924 0
0.0015777526 -0.0825449 0.0100003 0
0.0042667501 -0.082599998 -0.0099996803 0
0.0045258291 -0.082489446 0.01000031 0
0.0074726711 -0.082335241 -0.0099996701 0
0.0075340969 -0.082565852 0.01000032 0
0.0097111454 -0.082646489 -0.0097351177 0
0.010000023 -0.082426578 -0.0076941261 0
0.010000011 -0.082206793 -0.0042455466 0
0.010000001 -0.082433842 -0.0014165267 0
0.0099999895 -0.082497679 0.0015469739 0
0.0099999802 -0.082598276 0.0043439288 0
0.0099999681 -0.082597904 0.0073588644 0
0.0097367028 -0.082292013 0.0097941011 0
-0.0097760903 -0.079500712 -0.0097684106 0
-0.009999969 -0.079541273 -0.0074657789 0
-0.0099999793 -0.079533137 -0.00445069 0
-0.0099999895 -0.079415999 -0.0015111822 0
-0.010000001 -0.079538278 0.0014754056 0
-0.010000011 -0.079398088 0.0043371893 0
-0.010000024 -0.079440355 0.007562547 0
-0.0097613595 -0.07938017 0.0098022306 0
-0.0074455026 -0.079706825 -0.0099997334 0
-0.0077112243 -0.079220861 0.010000254 0
-0.0044970154 -0.079468302 -0.0099997232 0
-0.0047747744 -0.07950148 0.010000266 0
-0.001485264 -0.079375654 -0.0099997139 0
-0.0017628572 -0.079638295 0.010000278 0
0.0013843775 -0.079520456 -0.0099997027 0
0.0013697558 -0.079422064 0.010000288 0
0.0045427475 -0.079484075 -0.0099996915 0
0.0043613957 -0.079633065 0.010000301 0
0.0074954559 -0.079534121 -0.0099996822 0
0.0073251575 -0.07944373 0.01000031 0
0.0097794272 -0.079556711 -0.0096786125 0
0.010000024 -0.079238936 -0.0075713811 0
0.010000013 -0.079418443 -0.0045875222 0
0.010000003 -0.079692692 -0.0016150736 0
0.0099999905 -0.079485692 0.0016592226 0
0.0099999793 -0.079518057 0.0045165862 0
0.0099999681 -0.079549983 0.0076067271 0
0.009765679 -0.07962928 0.0097733708 0
-0.0097512519 -0.076431967 -0.0097161252 0
-0.009999969 -0.076518945 -0.0074508772 0
-0.0099999793 -0.076633818 -0.0043547237 0
-0.0099999895 -0.07658843 -0.0014569827 0
-0.010000001 -0.076504424 0.001537933 0
-0.010000013 -0.076729968 0.0045507303 0
-0.010000023 -0.07654462 0.0076046209 0
-0.0097552752 -0.076465867 0.0096792718 0
-0.007590496 -0.076547369 -0.0099997455 0
-0.0074674776 -0.076634951 0.010000247 0
-0.0045701577 -0.076603144 -0.0099997362 0
-0.0047698421 -0.076692685 0.010000255 0
-0.0015917673 -0.076491907 -0.0099997241 0
-0.0014837761 -0.076411128 0.010000266 0
0.0015767677 -0.076494657 -0.0099997139 0
0.0014623292 -0.076465018 0.010000277 0
0.004365202 -0.076543659 -0.0099997018 0
0.0044513713 -0.07666757 0.010000289 0
0.0075790836 -0.076521397 -0.0099996924 0
0.0075467764 -0.076388866 0.010000299 0
0.0098426845 -0.076744065 -0.009707517 0
0.010000024 -0.076411441 -0.0076434882 0
0.010000011 -0.076319672 -0.0044151549 0
0.010000002 -0.076680914 -0.0016727676 0
0.0099999895 -0.076692469 0.00149344 0
0.0099999802 -0.076581992 0.0044701234 0
0.0099999672 -0.076482177 0.0074511501 0
0.0098018646 -0.076413207 0.0097474949 0
-0.009683935 -0.073602021 -0.0097886641 0
-0.009999969 -0.07354074 -0.0073896525 0
-0.0099999784 -0.073486269 -0.0043110121 0
-0.0099999886 -0.073422834 -0.0017049164 0
-0.010000002 -0.073472708 0.00158659 0
-0.010000012 -0.073513255 0.0045400173 0
-0.010000023 -0.073558353 0.0075808438 0
-0.0097716311 -0.073382057 0.0097320667 0
-0.0074296556 -0.073527701 -0.0099997567 0
-0.007430959 -0.073677376 0.010000235 0
-0.0043852902 -0.073537417 -0.0099997446 0
-0.0043985206 -0.073616907 0.010000247 0
-0.0015550866 -0.073622301 -0.0099997353 0
-0.0015886369 -0.073563501 0.010000256 0
0.0015246952 -0.073376149 -0.009999725 0
0.001359405 -0.07346388 0.010000266 0
0.0043304055 -0.073629819 -0.0099997129 0
0.0044760881 -0.073363543 0.010000276 0
0.0074713752 -0.073650546 -0.0099997018 0
0.0074191429 -0.073569372 0.010000288 0
0.0097005023 -0.073337026 -0.0097901123 0
0.010000022 -0.073474266 -0.0075515392 0
0.010000012 -0.07345508 -0.0043991054 0
0.010000001 -0.073509634 -0.001323133 0
0.0099999895 -0.073642798 0.0015118151 0
0.0099999802 -0.073580347 0.0043554828 0
0.009999969 -0.07336656 0.0075795515 0
0.0097699249 -0.073604472 0.0097784223 0
-0.0096531166 -0.070412531 -0.0097199148 0
-0.0099999672 -0.070696071 -0.0075918338 0
-0.0099999802 -0.070527986 -0.0044460851 0
-0.0099999914 -0.070756517 -0.001411268 0
-0.010000001 -0.070517972 0.0014913442 0
-0.01000001 -0.070590355 0.0044731223 0
-0.010000024 -0.070456535 0.0078264577 0
-0.0096590389 -0.070176184 0.0097946841 0
-0.0074250647 -0.070380583 -0.0099997688 0
-0.0075616585 -0.07044065 0.010000222 0
-0.004323042 -0.070622042 -0.0099997567 0
-0.0046570278 -0.070504464 0.010000234 0
-0.0015620623 -0.070412517 -0.0099997465 0
-0.0015454066 -0.070591688 0.010000246 0
0.0013634929 -0.070545532 -0.0099997362 0
0.0016086176 -0.070342697 0.010000256 0
0.0045565609 -0.07051006 -0.0099997241 0
0.0044316757 -0.070413657 0.010000266 0
0.0075577484 -0.070598274 -0.0099997139 0
0.0074188942 -0.070378006 0.010000277 0
0.0097993454 -0.070468776 -0.009683324 0
0.010000021 -0.070578218 -0.0074391854 0
0.010000013 -0.07036221 -0.0045363135 0
0.010000002 -0.070587926 -0.0015046539 0
0.0099999905 -0.070458256 0.0014197408 0
0.0099999793 -0.07035435 0.0043185665 0
0.0099999681 -0.070427023 0.0074885478 0
0.0097123403 -0.070258409 0.0097527448 0
-0.0097932294 -0.067527749 -0.0097130211 0
-0.00999997 -0.067408733 -0.007485915 0
-0.0099999784 -0.067497216 -0.0045720637 0
-0.0099999905 -0.067380607 -0.0012697659 0
-0.010000001 -0.067602657 0.001276032 0
-0.010000011 -0.067554139 0.0044163922 0
-0.010000023 -0.067454346 0.0075765727 0
-0.0097568417 -0.067541726 0.0097521674 0
-0.0075077 -0.06747023 -0.0099997791 0
-0.0074699181 -0.067442916 0.010000212 0
-0.0044039814 -0.067453206 -0.0099997688 0
-0.0045433487 -0.067422934 0.010000222 0
-0.0015429795 -0.067536615 -0.0099997558 0
-0.001655217 -0.067582175 0.010000234 0
0.0014685255 -0.067403249 -0.0099997465 0
0.0015732228 -0.067541704 0.010000246 0
0.0045207539 -0.067469195 -0.0099997343 0
0.0044588381 -0.067626961 0.010000256 0
0.0076016956 -0.067648098 -0.0099997241 0
0.0074197054 -0.067525938 0.010000266 0
0.0097985538 -0.067533948 -0.0097573111 0
0.010000023 -0.067368314 -0.007465363 0
0.010000012 -0.067447402 -0.0044064699 0
0.010000001 -0.067571595 -0.0015894672 0
0.0099999895 -0.067464747 0.0015473233 0
0.0099999812 -0.067567356 0.004242836 0
0.0099999681 -0.067430004 0.0073476029 0
0.009691596 -0.067745432 0.0097779799 0
-0.0096590947 -0.064376317 -0.0097941849 0
-0.0099999672 -0.064599924 -0.0076480131 0
-0.0099999793 -0.064509735 -0.0043876325 0
-0.0099999895 -0.064737529 -0.0014283423 0
-0.010000002 -0.064526483 0.0015233826 0
-0.010000011 -0.064578258 0.0043738349 0
-0.010000023 -0.064550854 0.0075166966 0
-0.0097271623 -0.064553022 0.0097519448 0
-0.0074997996 -0.064514354 -0.0099997893 0
-0.0075165569 -0.064467065 0.010000202 0
-0.0042954795 -0.064785339 -0.0099997781 0
-0.0042783795 -0.06440641 0.010000214 0
-0.0013933394 -0.064513229 -0.0099997669 0
-0.0015604707 -0.064454719 0.010000223 0
0.001446689 -0.064520456 -0.0099997558 0
0.0015845404 -0.064488843 0.010000234 0
0.0043336935 -0.064500131 -0.0099997455 0
0.004540496 -0.064479269 0.010000247 0
0.0075669261 -0.064534485 -0.0099997362 0
0.0072960183 -0.064342454 0.010000254 0
0.0096704317 -0.064506553 -0.0098441616 0
0.010000023 -0.064443812 -0.0075315824 0
0.010000013 -0.064473793 -0.004521565 0
0.010000001 -0.064560398 -0.0016003859 0
0.0099999895 -0.064432159 0.0015033754 0
0.0099999784 -0.06450817 0.0043768384 0
0.009999969 -0.064639099 0.0073130378 0
0.009716725 -0.06454391 0.0097693279 0
-0.0097506111 -0.061575033 -0.0097636795 0
-0.0099999709 -0.061435636 -0.0072499006 0
-0.0099999793 -0.061435591 -0.0045283823 0
-0.0099999895 -0.061441205 -0.0016291761 0
-0.010000002 -0.061316319 0.0017775 0
-0.010000012 -0.061129335 0.0043429872 0
-0.010000023 -0.061449613 0.0077273198 0
-0.0097593656 -0.061599661 0.0097276308 0
-0.0074235229 -0.061371803 -0.0099998005 0
-0.0076611661 -0.061576601 0.01000019 0
-0.0045379777 -0.061476983 -0.0099997902 0
-0.0045778942 -0.061532646 0.010000201 0
-0.0016455448 -0.061504286 -0.0099997791 0
-0.0015295446 -0.061627977 0.010000213 0
0.0015136134 -0.061366018 -0.0099997688 0
0.0015288442 -0.061362922 0.010000223 0
0.0044665891 -0.061300114 -0.0099997576 0
0.0043526515 -0.061668117 0.010000235 0
0.0073841503 -0.061493739 -0.0099997465 0
0.0073766387 -0.061524954 0.010000246 0
0.0096921893 -0.061613359 -0.0097890329 0
0.010000023 -0.061435577 -0.0075216191 0
0.010000012 -0.061580937 -0.004590204 0
0.010000002 -0.06160292 -0.00154403 0
0.0099999914 -0.061511546 0.0013481352 0
0.0099999812 -0.061432682 0.0044858921 0
0.0099999681 -0.061481919 0.007530923 0
0.0097561004 -0.061807044 0.0097447475 0
-0.0097287633 -0.058288027 -0.0097701559 0
-0.00999997 -0.058498617 -0.0072789681 0
-0.0099999802 -0.058439728 -0.0043361392 0
-0.0099999895 -0.05850723 -0.0015415396 0
-0.010000001 -0.058462124 0.0014749841 0
-0.010000014 -0.058604222 0.0045376574 0
-0.010000022 -0.058481451 0.0074957204 0
-0.0097696381 -0.058508959 0.0097337849 0
-0.0076099723 -0.05848068 -0.0099998116 0
-0.0074441745 -0.058524452 0.01000018 0
-0.0046081976 -0.058659244 -0.0099997995 0
-0.0046379161 -0.058589067 0.010000191 0
-0.0015495338 -0.058467563 -0.0099997902 0
-0.001426626 -0.058463786 0.010000203 0
0.0013846685 -0.058369711 -0.0099997809 0
0.0013836588 -0.058443781 0.010000211 0
0.0044838358 -0.058513202 -0.0099997679 0
0.0044263429 -0.058399837 0.010000222 0
0.0074597248 -0.058393333 -0.0099997567 0
0.0075639808 -0.058421981 0.010000234 0
0.0097684423 -0.058439214 -0.0097561525 0
0.010000023 -0.058456782 -0.0076769311 0
0.010000014 -0.058510315 -0.0045669833 0
0.010000001 -0.058719553 -0.0014157424 0
0.0099999895 -0.058666162 0.0015650591 0
0.0099999802 -0.058586996 0.0046855705 0
0.009999969 -0.058483198 0.0076052821 0
0.0097624371 -0.058533061 0.0098105632 0
-0.0098517677 -0.055347279 -0.0095915124 0
-0.0099999681 -0.05540292 -0.0074015218 0
-0.0099999793 -0.055604286 -0.0044586621 0
-0.0099999895 -0.055506803 -0.0016078126 0
-0.0099999998 -0.05547142 0.0014078394 0
-0.010000012 -0.055446781 0.0045232144 0
-0.010000022 -0.055216372 0.0074448432 0
-0.0097485166 -0.055327166 0.0097714793 0
-0.007368471 -0.055510376 -0.009999821 0
-0.0073444685 -0.055328518 0.010000169 0
-0.0043654935 -0.055334441 -0.0099998107 0
-0.0044910368 -0.055494756 0.010000181 0
-0.0015484674 -0.055594131 -0.0099997995 0
-0.0014659573 -0.055386383 0.01000019 0
0.0016549892 -0.055429053 -0.0099997902 0
0.0015709414 -0.055537365 0.010000202 0
0.0045174365 -0.055280376 -0.00999978 0
0.0043263948 -0.055705063 0.010000215 0
0.0074399444 -0.05565713 -0.0099997669 0
0.007420111 -0.055587772 0.010000224 0
0.0097430246 -0.055364203 -0.009832656 0
0.010000023 -0.055527225 -0.0073424806 0
0.010000011 -0.055300817 -0.0044652759 0
0.010000001 -0.055694055 -0.0015191177 0
0.0099999914 -0.055405442 0.0013551809 0
0.0099999784 -0.055516392 0.0047197477 0
0.0099999681 -0.055353519 0.007473378 0
0.0097240219 -0.055434406 0.0097753042 0
-0.0097736195 -0.05238511 -0.0097337114 0
-0.009999969 -0.052658364 -0.0073776194 0
-0.0099999793 -0.052297436 -0.0047079823 0
-0.0099999895 -0.052433357 -0.0016119723 0
-0.010000001 -0.052425582 0.001375727 0
-0.010000012 -0.052456573 0.0046428903 0
-0.010000022 -0.052728888 0.007553902 0
-0.0096949833 -0.052279878 0.0097703645 0
-0.0076523633 -0.052490171 -0.0099998331 0
-0.0075334846 -0.052449893 0.010000158 0
-0.0043827561 -0.052695893 -0.0099998219 0
-0.0044406722 -0.052522372 0.01000017 0
-0.0014754232 -0.052701388 -0.0099998098 0
-0.0017063575 -0.05238802 0.01000018 0
0.0015844963 -0.052269965 -0.0099998023 0
0.0013666707 -0.052462544 0.010000191 0
0.0043931324 -0.052433304 -0.0099997912 0
0.0045844056 -0.052295741 0.010000201 0
0.0074400222 -0.052528694 -0.0099997791 0
0.0075739524 -0.05257801 0.010000212 0
0.0098047135 -0.052410282 -0.0096959295 0
0.010000022 -0.052481059 -0.0073825326 0
0.010000013 -0.05255533 -0.0045271101 0
0.0099999998 -0.052460566 -0.0014855047 0
0.0099999905 -0.052449353 0.0014122432 0
0.0099999784 -0.052448034 0.0045161368 0
0.0099999681 -0.052460071 0.0075354944 0
0.0097594373 -0.052672561 0.0097257849 0
-0.0097278422 -0.049443655 -0.0098573267 0
-0.009999969 -0.049456533 -0.0073146336 0
-0.0099999784 -0.049504057 -0.0047188303 0
-0.0099999895 -0.049383294 -0.0014944687 0
-0.010000001 -0.049380414 0.0013507821 0
-0.010000013 -0.049572594 0.0047424161 0
-0.010000022 -0.049499195 0.0075657861 0
-0.0097994404 -0.049560625 0.0097291227 0
-0.007373556 -0.049633835 -0.0099998433 0
-0.0074756853 -0.049637806 0.010000147 0
-0.0044669053 -0.049467102 -0.0099998321 0
-0.0045531224 -0.049620066 0.010000158 0
-0.0014272743 -0.049321786 -0.0099998219 0
-0.0014335746 -0.049557347 0.01000017 0
0.0016336105 -0.049416039 -0.0099998107 0
0.0014572964 -0.049225375 0.010000179 0
0.0045140404 -0.049407739 -0.0099998005 0
0.0042781192 -0.049609534 0.010000191 0
0.0078752628 -0.049524587 -0.0099997874 0
0.0078142006 -0.049436141 0.010000204 0
0.0097463597 -0.04925384 -0.009728835 0
0.010000022 -0.049386695 -0.0075104274 0
0.010000011 -0.049731508 -0.0044804518 0
0.0099999998 -0.049432158 -0.0012640029 0
0.0099999895 -0.049460065 0.0015114272 0
0.0099999784 -0.049485024 0.0045215632 0
0.0099999681 -0.049486388 0.0073669716 0
0.0097165518 -0.049542136 0.009748877 0
-0.0098331962 -0.046519864 -0.0096018314 0
-0.0099999681 -0.046457488 -0.0074076476 0
-0.0099999784 -0.046409152 -0.004603202 0
-0.0099999895 -0.046609394 -0.0016739776 0
-0.010000002 -0.046499509 0.0015300941 0
-0.010000011 -0.046730686 0.0043926011 0
-0.010000023 -0.046581641 0.0074073537 0
-0.0096980985 -0.0464928 0.0097774453 0
-0.0075304499 -0.046454456 -0.0099998545 0
-0.0074056708 -0.046524335 0.010000137 0
-0.0044508255 -0.046695232 -0.0099998433 0
-0.0046149753 -0.046531599 0.010000147 0
-0.0015002283 -0.046324752 -0.0099998331 0
-0.0014488285 -0.04641955 0.010000157 0
0.0014862258 -0.046513755 -0.009999821 0
0.0015138988 -0.046550687 0.01000017 0
0.0044578621 -0.046330541 -0.0099998116 0
0.0044279573 -0.046593547 0.01000018 0
0.0075662257 -0.046411593 -0.0099998005 0
0.0075318515 -0.046292 0.01000019 0
0.0097592529 -0.046512168 -0.0097454926 0
0.010000022 -0.046572149 -0.0075747953 0
0.010000011 -0.046520863 -0.0044226479 0
0.0099999998 -0.046399254 -0.001388632 0
0.0099999914 -0.046692178 0.0013680338 0
0.0099999793 -0.046434373 0.0045715524 0
0.009999969 -0.046416774 0.0074815219 0
0.0096834805 -0.046288345 0.0098054213 0
-0.0096741924 -0.04365984 -0.0098492298 0
-0.0099999681 -0.043553825 -0.0075394437 0
-0.0099999812 -0.043666899 -0.0042835078 0
-0.0099999923 -0.043539714 -0.0012877635 0
-0.0099999998 -0.04350644 0.0013444996 0
-0.010000011 -0.043542683 0.0044436837 0
-0.010000023 -0.043592039 0.0074588507 0
-0.0098041128 -0.043488912 0.0097083999 0
-0.0075008734 -0.043462649 -0.0099998647 0
-0.0074145366 -0.043609772 0.010000126 0
-0.004566465 -0.043569542 -0.0099998554 0
-0.0044901632 -0.043487914 0.010000137 0
-0.0017015793 -0.043512899 -0.0099998442 0
-0.0015065917 -0.043649673 0.01000015 0
0.0013987795 -0.043746352 -0.0099998321 0
0.0015424708 -0.043613255 0.01000016 0
0.0045838756 -0.043546237 -0.0099998219 0
0.0044331183 -0.043691561 0.01000017 0
0.0073208185 -0.043507177 -0.0099998116 0
0.0074841869 -0.043553669 0.01000018 0
0.0098231332 -0.043623287 -0.009690661 0
0.010000023 -0.043643668 -0.0076673706 0
0.010000012 -0.043484613 -0.0045135287 0
0.010000001 -0.043472491 -0.0014704261 0
0.0099999886 -0.043317325 0.0017605091 0
0.0099999802 -0.043449409 0.0044986387 0
0.0099999681 -0.043636445 0.0074542072 0
0.009850611 -0.04356942 0.0095915459 0
-0.0097181527 -0.040364686 -0.0098131569 0
-0.009999969 -0.040544782 -0.0074578691 0
-0.0099999784 -0.040377229 -0.0046845465 0
-0.0099999905 -0.040641557 -0.0015720067 0
-0.010000002 -0.040625606 0.0015984096 0
-0.010000012 -0.040642325 0.0044611469 0
-0.010000022 -0.040621415 0.0074623465 0
-0.0096336566 -0.040694095 0.0097916014 0
-0.0074568964 -0.040419649 -0.0099998768 0
-0.0073382477 -0.040588845 0.010000116 0
-0.0046606855 -0.040387582 -0.0099998666 0
-0.0046832673 -0.040383197 0.010000126 0
-0.00145246 -0.040592432 -0.0099998554 0
-0.0014194049 -0.040366091 0.010000136 0
0.0015215483 -0.040679909 -0.0099998415 0
0.0012597704 -0.040437046 0.010000146 0
0.0043696202 -0.040536072 -0.0099998331 0
0.0045677251 -0.040626783 0.01000016 0
0.0074735079 -0.040571608 -0.009999821 0
0.007516366 -0.04059289 0.01000017 0
0.0098176152 -0.040418886 -0.0096272686 0
0.010000023 -0.040442981 -0.0076309764 0
0.010000014 -0.040318925 -0.004620757 0
0.010000002 -0.040493127 -0.0014782182 0
0.0099999905 -0.040371932 0.0014338188 0
0.0099999812 -0.0404195 0.0043604206 0
0.0099999681 -0.040592469 0.0075525451 0
0.0098270206 -0.040376138 0.0097281225 0
-0.0097184777 -0.037325658 -0.0097954655 0
-0.0099999681 -0.037454378 -0.0075554857 0
-0.0099999793 -0.037447721 -0.0045259087 0
-0.0099999905 -0.037468586 -0.0017660247 0
-0.0099999998 -0.037591048 0.0014108341 0
-0.010000012 -0.037695039 0.0045967982 0
-0.010000022 -0.037722509 0.0074354508 0
-0.009799337 -0.037785694 0.0096819792 0
-0.007610755 -0.037497304 -0.0099998871 0
-0.0075376206 -0.037334219 0.010000104 0
-0.0044932282 -0.037554227 -0.0099998759 0
-0.0045999964 -0.037594657 0.010000115 0
-0.001690486 -0.037474714 -0.0099998666 0
-0.0014183678 -0.03751082 0.010000126 0
0.001674933 -0.037537225 -0.0099998526 0
0.0013959572 -0.03762472 0.010000136 0
0.0045861262 -0.037462946 -0.0099998442 0
0.0046588588 -0.037670515 0.010000148 0
0.0075424728 -0.037635505 -0.0099998331 0
0.007568134 -0.03733879 0.010000156 0
0.0097519113 -0.037572332 -0.0097547555 0
0.010000023 -0.037576146 -0.0075913179 0
0.010000011 -0.037345558 -0.0043007461 0
0.0099999998 -0.037460528 -0.0014690446 0
0.0099999905 -0.03776725 0.0014261749 0
0.0099999793 -0.037488878 0.0045121629 0
0.009999969 -0.037435208 0.0073644468 0
0.0097446563 -0.037452377 0.0097182496 0
-0.0097905062 -0.034477018 -0.0097312005 0
-0.009999969 -0.034693234 -0.0076122414 0
-0.0099999793 -0.03452364 -0.0044123023 0
-0.0099999905 -0.034573268 -0.0013269599 0
-0.010000002 -0.034437738 0.0014423254 0
-0.010000011 -0.034602147 0.0044850055 0
-0.010000022 -0.034395274 0.0073765162 0
-0.0096947579 -0.034467731 0.0097914534 0
-0.0075445063 -0.034362052 -0.0099998973 0
-0.0075992895 -0.0345609 0.010000092 0
-0.0046902546 -0.034466587 -0.0099998871 0
-0.004523972 -0.034558922 0.010000104 0
-0.0014994985 -0.034378182 -0.009999875 0
-0.0015855341 -0.034573592 0.010000115 0
0.0014448112 -0.034442697 -0.0099998657 0
0.001500834 -0.034552149 0.010000126 0
0.0044639064 -0.034806862 -0.0099998536 0
0.0045648986 -0.034414019 0.010000138 0
0.0075267158 -0.03451173 -0.0099998452 0
0.0075889709 -0.034393694 0.010000147 0
0.0096847424 -0.034444306 -0.0097922282 0
0.010000023 -0.034531571 -0.0074200495 0
0.010000013 -0.034487575 -0.0045884764 0
0.0099999998 -0.034519814 -0.0014582464 0
0.0099999895 -0.034592468 0.0014200081 0
0.0099999784 -0.034680981 0.0047889887 0
0.0099999672 -0.034622815 0.0076165763 0
0.0098263314 -0.034504294 0.0097339191 0
-0.0096574621 -0.031534784 -0.00973731 0
-0.009999969 -0.03156196 -0.0075738784 0
-0.0099999793 -0.031433053 -0.0044974131 0
-0.0099999886 -0.031460553 -0.0017072801 0
-0.010000002 -0.031672709 0.0014667192 0
-0.010000011 -0.031464305 0.0042781504 0
-0.010000022 -0.031324107 0.0075327796 0
-0.0097897053 -0.031626143 0.0097327856 0
-0.0075473711 -0.031702254 -0.0099999076 0
-0.0075356462 -0.031289745 0.010000083 0
-0.0045354445 -0.031486534 -0.0099998983 0
-0.0045610433 -0.03153133 0.010000095 0
-0.0012819252 -0.031591997 -0.0099998852 0
-0.0015752183 -0.031526219 0.010000105 0
0.0015672432 -0.03122941 -0.0099998778 0
0.0013667982 -0.031221537 0.010000114 0
0.004697131 -0.031528261 -0.0099998638 0
0.0046101483 -0.031487215 0.010000127 0
0.0075991056 -0.031328734 -0.0099998545 0
0.007509917 -0.031585768 0.010000138 0
0.0098302132 -0.031289611 -0.0096259024 0
0.010000022 -0.031319097 -0.0073757716 0
0.010000012 -0.031532172 -0.0046135779 0
0.010000001 -0.031354271 -0.0015647005 0
0.0099999895 -0.031562664 0.0016052618 0
0.0099999812 -0.031390544 0.0044223811 0
0.0099999681 -0.031498451 0.0075517464 0
0.009813712 -0.031616725 0.0097009549 0
-0.009752959 -0.028310282 -0.0097292261 0
-0.0099999681 -0.028446894 -0.0075047882 0
-0.0099999793 -0.028479088 -0.0045683971 0
-0.0099999895 -0.028469451 -0.0014811266 0
-0.010000001 -0.028722832 0.0016357505 0
-0.010000012 -0.028525647 0.0046145134 0
-0.010000024 -0.028466828 0.0075010699 0
-0.0097308289 -0.028465448 0.0098209092 0
-0.0075556575 -0.028644376 -0.0099999197 0
-0.0074397423 -0.02865685 0.010000072 0
-0.0046772547 -0.028552325 -0.0099999094 0
-0.0045010312 -0.028504508 0.010000082 0
-0.0013862635 -0.028584445 -0.0099998973 0
-0.001516234 -0.02839659 0.010000092 0
0.0014082394 -0.028461404 -0.009999888 0
0.001376057 -0.028345075 0.010000103 0
0.0045544757 -0.028465286 -0.009999875 0
0.0045250691 -0.028616356 0.010000116 0
0.0074776188 -0.028553246 -0.0099998657 0
0.0073192674 -0.028378308 0.010000125 0
0.0097503504 -0.028546058 -0.0097619779 0
0.010000023 -0.028407447 -0.0074536209 0
0.010000011 -0.028515767 -0.004360965 0
0.010000001 -0.028493559 -0.0014335365 0
0.0099999905 -0.028557064 0.0013694714 0
0.0099999802 -0.028729688 0.0044195331 0
0.009999969 -0.028510544 0.0074987123 0
0.0096696429 -0.028414119 0.0097684218 0
-0.0097869653 -0.02537244 -0.0097323023 0
-0.00999997 -0.02551326 -0.0075224023 0
-0.0099999802 -0.025333578 -0.0044809389 0
-0.0099999905 -0.025653129 -0.0015998115 0
-0.010000003 -0.025421381 0.0017016537 0
