# .PCD v0.7 - Point Cloud Data file format
VERSION 0.7
FIELDS x y z rgb
SIZE 4 4 4 4
TYPE F F F F
COUNT 1 1 1 1
WIDTH 1158
HEIGHT 1
VIEWPOINT 0 0 0 1 0 0 0
POINTS 1158
DATA ascii
-0.00029008277 -0.21144518 0.010101654 0
0.0015837993 -0.21155778 0.0074175196 0
0.00078326458 -0.21155626 0.011564862 0
0.00232657 -0.21151838 0.012373673 0
0.003892161 -0.21182187 0.0059309062 0
0.0046179327 -0.21159299 0.0064831767 0
0.0054003885 -0.21152356 0.01140847 0
0.0041220561 -0.21153386 0.012707018 0
0.0072406721 -0.21155789 0.0078927195 0
0.0066856672 -0.21151744 0.0098628569 0
-0.00044232234 -0.20828249 0.0084967809 0
-0.00062252942 -0.20860885 0.010305779 0
0.0015798779 -0.20843263 0.0071196612 0
0.00059417711 -0.20851825 0.011696578 0
0.0020881635 -0.20844898 0.012482163 0
0.0033887757 -0.2082743 0.0059450977 0
0.0044790898 -0.20864132 0.0065501872 0
0.0052213673 -0.20841612 0.01107799 0
0.0037411768 -0.20849867 0.012754957 0
0.0070208292 -0.2085292 0.0081267133 0
0.0064600012 -0.20868674 0.0096370634 0
-0.000631109 -0.20542291 0.0083238101 0
-0.00099089905 -0.20542306 0.010505905 0
0.0028703162 -0.20537543 0.0059641907 0
0.0014096888 -0.20559022 0.0069575137 0
0.00033037472 -0.20559247 0.011780758 0
0.0018560496 -0.20536123 0.012594953 0
0.0031356313 -0.20651864 0.005957488 0
0.0044770949 -0.20548539 0.0067210938 0
0.0049568713 -0.20547937 0.01088029 0
0.0034798905 -0.20556341 0.012665687 0
0.0066855135 -0.2055957 0.0081722308 0
0.0062602125 -0.20561346 0.0093420539 0
-0.00096904166 -0.20234472 0.0082490314 0
-0.00126366 -0.20243299 0.010664537 0
0.0026388352 -0.20304984 0.005954647 0
0.0014432139 -0.2025214 0.006689705 0
0.00018317995 -0.20280018 0.01191571 0
0.0017153453 -0.20255159 0.01267657 0
0.0045892517 -0.20252624 0.0070215743 0
0.0047608763 -0.20251851 0.01059914 0
0.0033001155 -0.20247941 0.012344429 0
0.0064566098 -0.2026708 0.0082473746 0
0.0061049941 -0.20338005 0.0091478862 0
-0.0012028367 -0.19952215 0.00813773 0
-0.0016162595 -0.1995216 0.010645619 0
-0.00011125491 -0.1989069 0.01205733 0
0.0021026756 -0.19969963 0.0059674494 0
0.0014545161 -0.19958231 0.0065279519 0
0.0016144558 -0.19942683 0.01267489 0
0.0046444014 -0.19956996 0.0073684356 0
0.0043187384 -0.1995296 0.010610069 0
0.0031051617 -0.20005883 0.012153703 0
0.0062026242 -0.19952983 0.0082524614 0
-0.0014207257 -0.19638917 0.0079679899 0
-0.0019723088 -0.1965463 0.01076203 0
-0.0002562234 -0.19650681 0.012165167 0
0.0016227432 -0.19634071 0.0059446571 0
0.0012617534 -0.19637825 0.0064611533 0
0.0028167767 -0.19587138 0.011765035 0
0.0014687268 -0.19657524 0.01271033 0
0.0046225763 -0.19640085 0.0076490077 0
0.0041414974 -0.19665684 0.010327986 0
0.0060431426 -0.1978717 0.0082896892 0
-0.0030691011 -0.19261925 0.0087722763 0
-0.003067049 -0.19259757 0.0099334819 0
-0.0014686041 -0.1934918 0.0077126212 0
-0.0023135685 -0.19379601 0.010890466 0
-0.00054227299 -0.19339915 0.012253412 0
0.0012486008 -0.19347227 0.0059518483 0
0.0016729352 -0.19345787 0.0064590643 0
0.002624922 -0.1935316 0.011587181 0
0.0011827386 -0.19338645 0.012756037 0
0.00464956 -0.19357371 0.0079253726 0
0.0038773206 -0.19354641 0.010114294 0
-0.003325599 -0.19021375 0.0087122852 0
-0.0033531848 -0.19036262 0.010184933 0
-0.0014891556 -0.19040781 0.0074205794 0
-0.0022335011 -0.19060546 0.011579758 0
-0.00079415343 -0.1903967 0.012351522 0
0.00086916488 -0.19069792 0.0059369351 0
0.0016367463 -0.19062369 0.0064724414 0
0.0024111234 -0.1904197 0.011311784 0
0.0010632816 -0.19052948 0.012733852 0
0.0042935396 -0.19054256 0.007963459 0
0.0036068587 -0.19040406 0.0099046957 0
-0.0035693033 -0.18725307 0.008544201 0
-0.003684819 -0.18759666 0.010421738 0
-0.001507866 -0.18751013 0.0071513215 0
-0.0023652811 -0.18757783 0.01174248 0
-0.00094557955 -0.18758512 0.012487768 0
0.00032838513 -0.18732359 0.0059521305 0
0.0017919913 -0.18745166 0.0066845487 0
0.0022418282 -0.18750612 0.011021682 0
0.00077136833 -0.18738511 0.012681689 0
0.0040052203 -0.18763089 0.0080409534 0
0.0035032926 -0.18754007 0.0095457975 0
-0.0037370115 -0.18436719 0.0083227623 0
-0.0039354269 -0.18447992 0.010586849 0
-0.00019068632 -0.18375714 0.0058224271 0
-0.0017038269 -0.18453391 0.0069500618 0
-0.0026482304 -0.18461083 0.011782349 0
-0.0010821827 -0.18443166 0.012640488 0
0.00020805966 -0.18383984 0.0058659767 0
0.0017801956 -0.18451153 0.0068452884 0
0.0020067473 -0.18438163 0.010767438 0
0.00048294559 -0.18449539 0.012577932 0
0.003714686 -0.18454945 0.008180093 0
0.0032948845 -0.18477724 0.009324966 0
-0.0038873672 -0.18150397 0.0078810332 0
-0.0039424379 -0.18148689 0.010280323 0
-0.00074128335 -0.18137056 0.0055679525 0
-0.0021467421 -0.18164231 0.0065712114 0
-0.0020623757 -0.18149091 0.011627546 0
-0.00080572034 -0.1815899 0.012347255 0
0.00064547738 -0.18128833 0.0055503813 0
0.0021156946 -0.18161651 0.0066576991 0
0.0016444641 -0.18145964 0.010515677 0
0.00024817916 -0.18177304 0.012246521 0
0.0035635638 -0.18138063 0.0077767824 0
0.0030575658 -0.18273118 0.0091788117 0
-0.0040054494 -0.17838556 0.0074773985 0
-0.0037855259 -0.17846687 0.0097710611 0
-0.0011778874 -0.17842993 0.0050903652 0
-0.0026906524 -0.17915528 0.0062844614 0
-0.0016381161 -0.17837337 0.01104077 0
-0.0001935655 -0.17948286 0.012096986 0
0.0012065212 -0.17837785 0.0051186122 0
0.0026298671 -0.17856315 0.0078078662 0
0.0010972091 -0.17862535 0.010421961 0
0.0035909249 -0.17864111 0.0071332529 0
-0.0034470337 -0.17510779 0.0057333768 0
-0.0041313148 -0.17560482 0.0074132397 0
-0.0035400884 -0.17577863 0.0092752641 0
-0.0016407358 -0.17540814 0.0046063769 0
-0.0014555565 -0.17548516 0.010387147 0
0.0014064806 -0.17541049 0.0044607804 0
0.0023212912 -0.17538089 0.0081291962 0
0.00082644983 -0.17574419 0.009989446 0
0.0035539875 -0.17496084 0.0056127794 0
0.0035780582 -0.17562993 0.006629542 0
-0.0037445319 -0.17233481 0.0052475133 0
-0.0040497277 -0.1726651 0.0076165688 0
-0.0030922629 -0.17380793 0.0090144621 0
-0.00032245912 -0.17205726 0.0028632598 0
-0.0017460083 -0.17252201 0.0039237412 0
-0.0026780148 -0.17186993 0.0087429397 0
-0.00126312 -0.17258656 0.0097419536 0
0.00024531118 -0.17193863 0.0028751027 0
0.0015254484 -0.17254798 0.0037829494 0
0.0020003482 -0.17247237 0.0077487645 0
0.00053442753 -0.17277963 0.0095602861 0
0.0036239121 -0.17235456 0.0051845154 0
0.0033359479 -0.17284656 0.0062664435 0
-0.0039605531 -0.16943803 0.0048620566 0
-0.0039267368 -0.16954751 0.0071430923 0
-0.00081480568 -0.16941319 0.0024910285 0
-0.0022532432 -0.16958725 0.0034948844 0
-0.0020815963 -0.16931076 0.0084150834 0
-0.00059199095 -0.16978444 0.0093585961 0
0.00073475385 -0.16934498 0.0024841807 0
0.0022268686 -0.16954616 0.003742456 0
0.0014764876 -0.16950591 0.0075928876 0
0.00020615038 -0.17015824 0.0092635415 0
0.0035699701 -0.16938062 0.0046600499 0
-0.0031224787 -0.16532515 0.0029669013 0
-0.0040420503 -0.16642621 0.0045224973 0
-0.0038038106 -0.1666002 0.0066415975 0
-0.0013391717 -0.16643302 0.0020657345 0
-0.0027027642 -0.16724397 0.0031842648 0
-0.0013797208 -0.16648944 0.0080811735 0
-0.00018413361 -0.16764271 0.0090676593 0
0.0014892679 -0.16637854 0.0021504145 0
0.0025746096 -0.16651373 0.0051316111 0
0.001083833 -0.16663057 0.0073059215 0
0.0031880992 -0.16566037 0.0029504132 0
0.0035213283 -0.16646294 0.0040850821 0
-0.0034589195 -0.16336824 0.0026844852 0
-0.0041185739 -0.16342151 0.0045680106 0
-0.0035729052 -0.16433184 0.0062455973 0
-0.0013967417 -0.16346265 0.0013290872 0
-0.0015186932 -0.16353716 0.0072166543 0
0.0014660627 -0.16335723 0.0013471098 0
0.0022337181 -0.16335958 0.0050910991 0
0.00070756197 -0.16353646 0.0069424417 0
0.0035952036 -0.16324459 0.0026013679 0
0.0034831252 -0.16375068 0.0036843047 0
-0.0037709193 -0.16040087 0.0021753649 0
-0.0040724059 -0.16050038 0.0043790005 0
-0.00041759049 -0.15981928 -0.00026648981 0
-0.0017298105 -0.16071793 0.00083288987 0
-0.0025154629 -0.15994 0.0057032765 0
-0.0011423161 -0.16058488 0.0066631986 0
0.00040507625 -0.15982306 -0.00019483395 0
0.0016300197 -0.16061892 0.00072688714 0
0.0019721396 -0.16049571 0.004651688 0
0.0004326521 -0.16073944 0.0065368055 0
0.0036267561 -0.16056052 0.0021918011 0
0.0032125476 -0.16100836 0.0033138932 0
-0.0039667254 -0.1573635 0.0017959336 0
-0.0039147171 -0.1577334 0.0040920014 0
-0.00079708459 -0.15736353 -0.00066467101 0
-0.0024099769 -0.15756363 0.00046625792 0
-0.001950762 -0.15737979 0.0053655724 0
-0.00062051904 -0.15791665 0.006275015 0
0.00086896122 -0.15736751 -0.00056550163 0
0.0024269787 -0.15743308 0.0010208647 0
0.0014483847 -0.15754044 0.0044991919 0
0.00014674873 -0.15828091 0.0062325285 0
0.003540691 -0.15754797 0.0015966351 0
-0.0031643959 -0.15343511 -0.00010129691 0
-0.004026508 -0.15436234 0.0013399667 0
-0.0037608729 -0.15460455 0.0035418328 0
-0.0014605479 -0.15438201 -0.00099800597 0
-0.0027734532 -0.15555006 0.00018642498 0
-0.0015070341 -0.15441619 0.0048402147 0
0.0014205598 -0.15436082 -0.0010315274 0
0.0024669461 -0.1543391 0.0022733659 0
0.0011321759 -0.15454537 0.004090887 0
0.0032509293 -0.15381236 -0.0001148463 0
0.0036532322 -0.15452582 0.00088769023 0
-0.0036244921 -0.15131329 -0.00034428082 0
-0.0041139922 -0.15143289 0.0016735971 0
-0.0033139375 -0.15217449 0.0032024807 0
-9.7115466e-05 -0.15015142 -0.0030096897 0
-0.0013973255 -0.15147124 -0.0017966379 0
-0.002861531 -0.15025014 0.0029674275 0
-0.0014894556 -0.15152211 0.0041044671 0
0.0015555845 -0.15148108 -0.0017066726 0
0.0022179219 -0.15138628 0.0019757564 0
0.00070030172 -0.15148577 0.0038027889 0
0.0036285615 -0.15131883 -0.00046625745 0
0.003441598 -0.15165988 0.00059470313 0
-0.0037941504 -0.14842759 -0.00086442649 0
-0.0039967517 -0.14840262 0.0014294314 0
-0.00043154642 -0.14828913 -0.0032728543 0
-0.001885547 -0.14863172 -0.0022126792 0
-0.0025158105 -0.14832827 0.0026705761 0
-0.0010099191 -0.14866671 0.0036270018 0
0.00053343864 -0.14792007 -0.003230351 0
0.0017183428 -0.14859188 -0.0023685459 0
0.0018804299 -0.14833088 0.0015765651 0
0.00035709402 -0.1488478 0.003520027 0
0.0036196716 -0.14837414 -0.0010161502 0
0.0031842992 -0.14930712 0.00028424637 0
-0.0039576199 -0.1455517 -0.0012441034 0
-0.0037786402 -0.14561825 0.0011972967 0
-0.00088292488 -0.14536083 -0.0035817169 0
-0.002371144 -0.14560245 -0.0025652524 0
-0.0018160321 -0.14550678 0.0024288357 0
-0.00046452353 -0.14576179 0.0032327422 0
0.0010522462 -0.14541934 -0.0033823897 0
0.0025142555 -0.14537933 -0.0018808515 0
0.0013765449 -0.14551385 0.0014709503 0
0.00013218995 -0.14632219 0.003126109 0
0.0035131362 -0.14548936 -0.0014581823 0
-0.0041835858 -0.14242013 -0.0013164445 0
-0.0040617278 -0.1424464 0.001099364 0
-0.0010668975 -0.14236252 -0.0036411732 0
-0.002536383 -0.14255446 -0.0027160929 0
-0.0016488433 -0.14249711 0.0024427732 0
-0.00052947237 -0.14247239 0.003100042 0
0.00078549818 -0.14261231 -0.0034224766 0
0.0023308734 -0.14232236 -0.0017454869 0
0.0011134056 -0.14258076 0.001337445 0
0.003387474 -0.14255364 -0.0016069206 0
-0.0043861936 -0.13944536 -0.0014437893 0
-0.0042651859 -0.13943163 0.0011614974 0
-0.0012240959 -0.1394586 -0.0036597163 0
-0.0026823059 -0.13947004 -0.0028378847 0
-0.00147785 -0.13949798 0.0025248062 0
-0.00089230062 -0.1393671 0.0031034611 0
0.00056594075 -0.1395772 -0.0033635646 0
0.0022650105 -0.13944441 -0.0016689595 0
0.00089007244 -0.1396673 0.0012293616 0
0.0032297282 -0.13950612 -0.0016842195 0
-0.0045458735 -0.13639992 -0.0016035853 0
-0.0044140425 -0.13648117 0.0012654803 0
-0.0014263254 -0.13648295 -0.0036185225 0
-0.0029021709 -0.13670787 -0.0028888891 0
-0.001382045 -0.13652343 0.0024845086 0
-0.0012350894 -0.13648422 0.0031019899 0
0.00051850459 -0.13663177 -0.0032168478 0
0.0020391573 -0.13644363 -0.0016962375 0
0.00081986393 -0.13667426 0.00093134103 0
0.0031364853 -0.13730931 -0.0017878083 0
-0.0031251928 -0.13287114 -0.003018362 0
-0.004737718 -0.13339773 -0.0017389404 0
-0.0045454516 -0.13339752 0.0013674211 0
-0.0015780147 -0.13351801 -0.0036336011 0
-0.0029772357 -0.13483018 -0.0029751481 0
-0.0015357971 -0.13343845 0.0024683345 0
-0.0015593563 -0.13350804 0.0031034322 0
0.00032845727 -0.13357644 -0.003140795 0
0.0018193754 -0.1335161 -0.0017600884 0
0.00063187996 -0.13369113 0.00077309355 0
-0.0060538584 -0.12934405 -0.00071908144 0
-0.0060494402 -0.12936847 0.00045650065 0
-0.0032087164 -0.13006227 -0.003167016 0
-0.0049523395 -0.13056244 -0.0018240092 0
-0.0046997094 -0.13052963 0.0015284551 0
-0.0015014163 -0.13067411 -0.0036317327 0
-0.001359742 -0.13062052 0.0022595595 0
-0.0018436386 -0.13042524 0.0031110425 0
0.00015131441 -0.13065219 -0.0030654401 0
0.00153826 -0.13045715 -0.0016422849 0
0.00052727049 -0.13066028 0.00051089487 0
-0.0062372754 -0.12742801 -0.00081071327 0
-0.0062515577 -0.12746131 0.00055216433 0
-0.0033923739 -0.12717095 -0.0032574949 0
-0.0048985453 -0.12742074 -0.0022234055 0
-0.0044132587 -0.127544 0.0019202786 0
-0.0016207085 -0.12749632 -0.003653826 0
-5.6261117e-05 -0.12648408 -0.0029323329 0
-0.001267462 -0.12746251 0.002023228 0
-0.0021081751 -0.12764448 0.003092929 0
0.0012786485 -0.12749808 -0.0016257286 0
0.00028217584 -0.12770513 0.00042309295 0
-0.0065143788 -0.12453615 -0.0010244079 0
-0.0065114386 -0.12453039 0.00073061162 0
-0.0035408635 -0.12420247 -0.0034192218 0
-0.0050665373 -0.12477073 -0.0023421352 0
-0.0043951697 -0.12460005 0.0021401758 0
-0.0017214748 -0.12439901 -0.003622944 0
-0.00016693915 -0.12411973 -0.0028196869 0
-0.0012884962 -0.12452906 0.0017526067 0
-0.0025602393 -0.12436541 0.0031169297 0
0.00089887448 -0.12450625 -0.0015479575 0
0.00019464431 -0.12488113 0.00011778081 0
-0.0068178596 -0.12139525 -0.0011144362 0
-0.0066786259 -0.12141934 0.00097541168 0
-0.0038188798 -0.12135652 -0.0034952948 0
-0.0053332238 -0.121589 -0.0024553635 0
-0.0046842154 -0.1215372 0.00221217 0
-0.0031237295 -0.12121663 0.0031002925 0
-0.0018636192 -0.12151594 -0.0035373061 0
-0.0004022427 -0.1212653 -0.002304964 0
-0.0014500193 -0.12149829 0.0014968843 0
-0.0028259463 -0.12175267 0.003097327 0
0.00068574754 -0.12158735 -0.0015506773 0
-0.0070839869 -0.11859058 -0.0012887163 0
-0.0069848066 -0.11844388 0.001036267 0
-0.0040264325 -0.11844972 -0.00359347 0
-0.0054487805 -0.11854238 -0.0026577136 0
-0.0046085152 -0.11854839 0.002431618 0
-0.0033558493 -0.11878066 0.0031259838 0
-0.0020900699 -0.11866999 -0.0034503606 0
-0.00056778966 -0.11841591 -0.0019814789 0
-0.0018380235 -0.11849047 0.0014647838 0
0.00045995406 -0.11862314 -0.0015409121 0
-0.0073203542 -0.11536454 -0.001446631 0
-0.0071621872 -0.11545581 0.0011790644 0
-0.0041633742 -0.11546808 -0.0036612216 0
-0.0057819607 -0.11531702 -0.0027316057 0
-0.0046784994 -0.1153978 0.0025065462 0
-0.003856268 -0.11528227 0.0030862223 0
-0.0022711235 -0.11574425 -0.0033302382 0
-0.00068642414 -0.1153718 -0.0015650148 0
-0.0020219113 -0.11553151 0.0012007469 0
0.00029726719 -0.11570477 -0.0016553754 0
-0.0074984217 -0.11241864 -0.0016115452 0
-0.0075166849 -0.11245628 0.001216135 0
-0.0044710319 -0.11249986 -0.0036062859 0
-0.0058423961 -0.1131484 -0.0028929154 0
-0.004482361 -0.11251211 0.0024946136 0
-0.004257089 -0.1126126 0.0031050162 0
-0.0025432212 -0.11275517 -0.0032537957 0
-0.00097377592 -0.11249172 -0.0017445361 0
-0.0021958658 -0.11257939 0.00092387758 0
0.00014211645 -0.11344993 -0.0018008838 0
-0.0060810377 -0.10942562 -0.0030791631 0
-0.0077910325 -0.1095061 -0.0017245434 0
-0.0077853035 -0.10944739 0.0013032717 0
-0.0045503206 -0.10943583 -0.0036483884 0
-0.0042705694 -0.10954373 0.0023448174 0
-0.0046498682 -0.10955875 0.0031098684 0
-0.0027194037 -0.10985944 -0.0031308171 0
-0.0013118429 -0.10948744 -0.001678983 0
-0.0023812582 -0.109513 0.00063877617 0
-0.0091278078 -0.1062355 -0.00067980093 0
-0.0091377953 -0.10592682 0.00062324235 0
-0.0062489458 -0.10614468 -0.0032616789 0
-0.0078397142 -0.10658277 -0.0021219274 0
-0.0076973061 -0.10664401 0.0016423704 0
-0.0045836442 -0.10647964 -0.003620171 0
-0.0030469217 -0.10536658 -0.0029758578 0
-0.0043029538 -0.10652559 0.0021534082 0
-0.0050272229 -0.10669933 0.0031037543 0
-0.002860588 -0.10778756 -0.0030507478 0
-0.0015899878 -0.10656103 -0.0016376904 0
-0.0026042957 -0.10682099 0.00046311016 0
-0.0091793761 -0.10361154 -0.00072222983 0
-0.009172841 -0.103682 0.00056238641 0
-0.0063405936 -0.10351667 -0.0032524059 0
-0.0078163669 -0.10353516 -0.0022445675 0
-0.0076390547 -0.10346045 0.0017760023 0
-0.004496485 -0.10355903 -0.0036247708 0
-0.0030527171 -0.10337016 -0.0029785112 0
-0.0043052663 -0.10359176 0.0020636516 0
-0.0051695793 -0.10356335 0.0031136463 0
-0.0017958021 -0.10346375 -0.0016814375 0
-0.0026155852 -0.10371301 0.00024272817 0
-0.0091863591 -0.10060948 -0.00085596729 0
-0.0091834161 -0.10037179 0.00057413586 0
-0.0063641765 -0.10049757 -0.0032363117 0
-0.007921814 -0.10036292 -0.0021725672 0
-0.0074591036 -0.10067903 0.0018769423 0
-0.0045148605 -0.10047355 -0.0036200909 0
-0.0030603646 -0.10046685 -0.00298271 0
-0.0042646895 -0.10049029 0.0020046446 0
-0.0051680133 -0.10048261 0.0031054933 0
-0.0017708597 -0.10049386 -0.0017326416 0
-0.0027354248 -0.10059366 0.00038538274 0
-0.0091878055 -0.097489871 -0.00072881096 0
-0.0091770552 -0.097365879 0.00056567241 0
-0.0063932245 -0.097563274 -0.0032164848 0
-0.0078436369 -0.097533181 -0.0022259671 0
-0.0074327663 -0.097601697 0.0018917064 0
-0.0046435683 -0.09744411 -0.0036556006 0
-0.0030724006 -0.097261541 -0.0029893126 0
-0.0042524175 -0.097544573 0.0020405517 0
-0.0051536793 -0.097782597 0.0031139283 0
-0.0018561586 -0.097439632 -0.001696766 0
-0.0027004811 -0.09737552 0.00034377087 0
-0.0091774995 -0.094305851 -0.00083821552 0
-0.0091831386 -0.094305627 0.0005730089 0
-0.0063862749 -0.094636902 -0.0032212422 0
-0.0078581506 -0.094483532 -0.002216066 0
-0.0075972057 -0.094330654 0.0017994455 0
-0.0045081493 -0.094552636 -0.0035960956 0
-0.003046168 -0.094976842 -0.0029749554 0
-0.0042533502 -0.094525389 0.0020257137 0
-0.0051680701 -0.094546631 0.0030996595 0
-0.0017879843 -0.094628215 -0.0015842941 0
-0.0027716889 -0.094544083 0.00042853103 0
-0.0091796191 -0.091728993 -0.00078889739 0
-0.0091786543 -0.091670156 0.00058574346 0
-0.0063393018 -0.091408983 -0.0032533319 0
-0.0079065897 -0.091460899 -0.0021829966 0
-0.0075995522 -0.091432907 0.0017981185 0
-0.0045840233 -0.091547117 -0.0036220618 0
-0.0030344038 -0.091382533 -0.0029685264 0
-0.0042846547 -0.091442153 0.0020048413 0
-0.0051912074 -0.091301456 0.003099513 0
-0.0017853833 -0.091567099 -0.0017622693 0
-0.0027158512 -0.091472164 0.00036204656 0
-0.0091734929 -0.088505156 -0.00083836674 0
-0.0091795428 -0.088463694 0.00055640616 0
-0.0063143489 -0.088326991 -0.0032703839 0
-0.0077855126 -0.088490382 -0.002265692 0
-0.0074173845 -0.088414103 0.0019003014 0
-0.0044320696 -0.088507332 -0.0036017199 0
-0.0030589611 -0.088540226 -0.0029819845 0
-0.0042484528 -0.088383585 0.0020167413 0
-0.0051385397 -0.088518746 0.0030880633 0
-0.0017609311 -0.088476248 -0.0016453107 0
-0.0027430954 -0.088424474 0.00039446948 0
-0.0091691734 -0.085411943 -0.00068829424 0
-0.0091673145 -0.085508518 0.00051283545 0
-0.0063166502 -0.085651055 -0.003224211 0
-0.0078079249 -0.085464835 -0.002171841 0
-0.0076284311 -0.0855195 0.00175274 0
-0.0045622881 -0.085509367 -0.0036808869 0
-0.0044093123 -0.085436337 0.002276011 0
-0.0050573563 -0.085507482 0.0031012697 0
-0.0028079702 -0.08473479 -0.0031653144 0
-0.0013308459 -0.085414305 -0.0016250595 0
-0.0024819863 -0.085300289 0.00057052809 0
0.00012659663 -0.084225535 -0.0017391914 0
-0.0060526608 -0.083949663 -0.0030479867 0
-0.00758716 -0.082550615 -0.0014106656 0
-0.0074664773 -0.082631141 0.0011312825 0
-0.0042070802 -0.082495883 -0.0036236893 0
-0.0054422249 -0.081926763 -0.0028021398 0
-0.0045886016 -0.082512684 0.0024904914 0
-0.0037987758 -0.082622692 0.0031108733 0
-0.0020537293 -0.082233608 -0.0034082143 0
-0.00058440573 -0.082855575 -0.0018540083 0
-0.0016522544 -0.082333259 0.0012169027 0
-0.0028674076 -0.081374519 0.0030195757 0
0.00071992894 -0.082087375 -0.0016082641 0
-0.0065550278 -0.07962393 -0.0010308791 0
-0.0066283494 -0.079810224 0.00078288722 0
-0.0035569393 -0.079867266 -0.0033527529 0
-0.0049074129 -0.079257399 -0.0023311463 0
-0.0046078507 -0.079370774 0.0019290318 0
-0.0030111251 -0.080987461 0.0031165935 0
-0.0016621294 -0.079354167 -0.003653757 0
-0.00021640732 -0.080372535 -0.0029377048 0
-0.001145519 -0.079502136 0.0018788791 0
-0.0023090919 -0.079385504 0.0030854933 0
4.8884642e-05 -0.078195728 -0.0030593262 0
0.0012355228 -0.079518519 -0.0015160267 0
0.00030870625 -0.079314262 0.0003739112 0
-0.006000537 -0.077913724 0.00083992025 0
-0.0031914606 -0.077258103 -0.0030818132 0
-0.0047580809 -0.076349139 -0.0017344827 0
-0.0047447206 -0.076624066 0.0013205134 0
-0.001430803 -0.076675035 -0.0036548602 0
-0.002953893 -0.07548622 -0.0029840299 0
-0.0013061053 -0.076607682 0.0023376746 0
-0.0015957243 -0.076365404 0.0030878964 0
0.00029877829 -0.076169848 -0.003150821 0
0.0018271725 -0.076531991 -0.001721452 0
0.00061237131 -0.076501213 0.00073475164 0
0.0030145966 -0.075073712 -0.0018128388 0
-0.0043737618 -0.073540859 -0.001594397 0
-0.0043643792 -0.073563732 0.0011593061 0
-0.0012476023 -0.073538087 -0.0036372971 0
-0.0027229202 -0.073328912 -0.0028304339 0
-0.0015798558 -0.073407985 0.0025572993 0
-0.00092806842 -0.073463909 0.0031133234 0
0.00067460723 -0.073286429 -0.0032833184 0
0.0021307368 -0.07370054 -0.0016265877 0
0.00090332591 -0.073476009 0.0011432053 0
0.0032342933 -0.073043168 -0.0016758943 0
-0.0040728305 -0.070607491 -0.0013247421 0
-0.004045249 -0.070530854 0.00098488329 0
-0.00089252571 -0.070581503 -0.0036339322 0
-0.0024448324 -0.07058695 -0.0026528016 0
-0.0017109587 -0.070443273 0.0023877076 0
-0.0002903011 -0.070454247 0.0031241542 0
0.00084897567 -0.070559375 -0.0034907474 0
0.0025185165 -0.070617639 -0.0018416222 0
0.001241043 -0.070667796 0.0013953173 0
3.2866013e-05 -0.0696996 0.0030382073 0
0.0034665025 -0.070518173 -0.0015228336 0
-0.0040052799 -0.06751579 -0.0011771051 0
-0.0039492617 -0.067388564 0.00085708557 0
-0.00096866884 -0.067395143 -0.0035193062 0
-0.0023763466 -0.067380376 -0.0025821938 0
-0.0016443533 -0.067419656 0.0023545255 0
-0.00024244573 -0.067613043 0.0030991589 0
0.00099399837 -0.067344435 -0.0034860536 0
0.0025642256 -0.067610949 -0.0017612515 0
0.0012224283 -0.067705601 0.0015875247 0
2.6726873e-05 -0.067374036 0.0030456856 0
0.0035335557 -0.06748911 -0.0016668017 0
-0.0039191213 -0.064632803 -0.0012698614 0
-0.0039017801 -0.064340211 0.00092842936 0
-0.00093473512 -0.064646974 -0.0035409715 0
-0.0024215556 -0.064554356 -0.0025520648 0
-0.0016966875 -0.064528361 0.0023258552 0
-0.00022858774 -0.064414524 0.0031221737 0
0.00090914755 -0.064621255 -0.0035336637 0
0.00256643 -0.064577557 -0.0016936294 0
0.0012523048 -0.064416729 0.0015510796 0
2.849142e-05 -0.064904258 0.0030435245 0
0.0034995782 -0.064541973 -0.0015885974 0
-0.0093858941 -0.060000036 -0.0092850951 0
-0.0095354561 -0.060000028 -0.0071502938 0
-0.0091885021 -0.060000017 -0.0045131198 0
-0.0097605037 -0.06000001 -0.0018005519 0
-0.009318796 -0.059999995 0.0016293827 0
-0.009438565 -0.059999987 0.0043173563 0
-0.009473972 -0.059999976 0.0068597649 0
-0.0068226741 -0.060000036 -0.0094629675 0
-0.0072608846 -0.060000032 -0.0075919796 0
-0.0075458731 -0.06000001 -0.0045192195 0
-0.0075437105 -0.059999999 -0.0010492768 0
-0.0074446481 -0.059999995 0.0018245341 0
-0.0072527663 -0.059999984 0.0041225594 0
-0.0072143576 -0.05999998 0.0074893786 0
-0.0067165811 -0.059999969 0.0093803983 0
-0.0042582587 -0.06000004 -0.0096070813 0
-0.0044125537 -0.060000032 -0.0077237105 0
-0.004671216 -0.059999999 -0.0040809349 0
-0.0040189088 -0.061308965 -0.00123902 0
-0.0039366395 -0.06139994 0.001041166 0
-0.0044869822 -0.059999991 0.0045183729 0
-0.0047681895 -0.059999958 0.0073695122 0
-0.0054782867 -0.059999973 0.0095177274 0
-0.0017669431 -0.060000036 -0.0093859266 0
-0.0014005034 -0.060000002 -0.0076142168 0
-0.00092974468 -0.061334174 -0.0038261937 0
-0.0023137752 -0.061144952 -0.0024191907 0
-0.0016931144 -0.061318785 0.0022248188 0
-0.00091827544 -0.06080164 0.0037852309 0
-0.0015712576 -0.059999965 0.0073604635 0
-0.0016133122 -0.059999969 0.0096129198 0
0.0017962485 -0.060000036 -0.0097151389 0
0.0016535259 -0.060000032 -0.007203558 0
0.0010039514 -0.061324485 -0.0036347124 0
0.0022555029 -0.061212607 -0.0019260704 0
0.0013420621 -0.061506324 0.0014548165 0
0.00086107076 -0.060519498 0.0041794283 0
0.001385913 -0.059999969 0.0075995126 0
0.0011131375 -0.059999965 0.0098081436 0
0.0045675496 -0.060000036 -0.0093032829 0
0.0042298618 -0.060000017 -0.007544932 0
0.0046383585 -0.060000025 -0.0046531442 0
0.0036406473 -0.061266579 -0.001628193 0
0.004344149 -0.059999999 0.0016621815 0
0.0044257101 -0.05999998 0.0042801853 0
0.0045503583 -0.059999976 0.0071703647 0
0.0042306622 -0.059999969 0.009484347 0
0.0076931347 -0.060000036 -0.0095955497 0
0.0076643941 -0.060000025 -0.0073297992 0
0.0071079307 -0.060000021 -0.0046223239 0
0.0074598291 -0.059999984 -0.0013603668 0
0.0076548718 -0.059999987 0.0015841521 0
0.0080294833 -0.059999984 0.0046415664 0
0.0075692786 -0.059999973 0.0073321103 0
0.0075838473 -0.059999969 0.0094893184 0
0.0094162328 -0.060000032 -0.0084380694 0
0.0095124925 -0.060000017 -0.0044887871 0
0.0094569726 -0.06000001 -0.0017237131 0
0.0096646883 -0.059999999 0.00058158557 0
0.0095578255 -0.059999987 0.0042704376 0
0.0093182232 -0.059999976 0.007635924 0
-0.0097044464 -0.058853548 -0.0097681684 0
-0.0098730531 -0.059016731 -0.007411371 0
-0.0098792128 -0.05881042 -0.0042965477 0
-0.0099280812 -0.058650263 -0.0015489212 0
-0.0098843956 -0.058849335 0.0013700356 0
-0.0098828403 -0.05887711 0.0044835876 0
-0.0099415118 -0.058853783 0.0076482045 0
-0.0097203823 -0.058758073 0.0097088711 0
-0.007486132 -0.058777992 -0.0098842932 0
-0.007466821 -0.059999991 -0.007204615 0
-0.0075888508 -0.05999998 -0.0045810072 0
-0.0077020926 -0.059999969 -0.0015207389 0
-0.0074397461 -0.059999958 0.0016558275 0
-0.0075504803 -0.05999995 0.0044943946 0
-0.0073323175 -0.059999935 0.0077489843 0
-0.0074320864 -0.058863543 0.0099510374 0
-0.0044060317 -0.058759741 -0.0099278549 0
-0.0045849206 -0.059999987 -0.0076113977 0
-0.0045802239 -0.059999984 -0.0041528419 0
-0.0043428149 -0.059999965 -0.0014106018 0
-0.0043877866 -0.059999954 0.001572957 0
-0.0045948462 -0.059999947 0.0046653813 0
-0.0042957519 -0.059999935 0.0076868641 0
-0.0045669749 -0.058739789 0.0099234832 0
-0.0014713348 -0.058655124 -0.0099459402 0
-0.0018680665 -0.059999991 -0.0075694639 0
-0.0013614313 -0.059999973 -0.0044333292 0
-0.0012492284 -0.059999973 -0.0016206255 0
-0.0015183095 -0.059999954 0.001682787 0
-0.0013537171 -0.05999995 0.0044298326 0
-0.0014061745 -0.059999939 0.0076347203 0
-0.0014972965 -0.05884859 0.0098967999 0
0.0015266105 -0.058771547 -0.0098782107 0
0.0014717639 -0.059999987 -0.0073503717 0
0.0014574649 -0.059999976 -0.004515674 0
0.0014157017 -0.059999976 -0.0017158722 0
0.0014302942 -0.059999958 0.0013659378 0
0.0015324416 -0.059999947 0.0046628523 0
0.0015232824 -0.059999939 0.007386147 0
0.0015518664 -0.058753777 0.0099419048 0
0.0045998991 -0.058852457 -0.0099173589 0
0.0046595642 -0.059999991 -0.0073509975 0
0.0043518706 -0.059999973 -0.0042407294 0
0.004518297 -0.059999961 -0.0013680054 0
0.004448609 -0.059999961 0.0015302269 0
0.0045363056 -0.05999995 0.0045165219 0
0.0045829499 -0.059999935 0.0074826498 0
0.0046662432 -0.058609582 0.0099251727 0
0.0073054144 -0.058862973 -0.0099359686 0
0.0075397328 -0.059999987 -0.0075491187 0
0.0076624705 -0.05999998 -0.004352944 0
0.0075048776 -0.05999998 -0.0012202752 0
0.0076272264 -0.059999958 0.0015915461 0
0.0073512853 -0.05999995 0.0045219637 0
0.0073705092 -0.059999939 0.0075949109 0
0.0075357594 -0.058777817 0.0098928139 0
0.0096268924 -0.058849156 -0.0097726937 0
0.0098730838 -0.058745213 -0.0074542891 0
0.0098983981 -0.059022371 -0.0047120955 0
0.0098567866 -0.058810845 -0.0015019459 0
0.0099124731 -0.058856681 0.0014435309 0
0.009912353 -0.058827221 0.0045190854 0
0.0098919841 -0.058734309 0.0075981645 0
0.00970871 -0.058599424 0.0097345589 0
-0.0097569637 -0.055583712 -0.0097029768 0
-0.0099999681 -0.055434935 -0.0074306885 0
-0.0099999793 -0.055551626 -0.00466651 0
-0.0099999886 -0.055597547 -0.0016324741 0
-0.010000002 -0.055666655 0.0015385801 0
-0.010000011 -0.055546269 0.0044611963 0
-0.010000023 -0.055460244 0.0076072975 0
-0.0097736754 -0.055344835 0.0097493138 0
-0.0074109291 -0.055445082 -0.009999821 0
-0.0073635564 -0.055511206 0.010000169 0
-0.0046827993 -0.055618867 -0.0099998116 0
-0.0044976645 -0.055735089 0.010000182 0
-0.0013677736 -0.055390831 -0.0099997995 0
-0.0016368955 -0.055427209 0.01000019 0
0.0016251614 -0.055579457 -0.0099997884 0
0.001312016 -0.055557754 0.010000202 0
0.0043375869 -0.055311903 -0.0099997791 0
0.0043954579 -0.055473942 0.010000212 0
0.0075928615 -0.055535283 -0.009999766 0
0.0075929021 -0.055448834 0.010000224 0
0.009753352 -0.055505801 -0.0097464751 0
0.010000023 -0.055480514 -0.007664931 0
0.010000013 -0.055391721 -0.0045604315 0
0.010000001 -0.055472963 -0.0015603432 0
0.0099999895 -0.055638026 0.0015654024 0
0.0099999802 -0.055499826 0.0044320398 0
0.0099999681 -0.055566553 0.0073519289 0
0.0097255018 -0.055532522 0.0097682355 0
-0.009674402 -0.052208327 -0.0098014679 0
-0.0099999672 -0.052412089 -0.0074995435 0
-0.0099999784 -0.052649178 -0.0046774736 0
-0.0099999895 -0.052591119 -0.0015924613 0
-0.010000002 -0.052548539 0.0015314468 0
-0.010000014 -0.052475393 0.0046252543 0
-0.010000022 -0.05238156 0.007407981 0
-0.0097339824 -0.052426603 0.0097907418 0
-0.0075233891 -0.052532651 -0.0099998321 0
-0.0074203443 -0.052218355 0.010000157 0
-0.0045587867 -0.052387856 -0.0099998219 0
-0.0044899462 -0.052454535 0.010000169 0
-0.0015612142 -0.052470688 -0.0099998098 0
-0.0014793293 -0.052455269 0.01000018 0
0.001436304 -0.0524772 -0.0099998005 0
0.0013925215 -0.052408557 0.010000189 0
0.0045543197 -0.052593637 -0.0099997884 0
0.0045255083 -0.052645288 0.010000203 0
0.0076080719 -0.052471939 -0.0099997772 0
0.007544525 -0.052450072 0.010000213 0
0.0097343121 -0.052451059 -0.0097904447 0
0.010000022 -0.052725613 -0.0073966142 0
0.010000012 -0.052364793 -0.0044270912 0
0.0099999998 -0.052419927 -0.0014088472 0
0.0099999886 -0.052612409 0.0017033247 0
0.0099999784 -0.052420422 0.0045411512 0
0.00999997 -0.052409012 0.0073980461 0
0.0097006634 -0.052529838 0.0097530521 0
-0.0096977232 -0.049492519 -0.0097277788 0
-0.009999969 -0.049562529 -0.0076026688 0
-0.0099999784 -0.049414739 -0.0048790821 0
-0.0099999886 -0.049422797 -0.0016345554 0
-0.010000001 -0.049453426 0.0014709467 0
-0.010000012 -0.049437996 0.0044889147 0
-0.010000023 -0.049543262 0.0073357592 0
-0.009817441 -0.04976717 0.0096711824 0
-0.0077118967 -0.049698059 -0.0099998442 0
-0.0074984888 -0.04941278 0.010000147 0
-0.0045769028 -0.049468327 -0.0099998321 0
-0.004508167 -0.049532078 0.010000158 0
-0.0014888711 -0.049296521 -0.0099998219 0
-0.0013339361 -0.049731851 0.01000017 0
0.0013732275 -0.049620364 -0.0099998116 0
0.0015417312 -0.049575862 0.01000018 0
0.0044973982 -0.049520373 -0.0099998014 0
0.0044967332 -0.049331643 0.01000019 0
0.0075445371 -0.049530946 -0.0099997893 0
0.0074246102 -0.049506791 0.010000202 0
0.0097856568 -0.049567901 -0.0096930349 0
0.010000022 -0.049493544 -0.0075656357 0
0.01000001 -0.049522284 -0.0044104382 0
0.010000001 -0.049676973 -0.0015041829 0
0.0099999895 -0.049451321 0.0014641907 0
0.0099999793 -0.049564686 0.0044656354 0
0.0099999681 -0.049561024 0.0075463136 0
0.0097794393 -0.049615331 0.0096648466 0
-0.0097615719 -0.046463627 -0.009730354 0
-0.009999969 -0.046640966 -0.0074414494 0
-0.0099999784 -0.046542432 -0.0043502529 0
-0.0099999895 -0.046583287 -0.0015855009 0
-0.010000001 -0.046430618 0.0015660468 0
-0.010000012 -0.046583872 0.004376424 0
-0.010000024 -0.046550203 0.0076566827 0
-0.0097268103 -0.046434458 0.0096998252 0
-0.0075563295 -0.046576425 -0.0099998536 0
-0.0076455893 -0.046600051 0.010000136 0
-0.0045719906 -0.046462864 -0.0099998424 0
-0.0044877813 -0.04647322 0.010000149 0
-0.0013035514 -0.046638571 -0.0099998312 0
-0.0015639104 -0.046465296 0.010000158 0
0.0016254276 -0.046523713 -0.009999821 0
0.0014805194 -0.046422295 0.010000169 0
0.0044927839 -0.046402939 -0.0099998126 0
0.0044174735 -0.046394885 0.010000179 0
0.0075380155 -0.046503108 -0.0099997995 0
0.0076949513 -0.046486974 0.010000192 0
0.0097651947 -0.046403173 -0.0097322483 0
0.010000023 -0.046741579 -0.0075613307 0
0.010000011 -0.046405405 -0.0044732438 0
0.010000001 -0.046507046 -0.0014309293 0
0.0099999914 -0.046378642 0.0013769966 0
0.0099999784 -0.04654035 0.0045496165 0
0.0099999681 -0.046355952 0.0074969195 0
0.009824954 -0.046402328 0.0097373975 0
-0.0096935295 -0.043578237 -0.0098451134 0
-0.0099999681 -0.043522742 -0.0074592591 0
-0.0099999793 -0.043576863 -0.0044029932 0
-0.0099999895 -0.043466996 -0.0014942054 0
-0.010000001 -0.043203857 0.0015753815 0
-0.010000011 -0.043568932 0.0045026713 0
-0.010000023 -0.043638397 0.0076771732 0
-0.0097789271 -0.043513481 0.0097332289 0
-0.0074476851 -0.043542538 -0.0099998666 0
-0.0075034327 -0.043559883 0.010000126 0
-0.004313359 -0.043199368 -0.0099998564 0
-0.0045646844 -0.043539695 0.010000136 0
-0.0015565132 -0.04364353 -0.0099998424 0
-0.0014252292 -0.043613847 0.010000149 0
0.0015069102 -0.043352887 -0.0099998321 0
0.0016587239 -0.043678403 0.010000159 0
0.004515308 -0.043424051 -0.009999821 0
0.0045070606 -0.043409292 0.01000017 0
0.0074770488 -0.043447543 -0.0099998116 0
0.0076661748 -0.043675914 0.010000182 0
0.0097659929 -0.043511029 -0.0096972976 0
0.010000021 -0.043360487 -0.0075596753 0
0.010000012 -0.043260597 -0.004536829 0
0.0099999998 -0.043515369 -0.0013660871 0
0.0099999905 -0.043594643 0.0014904565 0
0.0099999774 -0.043466508 0.0045974981 0
0.009999969 -0.043457758 0.007537941 0
0.0097902752 -0.043613568 0.0097060893 0
-0.0098218676 -0.04052468 -0.0097460244 0
-0.0099999681 -0.040488333 -0.0076699653 0
-0.0099999793 -0.040533841 -0.0045429603 0
-0.0099999895 -0.040613942 -0.0016064119 0
-0.0099999998 -0.040504843 0.0014097657 0
-0.010000012 -0.040695392 0.0045629875 0
-0.010000022 -0.040563051 0.0074760616 0
-0.0097329514 -0.04054331 0.0097792856 0
-0.0075344858 -0.0403907 -0.0099998768 0
-0.0077099018 -0.040493287 0.010000113 0
-0.0044936417 -0.040576223 -0.0099998647 0
-0.0047761956 -0.040344905 0.010000123 0
-0.0013647251 -0.040393613 -0.0099998536 0
-0.0014227413 -0.040309813 0.010000136 0
0.0014382815 -0.040561691 -0.0099998415 0
0.0012399597 -0.040485971 0.010000147 0
0.0044295024 -0.040651828 -0.0099998312 0
0.0046367436 -0.040480513 0.010000159 0
0.0073363786 -0.040277243 -0.009999821 0
0.0073861554 -0.040521752 0.01000017 0
0.0097493771 -0.040516488 -0.0097446656 0
0.010000022 -0.040455207 -0.0073886728 0
0.010000011 -0.040416934 -0.0044497526 0
0.010000002 -0.040401995 -0.0016872843 0
0.0099999895 -0.040761232 0.0015904069 0
0.0099999802 -0.040428832 0.0044288337 0
0.0099999672 -0.040597837 0.0075024683 0
0.0097478814 -0.040326543 0.0097368462 0
-0.0097886603 -0.037340872 -0.0097249961 0
-0.0099999681 -0.03757197 -0.0074561816 0
-0.0099999802 -0.037290879 -0.0044177165 0
-0.0099999895 -0.037301231 -0.0014641223 0
-0.010000001 -0.03744401 0.0014493642 0
-0.010000011 -0.037538737 0.004373576 0
-0.010000022 -0.037520278 0.0075103487 0
-0.0097344955 -0.03743054 0.0097530857 0
-0.0074286666 -0.037339173 -0.009999888 0
-0.007498296 -0.037491102 0.010000104 0
-0.0045586876 -0.037519533 -0.0099998759 0
-0.0045429193 -0.037727121 0.010000117 0
-0.0014366755 -0.037514493 -0.0099998638 0
-0.0016206581 -0.037595905 0.010000126 0
0.0013620246 -0.037552878 -0.0099998545 0
0.0014393383 -0.037357215 0.010000137 0
0.0044332887 -0.037338167 -0.0099998442 0
0.0044709886 -0.037532762 0.010000148 0
0.0075502787 -0.037392087 -0.0099998321 0
0.0075024692 -0.037468359 0.010000159 0
0.0097929072 -0.037208114 -0.0097328406 0
0.010000023 -0.037564024 -0.0073831086 0
0.010000011 -0.037404656 -0.004489467 0
0.010000001 -0.037303884 -0.0015666838 0
0.0099999895 -0.037460759 0.0015774036 0
0.0099999793 -0.037441578 0.0046100919 0
0.0099999681 -0.037610125 0.0074342843 0
0.0097117778 -0.037628587 0.0097824372 0
-0.0097896168 -0.034314502 -0.0096994601 0
-0.0099999681 -0.034456261 -0.0075890357 0
-0.0099999793 -0.034582071 -0.0044618966 0
-0.0099999905 -0.034433011 -0.0015890957 0
-0.010000001 -0.034450289 0.0015450728 0
-0.01000001 -0.034546182 0.0044953539 0
-0.010000021 -0.034466173 0.0074104583 0
-0.00972101 -0.034549911 0.0096999118 0
-0.0074654738 -0.034467548 -0.0099998973 0
-0.0074049318 -0.034428876 0.010000092 0
-0.0042292597 -0.03446205 -0.0099998862 0
-0.0044940207 -0.034391407 0.010000104 0
-0.0015065878 -0.034556892 -0.0099998759 0
-0.0014050537 -0.034553856 0.010000115 0
0.0013971397 -0.034502786 -0.0099998657 0
0.0015566201 -0.034610614 0.010000126 0
0.0045116292 -0.034417551 -0.0099998536 0
0.0045042853 -0.034539234 0.010000137 0
0.0075473883 -0.034490805 -0.0099998433 0
0.0072917091 -0.034433059 0.010000146 0
0.0097694583 -0.034491107 -0.0097234277 0
0.010000022 -0.034362625 -0.0074760211 0
0.010000012 -0.034391165 -0.0045775189 0
0.0099999998 -0.034382828 -0.0013896798 0
0.0099999905 -0.03451461 0.0013700911 0
0.0099999793 -0.034563206 0.0045715398 0
0.0099999681 -0.034450524 0.0075426432 0
0.0097909495 -0.034341142 0.0097402623 0
-0.0097765848 -0.031493902 -0.009734612 0
-0.0099999672 -0.031513065 -0.0074683297 0
-0.0099999802 -0.031257976 -0.004479737 0
-0.0099999886 -0.031480923 -0.0015148874 0
-0.010000002 -0.031370465 0.0014867784 0
-0.01000001 -0.031366907 0.0042324914 0
-0.010000022 -0.031512804 0.0074420543 0
-0.0096763233 -0.031652592 0.0097400919 0
-0.0076764049 -0.031626921 -0.0099999085 0
-0.0076008709 -0.031521693 0.010000083 0
-0.0044857445 -0.031678796 -0.0099998964 0
-0.0044391546 -0.031447805 0.010000093 0
-0.0015335225 -0.031449486 -0.0099998871 0
-0.0015589851 -0.031521894 0.010000104 0
0.0015382966 -0.0315434 -0.009999875 0
0.0014888325 -0.031607337 0.010000117 0
0.0043968321 -0.031431738 -0.0099998666 0
0.0045130807 -0.031253476 0.010000125 0
0.0076259314 -0.031614713 -0.0099998517 0
0.0072052111 -0.031429615 0.010000135 0
0.0098218648 -0.031572562 -0.0097248778 0
0.010000021 -0.031401798 -0.0074618761 0
0.010000012 -0.031650506 -0.0045429389 0
0.010000001 -0.031433348 -0.0015758894 0
0.0099999895 -0.03141246 0.001416705 0
0.0099999802 -0.031489883 0.0044374829 0
0.009999969 -0.031799883 0.0073245303 0
0.0097821709 -0.031647496 0.0097027365 0
-0.0097603183 -0.028339909 -0.009750681 0
-0.009999969 -0.028515669 -0.007262798 0
-0.0099999793 -0.028247518 -0.0045231404 0
-0.0099999895 -0.02860315 -0.0016024292 0
-0.0099999998 -0.028436171 0.0013556127 0
-0.010000011 -0.028430197 0.0043489789 0
-0.010000024 -0.02840025 0.0076759295 0
-0.0097271428 -0.02847698 0.0097911637 0
-0.0077087265 -0.028282164 -0.0099999215 0
-0.0075888406 -0.028549401 0.010000071 0
-0.0046143588 -0.028343759 -0.0099999094 0
-0.0045866822 -0.028489735 0.010000082 0
-0.0014779932 -0.02836618 -0.0099998992 0
-0.0014311721 -0.028501496 0.010000093 0
0.0015663325 -0.028667927 -0.0099998862 0
0.0014824214 -0.028451497 0.010000103 0
0.0045045074 -0.028438203 -0.009999875 0
0.0044354741 -0.028660372 0.010000114 0
0.0076431679 -0.028388079 -0.0099998657 0
0.0074967793 -0.028452033 0.010000125 0
0.0097796815 -0.028525155 -0.0097088879 0
0.010000024 -0.028474282 -0.0076030912 0
0.010000012 -0.028494693 -0.0044187056 0
0.0099999998 -0.028605672 -0.0016495772 0
0.0099999905 -0.028666535 0.0015365821 0
0.0099999793 -0.028600637 0.0044975546 0
0.0099999672 -0.028421162 0.0075807218 0
0.0098029114 -0.028304446 0.0097245583 0
-0.0097615756 -0.025434487 -0.0097462405 0
-0.009999969 -0.025541309 -0.0073292111 0
-0.0099999784 -0.025601268 -0.0045118253 0
-0.0099999895 -0.025632463 -0.0016230877 0
-0.010000001 -0.025359128 0.0014463807 0
-0.010000011 -0.025563788 0.0042696362 0
-0.010000023 -0.025392875 0.0078379 0
-0.0097579779 -0.02544366 0.0096912701 0
-0.0073626949 -0.0252991 -0.0099999327 0
-0.0076728263 -0.025393099 0.010000059 0
-0.0046100994 -0.025409311 -0.0099999197 0
-0.0044839606 -0.025390849 0.010000071 0
-0.0012794948 -0.025308033 -0.0099999085 0
-0.0015700989 -0.02568957 0.010000084 0
0.001621138 -0.02556726 -0.0099998983 0
0.0016581056 -0.025494905 0.010000092 0
0.0045084991 -0.025361275 -0.0099998862 0
0.0047185337 -0.025610795 0.010000106 0
0.0075198677 -0.025421726 -0.0099998759 0
0.0076922113 -0.025438827 0.010000115 0
0.0098583652 -0.025706664 -0.0096355407 0
0.010000021 -0.02552388 -0.007490213 0
0.010000011 -0.025582509 -0.0045218859 0
0.0099999998 -0.025684303 -0.0013181338 0
0.0099999895 -0.025517773 0.001444176 0
0.0099999793 -0.025482757 0.0044334545 0
0.009999969 -0.025511075 0.0074673183 0
0.0097856019 -0.025333202 0.009714962 0
-0.0097921276 -0.022636944 -0.0097926492 0
-0.0099999672 -0.02249852 -0.0074985209 0
-0.0099999793 -0.022697615 -0.0044544749 0
-0.0099999895 -0.02246844 -0.0013833438 0
-0.0099999998 -0.022408422 0.0015950395 0
-0.010000012 -0.022515593 0.0043619843 0
-0.010000022 -0.022465957 0.0075283726 0
-0.0096932184 -0.022407709 0.0098455418 0
-0.0074837198 -0.022386556 -0.009999942 0
-0.0073182518 -0.022599205 0.010000051 0
-0.0045836056 -0.022420254 -0.0099999299 0
-0.0046066926 -0.022680067 0.01000006 0
-0.0015228671 -0.022520319 -0.0099999188 0
-0.0014424088 -0.022497537 0.010000071 0
0.0016120553 -0.022692464 -0.0099999076 0
0.001401933 -0.022578234 0.010000083 0
0.0045538004 -0.022492491 -0.0099998973 0
0.004643966 -0.022481937 0.010000094 0
0.007374092 -0.02274444 -0.0099998871 0
0.0073864805 -0.022378247 0.010000102 0
0.0097067161 -0.02278384 -0.0097435443 0
0.010000022 -0.022539733 -0.0076402179 0
0.01000001 -0.022392619 -0.0044722129 0
0.010000001 -0.022456888 -0.0014647745 0
0.0099999895 -0.022577472 0.001446372 0
0.0099999793 -0.022695569 0.0045218337 0
0.0099999662 -0.022437638 0.0076305373 0
0.0096410159 -0.022546349 0.0098293917 0
-0.009759252 -0.019537458 -0.0097330762 0
-0.0099999681 -0.019309843 -0.0075360076 0
-0.0099999793 -0.019382827 -0.0044091637 0
-0.0099999905 -0.019484706 -0.0015926985 0
-0.010000002 -0.019461349 0.0015600814 0
-0.010000014 -0.019437779 0.0047914418 0
-0.010000022 -0.019365421 0.0075109494 0
-0.0096918549 -0.019642221 0.0097624874 0
-0.0074215317 -0.019560145 -0.0099999513 0
-0.007409872 -0.019744249 0.010000041 0
-0.0045295497 -0.019415095 -0.009999942 0
-0.0045779129 -0.019399818 0.010000048 0
-0.0015742134 -0.01950953 -0.0099999299 0
-0.0014990518 -0.01944964 0.01000006 0
0.0016408487 -0.019529218 -0.0099999178 0
0.0013054232 -0.019459734 0.010000071 0
0.004560824 -0.019359943 -0.0099999085 0
0.0045115482 -0.019416107 0.010000084 0
0.0074247811 -0.019402729 -0.0099998973 0
0.0075282785 -0.019557023 0.010000093 0
0.0096971896 -0.019558121 -0.0097331302 0
0.010000023 -0.019526357 -0.0074527613 0
0.010000012 -0.019476606 -0.0045479639 0
0.010000002 -0.019543285 -0.0014268676 0
0.0099999886 -0.019359443 0.0016831342 0
0.0099999793 -0.01967394 0.0042834026 0
0.0099999681 -0.019485218 0.0075532994 0
0.0098089501 -0.019370019 0.0097369198 0
-0.0096326107 -0.016518356 -0.0099041229 0
-0.0099999672 -0.016513189 -0.0076148678 0
-0.0099999793 -0.016664742 -0.0044495328 0
-0.0099999905 -0.016602077 -0.0016329042 0
-0.010000001 -0.016614717 0.0015711619 0
-0.010000011 -0.016375769 0.0046220426 0
-0.010000024 -0.016519984 0.0076016951 0
-0.0096952105 -0.016556606 0.0098371282 0
-0.0075480221 -0.016479075 -0.0099999625 0
-0.0075140744 -0.016687715 0.010000029 0
-0.0046851779 -0.016413895 -0.0099999523 0
-0.0045495909 -0.016510606 0.010000038 0
-0.0013389282 -0.016513791 -0.0099999402 0
-0.0015324297 -0.016665731 0.010000051 0
0.0014960506 -0.016336134 -0.0099999309 0
0.0014592239 -0.01653949 0.010000062 0
0.0045555546 -0.016488826 -0.0099999188 0
0.0045777895 -0.016624885 0.010000072 0
0.0075891521 -0.016512701 -0.0099999085 0
0.0076071857 -0.016332079 0.010000083 0
0.0098353662 -0.016584206 -0.0096930703 0
0.010000024 -0.016799007 -0.0075730714 0
0.010000011 -0.016574396 -0.0044490974 0
0.010000001 -0.01677135 -0.0015941712 0
0.0099999895 -0.016425943 0.0015371717 0
0.0099999793 -0.016657684 0.004485161 0
0.0099999681 -0.016543994 0.0074593457 0
0.0097429277 -0.016667001 0.0097440341 0
-0.0097619332 -0.013557666 -0.0097667305 0
-0.0099999681 -0.013649563 -0.0073747719 0
-0.0099999784 -0.013447613 -0.0045484272 0
-0.0099999914 -0.013521966 -0.0013736179 0
-0.010000001 -0.013569342 0.0014227579 0
-0.010000012 -0.013495443 0.0045557329 0
-0.010000023 -0.013446886 0.0074607474 0
-0.0097074602 -0.013609428 0.0097440481 0
-0.0076054605 -0.013598237 -0.0099999737 0
-0.0073441202 -0.013644231 0.010000017 0
-0.0044766786 -0.013441254 -0.0099999625 0
-0.0045490763 -0.013506458 0.010000027 0
-0.0015204038 -0.013617613 -0.0099999513 0
-0.0015220857 -0.013393305 0.010000038 0
0.0015289519 -0.013506019 -0.0099999411 0
0.0014889432 -0.013473924 0.010000049 0
0.0043443684 -0.01344709 -0.0099999318 0
0.0046275696 -0.013345797 0.01000006 0
0.0073962752 -0.01345618 -0.0099999206 0
0.0073561454 -0.013398031 0.010000071 0
0.009810375 -0.01333682 -0.0097635752 0
0.010000023 -0.013584383 -0.0073827314 0
0.010000013 -0.01357103 -0.0046012569 0
0.010000001 -0.013493887 -0.0016318765 0
0.0099999895 -0.0134152 0.0015819785 0
0.0099999802 -0.013394477 0.0044690431 0
0.009999969 -0.013425474 0.0072766994 0
0.0097878342 -0.013575044 0.0096862195 0
-0.0098064663 -0.01047408 -0.0097122937 0
-0.009999969 -0.01032312 -0.007523308 0
-0.0099999793 -0.010549974 -0.0045658802 0
-0.0099999895 -0.010494473 -0.0014318854 0
-0.0099999998 -0.010473745 0.0013743971 0
-0.010000011 -0.01066095 0.0044407928 0
-0.010000022 -0.010464219 0.0075186514 0
-0.0098455092 -0.010432001 0.0096244039 0
-0.0075824573 -0.01037886 -0.0099999849 0
-0.0074383514 -0.010521535 0.010000005 0
-0.0043751816 -0.010465961 -0.0099999737 0
-0.0044367933 -0.010546548 0.010000017 0
-0.0015099294 -0.010483096 -0.0099999616 0
-0.0016552265 -0.010412671 0.010000028 0
0.0014353099 -0.010391313 -0.0099999532 0
0.0012291841 -0.010410861 0.010000037 0
0.0044100904 -0.010370228 -0.009999942 0
0.0045528272 -0.010399468 0.010000049 0
0.0074303788 -0.010454787 -0.0099999309 0
0.0076438538 -0.01067491 0.01000006 0
0.0097952746 -0.010335464 -0.0098376842 0
0.010000023 -0.010262557 -0.0075454144 0
0.010000013 -0.010486812 -0.0045970706 0
0.010000002 -0.010711598 -0.0016116881 0
0.0099999895 -0.010478962 0.001503668 0
0.0099999784 -0.010591005 0.0045223562 0
0.0099999681 -0.010400428 0.0075342194 0
0.0097948285 -0.010541213 0.0097313514 0
-0.0097023528 -0.0074730362 -0.0097956304 0
-0.0099999681 -0.0076015191 -0.0075529194 0
-0.0099999784 -0.0075826286 -0.0045342389 0
-0.0099999905 -0.0075443592 -0.0015074764 0
-0.010000001 -0.0074461135 0.0014379683 0
-0.010000012 -0.0076085404 0.0045684143 0
-0.010000024 -0.0073894011 0.0076111234 0
-0.0097978888 -0.0073415516 0.0097720362 0
-0.007554458 -0.0075270124 -0.0099999951 0
-0.0076189511 -0.0072075385 0.0099999933 0
-0.004558254 -0.0075910916 -0.0099999839 0
-0.004358972 -0.0074851275 0.010000007 0
-0.0015619854 -0.007825681 -0.0099999728 0
-0.0013818784 -0.007442079 0.010000018 0
0.0016478287 -0.0074097705 -0.0099999635 0
0.0015567928 -0.0074766325 0.010000028 0
0.0044258679 -0.0074913595 -0.0099999523 0
0.004148758 -0.0077129146 0.010000038 0
0.0076464363 -0.0075412192 -0.0099999411 0
0.0075579244 -0.0075455355 0.010000049 0
0.0098338863 -0.0075229127 -0.0096734995 0
0.010000021 -0.0076401657 -0.0072830655 0
0.010000011 -0.0075057913 -0.0046240133 0
0.010000002 -0.0075731864 -0.0014315204 0
0.0099999886 -0.0073564141 0.0015162872 0
0.0099999793 -0.0074858242 0.0044206195 0
0.0099999681 -0.0075590564 0.0075004976 0
0.0097292149 -0.0075514377 0.0097160647 0
-0.0097391093 -0.0045175091 -0.009778481 0
-0.0099999672 -0.0043333699 -0.0076068691 0
-0.0099999784 -0.0044997898 -0.0046139201 0
-0.0099999905 -0.0045123524 -0.001414519 0
-0.0099999998 -0.0045835632 0.0012598725 0
-0.010000013 -0.0045080441 0.004599703 0
-0.010000022 -0.0043187509 0.0075178137 0
-0.0098512722 -0.0045135897 0.0096691716 0
