# .PCD v0.7 - Point Cloud Data file format
VERSION 0.7
FIELDS x y z rgb
SIZE 4 4 4 4
TYPE F F F F
COUNT 1 1 1 1
WIDTH 1153
HEIGHT 1
VIEWPOINT 0 0 0 1 0 0 0
POINTS 1153
DATA ascii
0.0033824353 -0.1904795 0.0040132925 0
0.006081847 -0.19066028 -0.0034758905 0
0.0060126167 -0.18999299 -0.002998533 0
-0.00029391141 -0.18840942 -8.9050533e-05 0
-0.00077868992 -0.18744008 0.0012308772 0
-0.00019907633 -0.18721963 0.0033120238 0
0.0017112405 -0.18759236 -0.00069760648 0
0.00043988173 -0.18663086 0.00019639234 0
0.00050100463 -0.18773374 0.0047031101 0
0.0019966194 -0.18734209 0.0073382282 0
0.0058606951 -0.18897666 -0.003011382 0
0.0048134797 -0.1875709 -0.0015751831 0
0.0047148345 -0.18755645 0.0013853142 0
0.0036315413 -0.18737262 0.0043944735 0
0.003075154 -0.18640135 0.0062388061 0
0.0060703633 -0.18768346 -0.0024558736 0
-0.00088194275 -0.18453699 0.0018369987 0
-0.00045611986 -0.18420818 0.0040436741 0
0.002560403 -0.18528821 -0.00027977812 0
0.0012892225 -0.18438983 0.00053925498 0
0.00026162076 -0.18484555 0.0053105922 0
0.0016650845 -0.18448439 0.0077037672 0
0.0016986486 -0.18412201 0.0091394251 0
0.004823186 -0.18459578 -0.00082245178 0
0.0050487136 -0.18442354 0.0013663314 0
0.0037849545 -0.1844603 0.0046826354 0
0.0031654055 -0.18488674 0.0063456972 0
0.0060863225 -0.1848118 -0.0014715487 0
-0.0015013575 -0.18150851 0.001720563 0
-0.0011973744 -0.18141863 0.0044572484 0
-0.00039413568 -0.18085618 0.0068453448 0
0.0028065443 -0.18083823 -7.9706224e-05 0
0.0015620509 -0.18160585 0.00042122998 0
0.0025909464 -0.1808715 0.0052431379 0
0.0012145567 -0.18162858 0.0077546882 0
0.00087012618 -0.18151677 0.0091248192 0
0.0046929615 -0.18145072 -0.0005142368 0
0.0046116859 -0.18162802 0.001499175 0
0.0034567236 -0.18177526 0.004071665 0
-0.0033493419 -0.17782436 0.0019635542 0
-0.0030096967 -0.17729782 0.0034589684 0
-0.0016639435 -0.17860673 0.0012759026 0
-0.0021249061 -0.17857245 0.0045468891 0
-0.00089742494 -0.17822103 0.007569544 0
-0.00037593927 -0.17786099 0.0091218967 0
0.0022705421 -0.17821707 -0.00019694331 0
0.0012420649 -0.17856811 0.00066402758 0
0.0020308986 -0.17840949 0.0046850587 0
0.00084782584 -0.1786457 0.0072956523 0
9.3884679e-05 -0.17913908 0.0091540236 0
0.0042374628 -0.17862529 -0.00057902315 0
0.0038203129 -0.17869778 0.0011565691 0
0.0031767869 -0.17953165 0.0030826759 0
-0.0039697029 -0.17537151 0.001913081 0
-0.00349776 -0.1751276 0.0040539275 0
-0.0015404506 -0.1755009 0.00076510262 0
-0.0026824111 -0.17602994 0.0052782539 0
-0.001386612 -0.17541544 0.0076691085 0
-0.001242097 -0.17534402 0.0091657508 0
0.0018904409 -0.17540129 -0.00037581584 0
0.0019263321 -0.17554012 0.0013681703 0
0.0011468827 -0.17551941 0.0045018955 0
0.00040878207 -0.17625985 0.0065559219 0
0.0035660758 -0.17575817 -0.00068041461 0
0.0031360998 -0.1758281 0.00057157676 0
-0.0045251218 -0.17233458 0.0016495691 0
-0.0041626282 -0.17267524 0.0044532218 0
-0.0033732306 -0.17196499 0.00690505 0
-0.00021881057 -0.17193076 -7.4741394e-05 0
-0.0017076232 -0.17262128 0.00049608515 0
-0.00041780443 -0.17203811 0.0053177844 0
-0.001782183 -0.17263858 0.0077375416 0
-0.0021361089 -0.17260829 0.0091462489 0
0.0017854014 -0.17253785 -0.00051687029 0
0.0014381185 -0.17248525 0.0016971342 0
0.00045799444 -0.17266405 0.0039366763 0
0.0031042187 -0.17365223 -0.0009321798 0
-0.0063175722 -0.16896036 0.0018757464 0
-0.0061034979 -0.16838935 0.0032811607 0
-0.0046855011 -0.16964905 0.0013157732 0
-0.0051694592 -0.16955987 0.0045658681 0
-0.0039514443 -0.16923049 0.0076344092 0
-0.0032818303 -0.16915099 0.0091010621 0
-0.00079948385 -0.16911978 -0.00019517189 0
-0.0017802864 -0.16933055 0.00082265248 0
-0.00093361159 -0.16956408 0.0046573463 0
-0.0021679301 -0.16989508 0.0074364245 0
-0.0028265398 -0.17054854 0.0091733709 0
0.0010680601 -0.16965224 -0.00059419376 0
0.00070975965 -0.16973127 0.0013565746 0
6.2233295e-05 -0.17059772 0.0033137738 0
-0.0069348519 -0.16638894 0.0019527745 0
-0.0065385276 -0.16614273 0.0040546167 0
-0.004493387 -0.16649811 0.00073452934 0
-0.0056209639 -0.16703765 0.0053058895 0
-0.0042798165 -0.16647696 0.0076872394 0
-0.0041948301 -0.16652237 0.0091445278 0
-0.00121567 -0.1664058 -0.00035080212 0
-0.0010417728 -0.16652538 0.0013517109 0
-0.0018419521 -0.16652191 0.0044138455 0
-0.0026945146 -0.16693884 0.0064741005 0
0.00049435487 -0.16661823 -0.00074026838 0
0.00023187605 -0.16722968 0.00059940678 0
-0.0075733773 -0.16329713 0.0017025465 0
-0.0072223693 -0.16351303 0.0045364536 0
-0.0063431696 -0.1630826 0.0069639692 0
-0.003165141 -0.16295284 -9.8612545e-05 0
-0.0047337166 -0.16360007 0.00049162511 0
-0.0034179986 -0.16301154 0.0052280291 0
-0.0046782079 -0.16373849 0.0076953946 0
-0.0052815583 -0.16336025 0.0091437809 0
-0.0013832847 -0.16357385 -0.00051416573 0
-0.001467297 -0.16367227 0.0015271303 0
-0.0025624726 -0.1637782 0.0039895172 0
0.00011272935 -0.1648367 -0.00090400834 0
-0.0092101218 -0.16006306 0.0018882592 0
-0.0078971796 -0.16059059 0.0013640175 0
-0.0081283664 -0.1604726 0.0046201986 0
-0.0069111562 -0.1601589 0.0076791998 0
-0.0063339025 -0.16015238 0.0091734007 0
-0.0039283927 -0.15991914 -0.00027629509 0
-0.0047714394 -0.16051926 0.00068279565 0
-0.0040124008 -0.16050668 0.0047101541 0
-0.0052631185 -0.16054459 0.0073193754 0
-0.0058756708 -0.16172093 0.0090901945 0
-0.0018552541 -0.1605009 -0.00060968066 0
-0.0023293144 -0.16076277 0.0013986647 0
-0.0028503118 -0.16179521 0.0031996486 0
-0.0094250385 -0.15744506 0.0013668223 0
-0.0090037398 -0.15630437 0.0030260417 0
-0.0071759503 -0.15695789 -0.00028636455 0
-0.0079495832 -0.15811764 0.00049296254 0
-0.0084426543 -0.15746133 0.0045044278 0
-0.0070649488 -0.15738514 0.0075622029 0
-0.006745399 -0.15866125 0.0090801036 0
-0.0047766813 -0.15750204 -0.00078528223 0
-0.0036171577 -0.15721649 0.0017973573 0
-0.0048816241 -0.15755624 0.0046147881 0
-0.0057529993 -0.15802751 0.0066988929 0
-0.0023702576 -0.15747941 -0.00099764229 0
-0.0027357731 -0.15807693 0.00049278542 0
-0.0097808512 -0.15406647 -0.0004741743 0
-0.0095990803 -0.15439518 0.0015125115 0
-0.0090535777 -0.15375414 0.0031508633 0
-0.0073652621 -0.15455614 -0.0010703086 0
-0.0077661816 -0.15442075 0.0048714839 0
-0.0072582159 -0.15463164 0.0070577543 0
-0.0042453306 -0.15442178 -0.0015852981 0
-0.0043619946 -0.15441957 0.0016561371 0
-0.0054891263 -0.15475349 0.0041862349 0
-0.0026785729 -0.15474437 -0.0018404468 0
-0.010105801 -0.151355 -0.0011305179 0
-0.0097057698 -0.15159675 0.0014991432 0
-0.0090827318 -0.15125009 0.0033298032 0
-0.0075350925 -0.1516006 -0.0020524408 0
-0.0060967603 -0.15041666 0.0028361301 0
-0.007485738 -0.15134403 0.0046492298 0
-0.0076783351 -0.15184866 0.0065415525 0
-0.0039737495 -0.15084097 -0.0033004098 0
-0.0042711208 -0.15159732 -0.0020130659 0
-0.0051878053 -0.15143259 0.0015679251 0
-0.0058950423 -0.15235358 0.0035830929 0
-0.0028273519 -0.15185416 -0.0032393849 0
-0.0028480152 -0.15232445 -0.0028366668 0
-0.0091836583 -0.14733659 -0.0030571651 0
-0.010297474 -0.14838104 -0.0018332037 0
-0.0097850338 -0.14830233 0.0016200277 0
-0.0091505591 -0.14815453 0.0034604049 0
-0.0072640879 -0.14803933 -0.0033729251 0
-0.007964679 -0.14924522 -0.0027483753 0
-0.0063975672 -0.14819928 0.002125443 0
-0.0079259388 -0.14856853 0.004688744 0
-0.0081380531 -0.1494242 0.0061109206 0
-0.0041446569 -0.14843814 -0.0039181048 0
-0.004663134 -0.14844388 -0.0013500535 0
-0.0055479989 -0.14903402 0.00086943794 0
-0.010082186 -0.14528853 -0.003502121 0
-0.010948142 -0.14544418 -0.0015360215 0
-0.0099326326 -0.14542191 0.0014959554 0
-0.0091773635 -0.14558989 0.0036523892 0
-0.0074570496 -0.14550585 -0.0041991118 0
-0.0062122489 -0.14476052 -0.00035221895 0
-0.0068725231 -0.14552404 0.001496608 0
-0.0082041593 -0.14567198 0.0041976999 0
-0.0045089191 -0.14547127 -0.004487908 0
-0.0053214678 -0.14574482 -0.001624216 0
-0.0058513409 -0.14693972 0.00022893786 0
-0.010716224 -0.14236388 -0.0041968981 0
-0.011072017 -0.14267589 -0.0015500406 0
-0.010037689 -0.14246619 0.0015044261 0
-0.0093114004 -0.14229973 0.0035645778 0
-0.0063147689 -0.14114721 -0.0060507869 0
-0.0074217282 -0.14256106 -0.0052350233 0
-0.006507427 -0.14233713 -0.001222341 0
-0.007741007 -0.14260373 0.0015335822 0
-0.0087020677 -0.14267649 0.0035696551 0
-0.0046410128 -0.14179875 -0.0062553277 0
-0.004953715 -0.14269187 -0.0048223762 0
-0.0057015885 -0.14317521 -0.0024053142 0
-0.012184192 -0.13939461 -0.004600401 0
-0.0093489727 -0.13843796 -0.006107993 0
-0.010865274 -0.13962696 -0.0049540591 0
-0.011163188 -0.13939196 -0.0014661307 0
-0.009924639 -0.13946505 0.0017647065 0
-0.0094663585 -0.14005035 0.0032938924 0
-0.0072260918 -0.13915889 -0.0064677359 0
-0.0069956454 -0.13949844 -0.0043842681 0
-0.0072065271 -0.13954836 -0.0014658703 0
-0.0085169971 -0.1398007 0.0014483555 0
-0.0049828887 -0.13929705 -0.0067993309 0
-0.0054666679 -0.13938218 -0.0051277853 0
-0.012258397 -0.13704163 -0.0047513577 0
-0.00975776 -0.1365869 -0.0061493539 0
-0.01138591 -0.13635643 -0.0048607546 0
-0.01097886 -0.13642307 -0.0014232304 0
-0.009936315 -0.13651641 0.0013657998 0
-0.0074770697 -0.13639835 -0.0065200268 0
-0.00626877 -0.13747883 -0.0037690958 0
-0.0074566868 -0.13655715 -0.0012347357 0
-0.0085064396 -0.1360976 0.00059496687 0
-0.0043269135 -0.13656624 -0.0068957219 0
-0.0047101248 -0.13627082 -0.0046953512 0
-0.005733218 -0.13538575 -0.0025738978 0
-0.0024211069 -0.1353471 -0.0070893252 0
-0.0093182279 -0.13480245 -0.0060292119 0
-0.010011679 -0.13361353 -0.0048021683 0
-0.0097049577 -0.13417239 -0.0014944372 0
-0.0092407847 -0.13459717 0.0012558787 0
-0.0075046141 -0.13359778 -0.0061905975 0
-0.0086192591 -0.13241051 -0.0054601682 0
-0.0076891631 -0.13338861 -0.00090224517 0
-0.0077117695 -0.13333482 0.0012615976 0
-0.0045238491 -0.13355826 -0.0066807931 0
-0.0037281446 -0.13412082 -0.0040261429 0
-0.0048579969 -0.1331708 -0.0017080391 0
-0.0059282295 -0.13225886 0.00049865688 0
-0.0015778847 -0.13331892 -0.006871385 0
-0.0021987341 -0.1330241 -0.005011945 0
7.3678704e-05 -0.1321052 -0.0072754659 0
-0.0090494025 -0.13176118 -0.0051699313 0
-0.0065305568 -0.13120311 -0.0060757054 0
-0.0078002177 -0.13055389 -0.0047608758 0
-0.0071898499 -0.13058037 -0.0014567171 0
-0.0066842414 -0.13103612 0.0011042102 0
-0.0045854924 -0.13038839 -0.0063036336 0
-0.0059311665 -0.12932642 -0.0059594414 0
-0.0038048341 -0.13065328 -0.0010198042 0
-0.0052428283 -0.13011605 0.0012051592 0
-0.0014589094 -0.13058269 -0.0067729554 0
-0.001155501 -0.13083696 -0.0043865815 0
-0.0023366285 -0.13002235 -0.0021292379 0
0.00087144953 -0.13033535 -0.0068828166 0
0.00051991525 -0.12961212 -0.0054425714 0
-0.0064382516 -0.12828237 -0.0049230754 0
-0.0061437017 -0.1286824 -0.0024466112 0
-0.0036906393 -0.12776224 -0.0061497488 0
-0.005181584 -0.12706001 -0.0048550246 0
-0.0049279272 -0.12740964 -0.001566213 0
-0.0041777184 -0.12778272 0.001230398 0
-0.0015067316 -0.12740889 -0.0064697261 0
-0.00028235881 -0.12857938 -0.0034785951 0
-0.0012679083 -0.12758222 -0.00130932 0
-0.0025164976 -0.1269746 0.00085217849 0
0.0016986441 -0.12762325 -0.0068769525 0
0.0014830464 -0.12731196 -0.0046121706 0
0.00032430529 -0.12636274 -0.0022640578 0
0.0034107876 -0.12683201 -0.0069049546 0
-0.0030174216 -0.12549336 -0.0060007046 0
-0.0038848452 -0.12478571 -0.0047708089 0
-0.0034774877 -0.12512007 -0.001768769 0
-0.0032262565 -0.12578475 0.00078215147 0
-0.0012560691 -0.12481824 -0.0062138843 0
-0.0025222145 -0.12352151 -0.004988105 0
-0.0020044898 -0.12424609 -0.0010925205 0
-0.0018332581 -0.12463449 0.0012435672 0
0.0014915095 -0.12441222 -0.0066206572 0
0.0025013431 -0.1249409 -0.0037890675 0
0.0013280715 -0.12439977 -0.0017897529 0
0.00017444452 -0.12349399 0.00051266054 0
0.0047180252 -0.12421145 -0.0069415886 0
0.0038402053 -0.12417652 -0.0048260186 0
0.0030487932 -0.12307335 -0.0028126291 0
0.0062548849 -0.12325194 -0.0072338576 0
-0.00045656381 -0.12256045 -0.0060869446 0
-0.001531299 -0.12149273 -0.0048554619 0
-0.0010596642 -0.12168724 -0.0016540164 0
-0.00063726533 -0.12226707 0.0012074322 0
0.0015485308 -0.1215331 -0.0062999558 0
0.00021580402 -0.12053194 -0.0059653153 0
0.0019860147 -0.12159326 -0.00085900561 0
0.00088830973 -0.12119608 0.0011990359 0
0.0044727284 -0.12156961 -0.006758892 0
0.0050441064 -0.12172826 -0.0042461571 0
0.0035859151 -0.12125565 -0.0020131716 0
0.0068619121 -0.12140328 -0.0068394882 0
0.0063388604 -0.1209864 -0.0054252776 0
-0.00029352805 -0.11852709 -0.0044891271 0
-8.2502513e-05 -0.11837124 -0.0026360636 0
0.0017330905 -0.11977375 -0.0061064707 0
0.0014008709 -0.118292 -0.0055772574 0
0.00016459321 -0.11869784 -0.0010412877 0
0.0012166626 -0.11858077 0.0015687994 0
0.00066694268 -0.11766732 0.0032275855 0
0.0047215875 -0.11934856 -0.0062800734 0
0.0048353374 -0.11823998 -0.0049399151 0
0.0041447291 -0.11838681 -0.0015133629 0
0.0031564524 -0.11745659 0.00012786116 0
0.0069259559 -0.11911672 -0.0063595199 0
0.0067103296 -0.11822463 -0.0051391525 0
-0.00028953404 -0.11581122 -0.0038590711 0
-0.00010631379 -0.11522657 -0.0017760703 0
0.0016494538 -0.11544769 -0.0045903255 0
6.831489e-05 -0.11571393 -0.00044087152 0
0.0011785973 -0.11549715 0.0018254558 0
0.00083756348 -0.11535791 0.0036711572 0
0.0043692123 -0.11548402 -0.0048422618 0
0.004772224 -0.11563288 -0.0013702424 0
0.0033998552 -0.11513869 0.00062621024 0
0.0069037476 -0.11573473 -0.0046097082 0
0.0061333501 -0.11439836 -0.0027391927 0
-0.00030847086 -0.11285111 -0.0032940339 0
-0.000187668 -0.11227073 -0.0015762593 0
-6.3618163e-06 -0.11189955 0.00027758299 0
0.0015269845 -0.1123622 -0.0034752884 0
0.00032148327 -0.11200063 -0.001771731 0
0.00092681369 -0.11272318 0.0019121541 0
0.001055978 -0.11238105 0.0041935043 0
0.0045959414 -0.11244176 -0.0038046385 0
0.0051683979 -0.11266802 -0.00084538863 0
0.0037760001 -0.11243401 0.0010841404 0
0.0071084807 -0.11262105 -0.0038338541 0
0.0063957302 -0.11237541 -0.0023705557 0
-0.00026478624 -0.10954554 -0.0012248384 0
-6.1299907e-05 -0.10947723 0.00066762761 0
0.0014674603 -0.10956215 -0.0024687389 0
0.00019639242 -0.10959164 0.0019996737 0
0.0012293378 -0.10951351 0.0044262265 0
0.00064931094 -0.10888408 0.0063229338 0
0.0047159274 -0.11060716 -0.0031663557 0
0.0048294049 -0.10955527 -0.0019691056 0
0.0043235766 -0.10928394 0.0014699945 0
0.0031482037 -0.10870282 0.0032234197 0
0.0069204401 -0.11031456 -0.0032544266 0
0.0068818061 -0.1091596 -0.0021365175 0
-0.00030332198 -0.10645527 -0.00070283859 0
-0.0001363801 -0.10621049 0.0011786586 0
0.0014496502 -0.10653435 -0.001387208 0
5.5831591e-05 -0.10672026 0.0026389251 0
0.0012017434 -0.10662614 0.0046965145 0
0.00082809746 -0.10642756 0.0066734129 0
0.0044321162 -0.10664472 -0.0016913813 0
0.0048627364 -0.1065715 0.0017124527 0
0.0034876228 -0.10630845 0.0036164301 0
0.0068521909 -0.10640943 -0.0014557012 0
0.0061989459 -0.10544072 0.00034782718 0
-0.00028693417 -0.10430665 -0.00024995088 0
-0.00024986631 -0.10354714 0.0014870892 0
-0.00019334466 -0.10252137 0.0041688154 0
-0.00011386207 -0.1022938 0.0070115384 0
0.0015951797 -0.10359047 -0.00035705057 0
0.0012022856 -0.10234939 0.00010395607 0
0.0011802622 -0.10392407 0.0049402695 0
0.00090447045 -0.10352752 0.0071371598 0
0.0045326841 -0.10363411 -0.00067630038 0
0.005308961 -0.10365877 0.0021469505 0
0.003916265 -0.10326421 0.0040901084 0
0.0070139403 -0.10359283 -0.00076777232 0
0.006495696 -0.10330985 0.0007059006 0
-0.0010224198 -0.10049088 0.0011181016 0
-0.0010441703 -0.10043777 0.0045974203 0
-0.00069485093 -0.10055774 0.0073831086 0
0.001477916 -0.1004627 0.0001373079 0
0.0022381323 -0.10032585 0.0052257595 0
0.00090025383 -0.10067065 0.0066978396 0
0.0050267759 -0.10174368 -5.7502679e-05 0
0.0047476068 -0.10025185 0.0010102367 0
0.0038382204 -0.10054539 0.0037285753 0
0.0071383514 -0.10142367 -0.0001512867 0
0.006658541 -0.10042696 0.00062367681 0
-0.0030568994 -0.096200898 0.00090133696 0
-0.0019476902 -0.097459242 0.00093879906 0
-0.0022613243 -0.097437426 0.0045068958 0
-0.0015312996 -0.097375736 0.0071764616 0
0.001523898 -0.097449891 0.00017087483 0
0.0016938435 -0.097418927 0.0045544733 0
0.00034165574 -0.09837503 0.0062955809 0
0.0045677926 -0.097311333 0.00086614501 0
0.0033765619 -0.098543778 0.003352609 0
0.0063054734 -0.098229937 0.00012650479 0
-0.0037077214 -0.094326727 0.0011780699 0
-0.0035590837 -0.09449736 0.0044217496 0
-0.003444771 -0.094150878 0.0073447116 0
-0.0014008556 -0.094487719 0.00014567138 0
-0.00098828936 -0.094580941 0.0053090765 0
-0.0019521366 -0.094711326 0.0069526532 0
0.0018930162 -0.09440618 0.00080315233 0
0.0010769509 -0.094512671 0.003955543 0
0.0041158269 -0.094625503 0.00058757287 0
-0.0046235127 -0.091419339 0.0010183125 0
-0.0048284964 -0.091459163 0.0045535415 0
-0.0042863335 -0.091421105 0.0072593661 0
-0.0013081189 -0.091333069 0.00011353914 0
-0.0011519978 -0.091211267 0.0047920914 0
-0.002574818 -0.091723397 0.006418711 0
0.0017130332 -0.091452785 0.00096304424 0
0.00048859831 -0.091945074 0.0034681601 0
0.003479464 -0.09198235 0.00030162567 0
-0.0064091273 -0.088068917 0.0015876744 0
-0.0063445726 -0.087833412 0.0046481537 0
-0.0062361988 -0.087672122 0.007097404 0
-0.0046977401 -0.088664584 0.00043585408 0
-0.0050382242 -0.089006022 0.0048191752 0
-0.0049801632 -0.0885996 0.0071235988 0
-0.0012255876 -0.088519685 0.00060380239 0
-0.0017898391 -0.088535868 0.0043078931 0
0.0012780696 -0.088661686 0.00072643789 0
-0.0072183628 -0.085503928 0.00097640371 0
-0.0073231892 -0.085496671 0.0046839854 0
-0.0069324737 -0.085403845 0.0073285368 0
-0.0044604358 -0.085418686 0.00012843241 0
-0.0039403937 -0.085320421 0.005101548 0
-0.0052471771 -0.085949175 0.0066645555 0
-0.0012326244 -0.085398175 0.00097673212 0
-0.0023156421 -0.085621864 0.0036112091 0
0.00073873356 -0.085827619 0.00036559359 0
-0.0070808404 -0.081686579 -0.00012419018 0
-0.0079044262 -0.082745545 0.0011132836 0
-0.0081961704 -0.082571216 0.0045157913 0
-0.0074885003 -0.082462035 0.0071782046 0
-0.0045592762 -0.081593536 -0.00015076542 0
-0.0044140187 -0.083287925 9.110658e-05 0
-0.0044404501 -0.08259172 0.0045991479 0
-0.0057783467 -0.083468311 0.0061548436 0
-0.0013948021 -0.081734128 -0.00013676556 0
-0.0014618913 -0.082688041 0.0011241481 0
-0.0028444268 -0.083802789 0.0033757698 0
4.9383063e-05 -0.08143501 -5.4551059e-05 0
0.00020979597 -0.083403006 0.0001092684 0
-0.0070520071 -0.079659946 -0.00045165807 0
-0.0077626221 -0.079414204 0.0014869868 0
-0.0077612312 -0.079509236 0.0044445707 0
-0.0071845106 -0.079564191 0.0068008848 0
-0.0045662997 -0.079568557 -0.00052729162 0
-0.0044958601 -0.079410568 0.0044961148 0
-0.0014764465 -0.079527035 -0.00054687198 0
-0.0015014581 -0.079309501 0.0015017343 0
0.0002938968 -0.079184636 -0.00041803098 0
-0.0068517015 -0.07654427 -0.00081341743 0
-0.0072262608 -0.076486729 0.0015701936 0
-0.00720033 -0.07643801 0.0044485629 0
-0.006795953 -0.076532863 0.0065597873 0
-0.0045055533 -0.076477438 -0.0011034781 0
-0.0044613103 -0.076500215 0.0044615548 0
-0.0016137245 -0.076579399 -0.0010944728 0
-0.0014269809 -0.076396391 0.0014272473 0
0.00059717649 -0.076449566 -0.00087688083 0
-0.0065663396 -0.073375836 -0.0010661724 0
-0.0066836504 -0.073523387 0.001437007 0
-0.0066797156 -0.073588602 0.0044849692 0
-0.0065101739 -0.073897511 0.0063660033 0
-0.0045917495 -0.073417261 -0.0016769498 0
-0.0045785569 -0.073367327 0.0045787888 0
-0.0014794659 -0.073253363 -0.0017135325 0
-0.0013760801 -0.073547393 0.0013763363 0
0.00090175745 -0.073456831 -0.0013332228 0
-0.0062042465 -0.070922762 -0.0012769985 0
-0.0061887586 -0.070824727 0.0013996213 0
-0.0061810133 -0.07085824 0.0044967425 0
-0.0061778659 -0.071536563 0.0061563374 0
-0.0049356855 -0.070318393 -0.0020690833 0
-0.005925159 -0.06939055 0.0017204086 0
-0.0047914144 -0.070366412 0.0045264969 0
-0.0017066177 -0.070530802 -0.0022209832 0
-0.0013710003 -0.070486829 0.0013712455 0
0.0010576542 -0.070535742 -0.0015365985 0
-0.003996741 -0.066139974 -0.0030452528 0
-0.0048858859 -0.067607887 -0.001979047 0
-0.0056014843 -0.067626804 0.0015801701 0
-0.0048626754 -0.067619354 0.0042904606 0
-0.0018487608 -0.066196151 -0.0030346795 0
-0.0016079482 -0.067765206 -0.0027396991 0
-0.0014951809 -0.067679554 0.0014954152 0
0.0015874871 -0.066231333 -0.0030312189 0
0.0012863121 -0.06745594 -0.0018458691 0
-0.004218406 -0.064397641 -0.0033416115 0
-0.0050393897 -0.064567886 -0.0015693848 0
-0.0050461316 -0.064604491 0.0014395098 0
-0.0044706678 -0.064669788 0.0039642267 0
-0.001413619 -0.064448923 -0.003363223 0
-0.0013412905 -0.064647771 0.0013415148 0
0.0014234746 -0.064522125 -0.0033505473 0
0.0014289794 -0.064573333 -0.0014287354 0
0.0032358412 -0.063739501 -0.0033515675 0
-0.0091996696 -0.060000036 -0.0091735097 0
-0.0095784143 -0.060000032 -0.0087031238 0
-0.0094788382 -0.060000021 -0.0047168559 0
-0.0094255498 -0.06000001 -0.001816269 0
-0.0095146373 -0.059999999 0.0010234565 0
-0.009382328 -0.059999976 0.0068319477 0
-0.0094385212 -0.059999969 0.0093903411 0
-0.0084456969 -0.060000036 -0.0095395045 0
-0.007487379 -0.060000028 -0.0076184417 0
-0.0072418931 -0.059999999 -0.0044965218 0
-0.007708936 -0.05999998 -0.001520797 0
-0.0074566547 -0.059999995 0.0014020951 0
-0.0075038117 -0.059999969 0.0043034684 0
-0.0070980662 -0.059999965 0.007264948 0
-0.0068896599 -0.059999969 0.0093993256 0
-0.0043122326 -0.060000036 -0.0095767286 0
-0.0045137694 -0.060000014 -0.0074867997 0
-0.004214467 -0.060991086 -0.0039009333 0
-0.0043979739 -0.061137125 -0.0013933348 0
-0.004407777 -0.061081406 0.0015894405 0
-0.0041240449 -0.061382174 0.0037589872 0
-0.0043172576 -0.059999943 0.0073667546 0
-0.0042856121 -0.059999973 0.0096804462 0
-0.0020438449 -0.060000036 -0.0096255578 0
-0.0015523577 -0.060000017 -0.0079759266 0
-0.0013491999 -0.061024081 -0.0039765467 0
-0.0013737442 -0.059999969 -0.0014067109 0
-0.0015171728 -0.061082985 0.0013630313 0
-0.0015714534 -0.059999973 0.0047423267 0
-0.0014361357 -0.059999954 0.0074855709 0
-0.0015170202 -0.059999969 0.0094879083 0
0.0017603836 -0.060000036 -0.009293261 0
0.0017502444 -0.060000006 -0.0074267341 0
0.0015666998 -0.061064765 -0.0040427833 0
0.0013934383 -0.061109491 -0.0015343634 0
0.001361687 -0.059999973 0.001563944 0
0.0017575967 -0.059999965 0.0044813002 0
0.001571139 -0.059999961 0.0074218488 0
0.0011280712 -0.059999969 0.0095039504 0
0.0044389376 -0.06000004 -0.0095843924 0
0.0042479932 -0.060000028 -0.0072125187 0
0.003871904 -0.06116081 -0.0038719492 0
0.0042351256 -0.060000006 -0.0011594401 0
0.0044007455 -0.059999973 0.0017971499 0
0.0046653291 -0.059999958 0.0046050707 0
0.0042853425 -0.059999961 0.0073846527 0
0.0047108815 -0.059999969 0.0094305612 0
0.0071493243 -0.060000036 -0.0093476502 0
0.0073209857 -0.059999999 -0.0074810735 0
0.0074652592 -0.060000002 -0.0046667228 0
0.0075022299 -0.05999998 -0.0015455654 0
0.0076407581 -0.059999973 0.0016069177 0
0.0076069678 -0.059999961 0.0048017884 0
0.0073872502 -0.059999954 0.0073443213 0
0.0070588314 -0.059999969 0.0095915524 0
0.0094991578 -0.06000004 -0.0097916527 0
0.0092985947 -0.060000032 -0.0077278088 0
0.0094622746 -0.060000017 -0.004347167 0
0.0098005114 -0.06000001 -0.0018483348 0
0.0096422862 -0.059999999 0.001304594 0
0.0094644614 -0.059999991 0.0044732215 0
0.0096688988 -0.059999973 0.008606826 0
0.0091539454 -0.059999969 0.0091945129 0
-0.0096855285 -0.058796853 -0.0097361682 0
-0.0099127442 -0.0586918 -0.0073607615 0
-0.0098743737 -0.058859158 -0.0045659612 0
-0.009852347 -0.058915488 -0.0013800743 0
-0.0098945163 -0.058912493 0.0015264148 0
-0.0099045681 -0.058766641 0.0045625032 0
-0.0098915789 -0.058733623 0.0076129655 0
-0.0096730934 -0.058805447 0.0097408649 0
-0.007498872 -0.058815468 -0.0098845959 0
-0.0074723265 -0.05999998 -0.0074284221 0
-0.007379326 -0.059999973 -0.0044019464 0
-0.007278719 -0.059999961 -0.0014770715 0
-0.0075898967 -0.059999954 0.0013255447 0
-0.0073553771 -0.059999943 0.0045664888 0
-0.0075202584 -0.059999939 0.0074059148 0
-0.0075035072 -0.059018441 0.0099095637 0
-0.004753862 -0.058723669 -0.0099573703 0
-0.0044304361 -0.059999987 -0.0073920344 0
-0.0044096694 -0.059999969 -0.0043238564 0
-0.0042397371 -0.059999961 -0.0014618199 0
-0.0043134862 -0.05999995 0.001473683 0
-0.004403037 -0.059999943 0.0042298483 0
-0.0048178723 -0.059999939 0.0074219764 0
-0.0044434657 -0.058783367 0.0099034738 0
-0.0014895824 -0.058783062 -0.0099266563 0
-0.0015713068 -0.059999987 -0.0075910236 0
-0.0015811089 -0.059999969 -0.0042601977 0
-0.0014196774 -0.059999958 -0.0014978908 0
-0.0016369907 -0.05999995 0.0014198108 0
-0.0014907609 -0.059999939 0.0045052348 0
-0.0015324182 -0.059999935 0.0073817228 0
-0.0014930274 -0.058842298 0.0098550338 0
0.0014500213 -0.058808755 -0.0098940264 0
0.0015566945 -0.059999984 -0.0076941848 0
0.0014187966 -0.059999969 -0.0041794763 0
0.0013788114 -0.059999961 -0.0017222256 0
0.0014819014 -0.059999958 0.0012988675 0
0.0014569712 -0.059999943 0.00446914 0
0.0014726865 -0.059999939 0.0074018333 0
0.0014947972 -0.058834154 0.0099228844 0
0.0045914664 -0.058868136 -0.0099003967 0
0.0044531231 -0.059999991 -0.0075951805 0
0.0042727166 -0.059999973 -0.0043705725 0
0.0044669779 -0.059999965 -0.0015561023 0
0.0045599034 -0.059999958 0.0013417905 0
0.0044970973 -0.059999947 0.0044461084 0
0.0044006957 -0.059999939 0.0075415969 0
0.0046189982 -0.058351871 0.0099362861 0
0.0075873476 -0.058890447 -0.0099194637 0
0.0075163869 -0.059999984 -0.0074458984 0
0.0075953347 -0.059999976 -0.0044161091 0
0.0075244778 -0.059999961 -0.001480644 0
0.0074775163 -0.05999995 0.0015401075 0
0.0076573887 -0.059999947 0.0046979599 0
0.0072262143 -0.059999939 0.0076574883 0
0.0074214367 -0.058756012 0.0099254819 0
0.0097802524 -0.058804665 -0.00965604 0
0.0099252975 -0.058729175 -0.0072545004 0
0.0099372091 -0.058863129 -0.0047101839 0
0.0098877084 -0.058802366 -0.0016084278 0
0.0099340901 -0.058597323 0.0015378805 0
0.0098629603 -0.058887899 0.0045225895 0
0.0099062761 -0.058748364 0.0076094065 0
0.0096865203 -0.058782637 0.0096764965 0
-0.0097375112 -0.055475794 -0.0097396504 0
-0.0099999672 -0.055469874 -0.0073615666 0
-0.0099999784 -0.055459559 -0.0045955088 0
-0.0099999895 -0.055633854 -0.0012519323 0
-0.010000001 -0.055507597 0.0015669364 0
-0.01000001 -0.055428192 0.004485542 0
-0.010000021 -0.055387057 0.0074908831 0
-0.0097402781 -0.055445466 0.0097766453 0
-0.0077219442 -0.055483013 -0.009999821 0
-0.007440459 -0.055465348 0.010000168 0
-0.0044120094 -0.055438615 -0.0099998107 0
-0.0045709182 -0.055615135 0.01000018 0
-0.0015097068 -0.055384833 -0.0099997995 0
-0.0014629845 -0.055435739 0.010000189 0
0.0015330013 -0.055703867 -0.0099997865 0
0.0014632939 -0.055529285 0.010000201 0
0.004464414 -0.055451598 -0.0099997781 0
0.0045998879 -0.05557904 0.010000212 0
0.0073514753 -0.055648305 -0.009999766 0
0.0076229204 -0.055536032 0.010000223 0
0.0097817983 -0.05530059 -0.0097307153 0
0.010000021 -0.055432476 -0.0075682346 0
0.010000011 -0.055620324 -0.0044346894 0
0.0099999998 -0.055688109 -0.0016576402 0
0.0099999895 -0.055623062 0.0014945584 0
0.0099999774 -0.055479757 0.0046385988 0
0.0099999672 -0.055606548 0.0073990771 0
0.0097284894 -0.055436149 0.0097888522 0
-0.0098113613 -0.052511446 -0.009775077 0
-0.0099999672 -0.05253895 -0.0074994992 0
-0.0099999793 -0.052439157 -0.0044475808 0
-0.0099999895 -0.052546937 -0.0014157931 0
-0.0099999998 -0.052636757 0.001575438 0
-0.010000012 -0.052425288 0.0045981803 0
-0.010000021 -0.05247299 0.0074763517 0
-0.0097457943 -0.052518923 0.0097847693 0
-0.0074959267 -0.052620344 -0.0099998303 0
-0.00755698 -0.052382421 0.010000157 0
-0.0043886085 -0.052437797 -0.009999821 0
-0.0045694727 -0.052374393 0.010000168 0
-0.0014569162 -0.052495569 -0.0099998089 0
-0.0014713324 -0.052471466 0.010000179 0
0.0015813296 -0.052436903 -0.0099997986 0
0.0014920942 -0.052409742 0.01000019 0
0.0046262923 -0.052402534 -0.0099997874 0
0.0046384991 -0.052543208 0.010000201 0
0.0074026785 -0.052403983 -0.0099997781 0
0.0075992229 -0.052383058 0.010000212 0
0.0097681917 -0.052413661 -0.0097155618 0
0.010000022 -0.052563641 -0.0075371326 0
0.01000001 -0.052564528 -0.0044361502 0
0.0099999998 -0.052521903 -0.001482491 0
0.0099999886 -0.052538559 0.0015688101 0
0.0099999774 -0.052552667 0.0046196124 0
0.0099999672 -0.052342616 0.0074721761 0
0.0097139338 -0.052598037 0.0097469436 0
-0.009828195 -0.049606975 -0.0096763372 0
-0.0099999672 -0.049455505 -0.0077931425 0
-0.0099999784 -0.04950932 -0.0045952303 0
-0.0099999895 -0.04956935 -0.0015459971 0
-0.0099999998 -0.04963826 0.0016475886 0
-0.01000001 -0.049333423 0.0043643606 0
-0.010000021 -0.04932965 0.0074462104 0
-0.0098562175 -0.049482174 0.0096629309 0
-0.0075070355 -0.049460206 -0.0099998433 0
-0.0075109429 -0.049365245 0.010000146 0
-0.0045807385 -0.049518581 -0.0099998312 0
-0.0043694247 -0.049394563 0.010000157 0
-0.0015251185 -0.049636129 -0.00999982 0
-0.0012776535 -0.049671099 0.010000169 0
0.0015444114 -0.04924424 -0.0099998107 0
0.0014883124 -0.049597722 0.01000018 0
0.0046549742 -0.049683999 -0.0099997986 0
0.0045598466 -0.049395829 0.01000019 0
0.0075694197 -0.049582548 -0.0099997865 0
0.0073512588 -0.049450897 0.010000202 0
0.0097523397 -0.049616039 -0.0097580785 0
0.010000021 -0.04945121 -0.0073679057 0
0.010000011 -0.04948226 -0.0045127301 0
0.0099999998 -0.049641229 -0.0014814808 0
0.0099999886 -0.049416538 0.0015718291 0
0.0099999774 -0.049559932 0.0043779323 0
0.0099999672 -0.049463663 0.0074446579 0
0.0097602801 -0.049483754 0.0096789198 0
-0.0097865714 -0.046370942 -0.0097014653 0
-0.0099999681 -0.046530735 -0.0074372613 0
-0.0099999774 -0.046457078 -0.0045377947 0
-0.0099999886 -0.046515327 -0.0016542242 0
-0.0099999998 -0.046474881 0.0015404409 0
-0.010000011 -0.046471737 0.0045317193 0
-0.010000022 -0.046402354 0.0075017898 0
-0.0098125255 -0.046668056 0.0096957143 0
-0.0074648601 -0.046656016 -0.0099998536 0
-0.0074745389 -0.046635006 0.010000136 0
-0.0042660427 -0.046548817 -0.0099998424 0
-0.0045385924 -0.046595149 0.010000146 0
-0.0014681263 -0.046445929 -0.0099998312 0
-0.0014681455 -0.046469755 0.010000156 0
0.0014851235 -0.046498425 -0.009999821 0
0.0015344261 -0.046469051 0.010000168 0
0.0045751813 -0.046621643 -0.0099998089 0
0.0044731521 -0.046547398 0.010000179 0
0.0074295164 -0.046376742 -0.0099997986 0
0.0074973647 -0.046412487 0.010000189 0
0.0097918315 -0.046565093 -0.0097124092 0
0.010000022 -0.046523143 -0.007596611 0
0.01000001 -0.046485111 -0.0044788662 0
0.010000001 -0.046497058 -0.0014730091 0
0.0099999877 -0.046604998 0.0015514592 0
0.0099999784 -0.046424568 0.0044701332 0
0.0099999672 -0.046400603 0.0075871949 0
0.0098557286 -0.046561636 0.0096971774 0
-0.0097320089 -0.043489169 -0.0097940993 0
-0.0099999672 -0.043507267 -0.0075482647 0
-0.0099999774 -0.043631863 -0.0046116859 0
-0.0099999886 -0.043408651 -0.0014333023 0
-0.0099999998 -0.043595351 0.0015399767 0
-0.010000009 -0.043600682 0.004443232 0
-0.010000023 -0.043438591 0.0076523968 0
-0.0097784381 -0.043294899 0.0097339675 0
-0.007712889 -0.043367837 -0.0099998647 0
-0.0075232675 -0.04357383 0.010000125 0
-0.0045781783 -0.043333426 -0.0099998545 0
-0.0045826202 -0.043505289 0.010000135 0
-0.0014272799 -0.043500476 -0.0099998424 0
-0.0015185567 -0.043612599 0.010000147 0
0.0015117164 -0.043499269 -0.0099998312 0
0.0016588999 -0.043507967 0.010000157 0
0.0044335597 -0.043475445 -0.009999821 0
0.0045395596 -0.043443631 0.010000168 0
0.0075957747 -0.043284532 -0.0099998116 0
0.0076471814 -0.043544561 0.01000018 0
0.0097854063 -0.043523829 -0.0097586149 0
0.010000021 -0.043402195 -0.0075198729 0
0.01000001 -0.043399617 -0.0043852809 0
0.0099999998 -0.04354142 -0.001611311 0
0.0099999886 -0.043517519 0.0015213827 0
0.0099999784 -0.043433961 0.0045815343 0
0.0099999672 -0.043484218 0.0074770101 0
0.0098417476 -0.043559883 0.0096393926 0
-0.009691366 -0.040524431 -0.009771402 0
-0.0099999662 -0.04066788 -0.007514006 0
-0.0099999774 -0.040541574 -0.0047276989 0
-0.0099999886 -0.040452715 -0.0015475665 0
-0.010000002 -0.040405717 0.0016764601 0
-0.010000011 -0.040492646 0.0046111494 0
-0.010000021 -0.040592082 0.0074904184 0
-0.0097492319 -0.040461674 0.009789831 0
-0.0074614226 -0.040610176 -0.009999874 0
-0.0077068722 -0.040404044 0.010000113 0
-0.0044337609 -0.040533539 -0.0099998629 0
-0.0046166331 -0.040432796 0.010000124 0
-0.0016800454 -0.040524054 -0.0099998536 0
-0.0014849165 -0.040422894 0.010000135 0
0.0015867775 -0.04065318 -0.0099998415 0
0.0015252447 -0.040425487 0.010000147 0
0.0045095813 -0.040388841 -0.0099998312 0
0.0044818847 -0.040572666 0.010000157 0
0.0074908375 -0.040608019 -0.00999982 0
0.0073653529 -0.04065555 0.010000168 0
0.0097588757 -0.040312611 -0.0097288871 0
0.010000021 -0.04061576 -0.007479012 0
0.010000011 -0.040448956 -0.0044294586 0
0.0099999998 -0.04042073 -0.0015012012 0
0.0099999886 -0.040481742 0.0014156883 0
0.0099999784 -0.040471923 0.0044786213 0
0.0099999681 -0.040597051 0.0074915043 0
0.0097638564 -0.040393576 0.009737581 0
-0.0096640969 -0.037227955 -0.0098370826 0
-0.0099999662 -0.037546407 -0.007469032 0
-0.0099999784 -0.037438702 -0.0044074524 0
-0.0099999886 -0.037520446 -0.0016489051 0
-0.010000001 -0.037438672 0.0015451799 0
-0.010000009 -0.037417479 0.0044985171 0
-0.01000002 -0.037523061 0.007474049 0
-0.0097452579 -0.037374891 0.0097382441 0
-0.007337465 -0.037437204 -0.0099998862 0
-0.0074124932 -0.037458804 0.010000102 0
-0.0045260405 -0.037397735 -0.0099998759 0
-0.0046320991 -0.037658725 0.010000113 0
-0.0016597349 -0.037285198 -0.0099998647 0
-0.0014617274 -0.037508007 0.010000125 0
0.0015659095 -0.037506305 -0.0099998526 0
0.0014442179 -0.037445594 0.010000136 0
0.0045779306 -0.037604906 -0.0099998415 0
0.0043846625 -0.037322886 0.010000145 0
0.0074935467 -0.037517425 -0.0099998312 0
0.0074672806 -0.037490018 0.010000157 0
0.0097440733 -0.037607156 -0.0097209988 0
0.01000002 -0.037619617 -0.0074257138 0
0.010000011 -0.037317693 -0.0044909539 0
0.0099999998 -0.037511297 -0.0015206786 0
0.0099999886 -0.037565991 0.0016344555 0
0.0099999784 -0.037702151 0.0043941378 0
0.0099999653 -0.037457492 0.007645776 0
0.0097094513 -0.037469722 0.0098646916 0
-0.0097962152 -0.034347497 -0.0096505824 0
-0.0099999672 -0.034574624 -0.0077823601 0
-0.0099999784 -0.034501739 -0.0042979885 0
-0.0099999886 -0.034595724 -0.0014314417 0
-0.0099999988 -0.034591179 0.0015849478 0
-0.010000011 -0.034626279 0.0046554864 0
-0.01000002 -0.034537088 0.0073234639 0
-0.0096890535 -0.034489125 0.0098058218 0
-0.0074589606 -0.034518138 -0.0099998964 0
-0.0075654783 -0.034552272 0.010000092 0
-0.0044785626 -0.034555659 -0.0099998843 0
-0.0046039852 -0.034459163 0.010000102 0
-0.0013731952 -0.034459464 -0.009999874 0
-0.0014818645 -0.034578465 0.010000113 0
0.0014768015 -0.034427337 -0.0099998638 0
0.0015712028 -0.034398202 0.010000125 0
0.0047336598 -0.034486651 -0.0099998526 0
0.0044832532 -0.034521092 0.010000134 0
0.007638583 -0.034359947 -0.0099998415 0
0.0073674172 -0.034445141 0.010000145 0
0.0096980436 -0.034329105 -0.0097490177 0
0.010000021 -0.03452995 -0.0075291237 0
0.010000011 -0.034513965 -0.0043461975 0
0.0099999998 -0.034560941 -0.0015621838 0
0.0099999905 -0.034398329 0.0015664642 0
0.0099999784 -0.034421757 0.004486714 0
0.0099999672 -0.034532733 0.0076375813 0
0.009742924 -0.034615289 0.0098124221 0
-0.0097913388 -0.031376064 -0.0097125806 0
-0.0099999653 -0.03154387 -0.0076907603 0
-0.0099999784 -0.031519983 -0.0044097039 0
-0.0099999895 -0.031519722 -0.0013614089 0
-0.0099999998 -0.031467512 0.0015509332 0
-0.01000001 -0.031616636 0.0044894586 0
-0.010000021 -0.031604145 0.0073777745 0
-0.009788515 -0.031521432 0.0096734772 0
-0.0074908803 -0.031530824 -0.0099999066 0
-0.0076511572 -0.031582538 0.01000008 0
-0.0045719347 -0.031605702 -0.0099998964 0
-0.0044520213 -0.031314738 0.010000092 0
-0.0015973635 -0.031361118 -0.0099998862 0
-0.001428037 -0.031490106 0.010000102 0
0.0014343559 -0.031294461 -0.009999875 0
0.0015845437 -0.031483334 0.010000112 0
0.0044622249 -0.031433374 -0.0099998657 0
0.0043758187 -0.031540696 0.010000125 0
0.0074687824 -0.031702857 -0.0099998526 0
0.0072244736 -0.031490743 0.010000134 0
0.0097508067 -0.031591788 -0.0096937576 0
0.010000022 -0.031433001 -0.0074269529 0
0.01000001 -0.03153393 -0.0043582544 0
0.0099999998 -0.031533182 -0.0014791364 0
0.0099999886 -0.031669997 0.0015550802 0
0.0099999784 -0.031447522 0.0043712589 0
0.0099999681 -0.031445898 0.0073979115 0
0.0098072924 -0.03142827 0.0096696522 0
-0.0097303819 -0.028379511 -0.0097583802 0
-0.0099999672 -0.028499272 -0.007389395 0
-0.0099999784 -0.028534165 -0.0043395464 0
-0.0099999895 -0.028611083 -0.0015132762 0
-0.0099999998 -0.028394217 0.0015615855 0
-0.01000001 -0.028440099 0.0043975343 0
-0.010000022 -0.028416548 0.0074340245 0
-0.0097080804 -0.028340688 0.0097793564 0
-0.0075853779 -0.028396217 -0.0099999188 0
-0.0074992697 -0.02860293 0.010000071 0
-0.0042850454 -0.028472904 -0.0099999076 0
-0.0046219286 -0.028644238 0.010000081 0
-0.0016541143 -0.028353134 -0.0099998983 0
-0.0014897313 -0.028427947 0.010000092 0
0.0015065247 -0.028559117 -0.0099998852 0
0.0016715735 -0.028480144 0.010000103 0
0.0045676231 -0.028544342 -0.009999874 0
0.0043841596 -0.028626462 0.010000113 0
0.0075126905 -0.02844834 -0.0099998638 0
0.0073319417 -0.028451579 0.010000124 0
0.0097349919 -0.028506316 -0.0097748637 0
0.01000002 -0.028534871 -0.0075153881 0
0.010000011 -0.02857139 -0.0045179143 0
0.0099999988 -0.028414311 -0.00164884 0
0.0099999895 -0.028360523 0.0014217896 0
0.0099999784 -0.028493559 0.0044829487 0
0.0099999672 -0.028579131 0.007528381 0
0.0097652031 -0.028429767 0.0097598173 0
-0.0097467983 -0.025452347 -0.009733553 0
-0.0099999672 -0.025522172 -0.0073966645 0
-0.0099999774 -0.025529116 -0.0045507313 0
-0.0099999886 -0.025518134 -0.0015765121 0
-0.0099999998 -0.025573215 0.0013548371 0
-0.010000011 -0.025526263 0.0046135746 0
-0.010000021 -0.02533775 0.0075533912 0
-0.0097519848 -0.025454145 0.0097615058 0
-0.0073600025 -0.025365921 -0.0099999281 0
-0.0075391587 -0.025435707 0.010000059 0
-0.0044834251 -0.025589196 -0.0099999178 0
-0.0044617257 -0.025403611 0.010000071 0
-0.0013637556 -0.025584837 -0.0099999076 0
-0.0015907383 -0.025563063 0.010000081 0
0.0015788671 -0.025618345 -0.0099998955 0
0.0015402137 -0.025459083 0.010000092 0
0.0045140921 -0.025631934 -0.0099998843 0
0.0045810998 -0.02559163 0.010000103 0
0.00746579 -0.025659166 -0.009999875 0
0.0076088207 -0.025545739 0.010000114 0
0.0097303437 -0.025251057 -0.0097744027 0
0.010000022 -0.025570048 -0.0074567087 0
0.010000009 -0.025454948 -0.0043872655 0
0.0099999988 -0.025495207 -0.001496835 0
0.0099999877 -0.025418835 0.0016733508 0
0.0099999793 -0.025521791 0.004575741 0
0.0099999662 -0.02552307 0.0076416177 0
0.0097606601 -0.025424697 0.0097505879 0
-0.0097360332 -0.022769965 -0.0097281309 0
-0.0099999672 -0.022492813 -0.0075527658 0
-0.0099999793 -0.022451008 -0.0043963622 0
-0.0099999895 -0.022517243 -0.0013607144 0
-0.0099999998 -0.022585843 0.0015632596 0
-0.01000001 -0.022498745 0.0043441923 0
-0.010000022 -0.022534689 0.0074428339 0
-0.0097686453 -0.022532573 0.0097329533 0
-0.0076220627 -0.022505799 -0.0099999411 0
-0.007341221 -0.022582738 0.010000049 0
-0.0044473428 -0.022612642 -0.0099999271 0
-0.0046239756 -0.022638069 0.010000059 0
-0.0014390296 -0.022455372 -0.0099999188 0
-0.0014731741 -0.022558782 0.010000071 0
0.0014318883 -0.022492202 -0.0099999066 0
0.001489098 -0.022516383 0.010000082 0
0.0045171524 -0.022624047 -0.0099998955 0
0.0043577296 -0.022687122 0.010000093 0
0.0076331855 -0.022465022 -0.0099998852 0
0.0074958671 -0.022373745 0.010000102 0
0.0097925412 -0.022407733 -0.0097276792 0
0.010000021 -0.02249288 -0.0075272974 0
0.010000012 -0.022585135 -0.0044098897 0
0.0099999998 -0.022487624 -0.0016050389 0
0.0099999886 -0.022504341 0.0014493252 0
0.0099999784 -0.022594037 0.0045005404 0
0.0099999672 -0.022501761 0.0074094897 0
0.0097421007 -0.022640595 0.0097578028 0
-0.0097510945 -0.019369802 -0.0097509036 0
-0.0099999672 -0.019381886 -0.007549806 0
-0.0099999784 -0.0193111 -0.0044927462 0
-0.0099999886 -0.019339724 -0.0014386105 0
-0.0099999998 -0.019398332 0.0016435228 0
-0.010000012 -0.019595401 0.0047422713 0
-0.01000002 -0.019487668 0.0074087754 0
-0.0097016916 -0.019922126 0.0098006409 0
-0.0073539363 -0.019692488 -0.0099999495 0
-0.0074817622 -0.019686069 0.01000004 0
-0.0044026161 -0.019340765 -0.0099999402 0
-0.0046648332 -0.019531166 0.010000048 0
-0.0013523116 -0.019411141 -0.009999929 0
-0.0013767311 -0.019554628 0.010000061 0
0.0015790551 -0.019467527 -0.0099999178 0
0.0013528697 -0.019528106 0.010000071 0
0.0043227025 -0.019622071 -0.0099999076 0
0.0045272578 -0.019490389 0.010000083 0
0.0074753882 -0.01961099 -0.0099998964 0
0.0076336949 -0.019535799 0.010000093 0
0.0097637083 -0.019427907 -0.0097395508 0
0.010000021 -0.019466057 -0.007546341 0
0.010000011 -0.019378567 -0.0045745331 0
0.0099999998 -0.019451352 -0.00155964 0
0.0099999886 -0.019622028 0.0015416963 0
0.0099999784 -0.019498648 0.0043767835 0
0.0099999672 -0.019690169 0.0075871176 0
0.0097433785 -0.01933831 0.0098106936 0
-0.0097572962 -0.016508492 -0.0097296145 0
-0.0099999653 -0.016369445 -0.0076448354 0
-0.0099999774 -0.016486486 -0.0044489205 0
-0.0099999895 -0.016698448 -0.0015919744 0
-0.0099999998 -0.016581818 0.0015235585 0
-0.01000001 -0.016454631 0.0044757822 0
-0.010000022 -0.016483931 0.0075338804 0
-0.0097003579 -0.01647462 0.0098059177 0
-0.0075465804 -0.016552527 -0.0099999625 0
-0.0075850664 -0.016488934 0.010000027 0
-0.0045609679 -0.016595788 -0.0099999504 0
-0.0044561047 -0.016620992 0.01000004 0
-0.0015729567 -0.01671147 -0.0099999392 0
-0.0016357561 -0.016543912 0.01000005 0
0.0014976845 -0.01632992 -0.0099999299 0
0.001422204 -0.016608143 0.01000006 0
0.0044982438 -0.016596783 -0.0099999178 0
0.0044887429 -0.016561238 0.01000007 0
0.0074393861 -0.016546218 -0.0099999076 0
0.0075329919 -0.016436862 0.010000081 0
0.0097379116 -0.016571743 -0.0097205117 0
0.010000021 -0.016520437 -0.0075752004 0
0.01000001 -0.016544614 -0.0046657324 0
0.0099999988 -0.016638458 -0.0013614059 0
0.0099999895 -0.016516892 0.0014403242 0
0.0099999774 -0.016677089 0.0045538694 0
0.0099999672 -0.016424909 0.0075356304 0
0.0097661903 -0.016617145 0.0097819082 0
-0.0097423606 -0.013675944 -0.009733567 0
-0.0099999672 -0.013433372 -0.0075884033 0
-0.0099999784 -0.01342173 -0.004413595 0
-0.0099999886 -0.013552899 -0.001500456 0
-0.0099999998 -0.013427374 0.001600459 0
-0.01000001 -0.013471947 0.0044387332 0
-0.01000002 -0.013706263 0.0074916291 0
-0.0096659204 -0.013548386 0.0097920755 0
-0.0074902331 -0.013541293 -0.0099999718 0
-0.0074869841 -0.013666504 0.010000017 0
-0.0045880829 -0.013657879 -0.0099999625 0
-0.0044526975 -0.013571541 0.010000028 0
-0.001653468 -0.013585231 -0.0099999504 0
-0.0015043286 -0.013483625 0.010000037 0
0.0013597724 -0.013316179 -0.0099999411 0
0.0015186558 -0.013556912 0.010000049 0
0.0045453939 -0.013457675 -0.0099999281 0
0.0045418027 -0.013443472 0.010000059 0
0.0073045315 -0.013296015 -0.0099999206 0
0.0074842861 -0.013387953 0.01000007 0
0.0097560575 -0.013480987 -0.0097384257 0
0.010000022 -0.013557706 -0.0077206385 0
0.01000001 -0.013484308 -0.004460393 0
0.0099999988 -0.013493825 -0.001387473 0
0.0099999886 -0.01343984 0.0014339143 0
0.0099999774 -0.013618721 0.0045248978 0
0.0099999672 -0.013498462 0.0074604196 0
0.0097397203 -0.013398011 0.0097313076 0
-0.0097907893 -0.01030883 -0.0097338632 0
-0.0099999681 -0.010329459 -0.0074430481 0
-0.0099999793 -0.010597566 -0.0044973297 0
-0.0099999886 -0.010567185 -0.0014635785 0
-0.0099999998 -0.01061694 0.001627985 0
-0.010000012 -0.010515499 0.004785276 0
-0.010000022 -0.010573043 0.0074151913 0
-0.0097488612 -0.010336868 0.0097634159 0
-0.0075762863 -0.010326467 -0.0099999839 0
-0.0074461224 -0.010528311 0.010000005 0
-0.0045282943 -0.010622844 -0.0099999728 0
-0.0044929408 -0.010525642 0.010000017 0
-0.0014464551 -0.010376914 -0.0099999635 0
-0.0016930987 -0.010408372 0.010000026 0
0.0014384107 -0.010632475 -0.0099999504 0
0.0012574858 -0.010367759 0.010000036 0
0.0044667418 -0.010551297 -0.0099999402 0
0.0045933146 -0.010466768 0.010000049 0
0.0074638552 -0.010374852 -0.0099999299 0
0.007661962 -0.010572653 0.010000061 0
0.0097842542 -0.010460347 -0.0097804237 0
0.01000002 -0.010445767 -0.0075393417 0
0.01000001 -0.010582221 -0.0044988855 0
0.0099999988 -0.01042218 -0.0014582749 0
0.0099999886 -0.010651279 0.0014749141 0
0.0099999784 -0.010364907 0.004437644 0
0.0099999681 -0.010433738 0.0075835995 0
0.009712779 -0.010505385 0.0097383531 0
-0.009769178 -0.0077227145 -0.0097466689 0
-0.0099999672 -0.0075652874 -0.0073737162 0
-0.0099999774 -0.0076056351 -0.0046062921 0
-0.0099999886 -0.0074722073 -0.0015276141 0
-0.0099999998 -0.0074247182 0.0015384034 0
-0.01000001 -0.0074378862 0.0045780931 0
-0.010000021 -0.0076588327 0.0073629487 0
-0.0097175483 -0.007536428 0.0097919051 0
-0.0075094113 -0.0076336525 -0.0099999933 0
-0.0076023717 -0.0073517528 0.0099999933 0
-0.0045155454 -0.0074480921 -0.0099999839 0
-0.0043373881 -0.0073663676 0.010000005 0
-0.0015148714 -0.0074503203 -0.0099999737 0
-0.0013538043 -0.0074665854 0.010000017 0
0.0015314656 -0.0074498858 -0.0099999616 0
0.0015266875 -0.0074651632 0.010000027 0
0.0044862702 -0.0075186198 -0.0099999513 0
0.0043041268 -0.0075517413 0.010000038 0
0.0075479117 -0.0074231224 -0.0099999402 0
0.0076546473 -0.0075865015 0.01000005 0
0.0097736744 -0.0074269399 -0.0097383801 0
0.010000021 -0.0075797252 -0.0075100409 0
0.01000001 -0.0075846096 -0.0044409409 0
0.0099999998 -0.0074107656 -0.0015693654 0
0.0099999877 -0.0074214782 0.0014351653 0
0.0099999784 -0.0076232878 0.0046755234 0
0.0099999672 -0.0075561297 0.0074775838 0
0.0096349195 -0.0075768335 0.0097800968 0
-0.0097381519 -0.0046824398 -0.0098033184 0
-0.0099999662 -0.0044394187 -0.0076420708 0
-0.0099999793 -0.0044902409 -0.0044698827 0
-0.0099999886 -0.0043696654 -0.0014447581 0
-0.0099999998 -0.0044364296 0.0015333723 0
-0.010000011 -0.0044908472 0.0046168342 0
-0.010000021 -0.0045062038 0.0074597294 0
-0.0097245406 -0.0044397125 0.0098124351 0
-0.0074624829 -0.0045689996 -0.010000005 0
-0.0073930221 -0.0043993127 0.009999983 0
-0.0043955087 -0.0047326651 -0.0099999942 0
-0.0043375413 -0.0045884922 0.0099999961 0
-0.0014824099 -0.004453544 -0.0099999839 0
-0.0013718813 -0.0045558936 0.010000006 0
0.0013289307 -0.0046333559 -0.0099999718 0
0.0014797029 -0.0046132565 0.010000016 0
0.0045679896 -0.0044407588 -0.0099999616 0
0.0046103275 -0.0045450819 0.010000029 0
0.007463037 -0.0046533328 -0.0099999504 0
0.0075674937 -0.0043511884 0.010000037 0
0.0097781615 -0.004563543 -0.0097557651 0
0.010000023 -0.0046337629 -0.0076893205 0
0.010000012 -0.0045706099 -0.0045814435 0
0.0099999998 -0.0043716119 -0.0015212942 0
0.0099999886 -0.0045447219 0.0016027194 0
0.0099999774 -0.0044598533 0.0043865666 0
0.0099999672 -0.0044023972 0.0075638224 0
0.0097197089 -0.0043136785 0.0097595034 0
-0.0097132549 -0.0015190536 -0.0098056449 0
-0.0099999662 -0.0014058652 -0.0076184669 0
-0.0099999793 -0.0014296424 -0.004429664 0
-0.0099999886 -0.0015861116 -0.0014498712 0
-0.0099999998 -0.0016775636 0.0015509706 0
-0.01000001 -0.0016333194 0.0042555006 0
-0.010000021 -0.0014004917 0.007397641 0
-0.0096810348 -0.0014341995 0.0097802524 0
-0.007385571 -0.0014587966 -0.010000016 0
-0.0075108414 -0.0016380027 0.0099999728 0
-0.00452318 -0.0014124772 -0.010000006 0
-0.0044835601 -0.0014276912 0.0099999839 0
-0.0015323239 -0.0015499679 -0.0099999942 0
-0.0014271302 -0.0016099456 0.0099999933 0
0.0014512636 -0.0014990879 -0.009999983 0
0.001416894 -0.0016053793 0.010000005 0
0.004496865 -0.0016096999 -0.0099999728 0
0.0045994557 -0.0015392819 0.010000016 0
0.0076133944 -0.0015702448 -0.0099999607 0
0.0074694846 -0.0014190867 0.010000027 0
0.0097502125 -0.0015693253 -0.0097477762 0
0.010000021 -0.0016469812 -0.0075190314 0
0.01000001 -0.0015077485 -0.0045013442 0
0.0099999998 -0.0015438132 -0.0014384007 0
0.0099999886 -0.0016163371 0.0014169952 0
0.0099999784 -0.001453642 0.0044198977 0
0.0099999681 -0.0015098633 0.0075549213 0
0.009728523 -0.0014571114 0.0097948369 0
-0.0094733322 -3.4649933e-08 -0.0095718307 0
