# .PCD v0.7 - Point Cloud Data file format
VERSION 0.7
FIELDS x y z rgb
SIZE 4 4 4 4
TYPE F F F F
COUNT 1 1 1 1
WIDTH 1163
HEIGHT 1
VIEWPOINT 0 0 0 1 0 0 0
POINTS 1163
DATA ascii
0.0014148135 -0.23233569 -0.0014139621 0
0.0032289429 -0.23225801 -0.0033579485 0
-0.0032935634 -0.22934116 -0.003335105 0
-0.0013546353 -0.22943462 -0.0034991766 0
-0.0015038118 -0.2296555 -0.0015029914 0
0.0013218011 -0.22960331 -0.0034991656 0
0.0015111823 -0.22957747 -0.0015103403 0
0.0032676412 -0.22942993 -0.003347066 0
-0.0032501067 -0.22663291 -0.0033809796 0
-0.0014614947 -0.2263559 -0.0034991908 0
-0.0015803466 -0.22661741 -0.0015795376 0
0.0014085395 -0.22654544 -0.003499178 0
0.001581108 -0.22641571 -0.0015802769 0
0.0032773579 -0.2266324 -0.0033951609 0
-0.0032136259 -0.22346774 -0.003332305 0
-0.0016039531 -0.22342034 -0.003499201 0
-0.0014265636 -0.22359815 -0.0014257644 0
0.0013496884 -0.22358404 -0.0034991899 0
0.0014593739 -0.22360387 -0.0014585539 0
0.0032715891 -0.22339708 -0.0033379577 0
-0.0032403218 -0.22083281 -0.0033392925 0
-0.0014257041 -0.22045352 -0.0034992094 0
-0.0016098236 -0.22048336 -0.001609037 0
0.0015470759 -0.22047052 -0.0034992003 0
0.0016247404 -0.22076024 -0.001361275 0
0.0017967728 -0.21977875 0.0012544702 0
0.0032741874 -0.22077562 -0.0033652897 0
0.0034247662 -0.21961597 -0.0015643913 0
0.0034045398 -0.21968743 0.0015930956 0
0.0034079186 -0.21952964 0.0031942225 0
-0.0032515207 -0.21769942 -0.003361908 0
-0.0015049357 -0.21736176 -0.0034992227 0
-0.0014810084 -0.21765459 -0.0014802312 0
0.0014112623 -0.21752959 -0.0034992083 0
0.001608816 -0.21734683 0.0016096145 0
0.0034056215 -0.2175227 -0.003356202 0
0.0035000099 -0.21749525 -0.0016711717 0
0.0034999966 -0.2175981 0.001405919 0
0.003375683 -0.21741487 0.0032703057 0
-0.0032775996 -0.21445858 -0.0033480308 0
-0.0016963144 -0.21462895 -0.0034992299 0
-0.0014619702 -0.21432583 -0.0014612047 0
0.0014136317 -0.21437602 -0.0034992199 0
0.001357263 -0.2147143 0.00135805 0
0.00340138 -0.21453667 -0.0033366198 0
0.0035000087 -0.21456906 -0.0013995948 0
0.0034999966 -0.21442178 0.0014251284 0
0.0033300426 -0.21441554 0.0032685315 0
-0.0032620421 -0.21133763 -0.0033493584 0
-0.0014581739 -0.21154794 -0.0034992427 0
-0.0014389441 -0.21169059 -0.0014381883 0
0.0014760281 -0.21150647 -0.0034992327 0
0.001471397 -0.21138829 0.0014721729 0
0.0033646454 -0.21135242 -0.0033748071 0
0.003500008 -0.21170251 -0.0014150637 0
0.003499998 -0.21148032 0.0012461474 0
0.0033459782 -0.21167223 0.0032292053 0
-0.0032282041 -0.20865242 -0.0033460951 0
-0.0015306139 -0.20862441 -0.0034992525 0
-0.0014794457 -0.20849836 -0.0014787017 0
0.0015753994 -0.2084014 -0.003499245 0
0.0014981796 -0.20849235 0.0014989453 0
0.003358352 -0.20877402 -0.0033900654 0
0.0035000087 -0.2085585 -0.001391532 0
0.0034999957 -0.2085599 0.001677499 0
0.0033791836 -0.20876576 0.0033031025 0
-0.0032214723 -0.20533907 -0.003346523 0
-0.0014697105 -0.20558615 -0.003499263 0
-0.0013871446 -0.20553231 -0.0013864106 0
0.0014899052 -0.20549834 -0.0034992537 0
0.0013855075 -0.20539796 0.0013862611 0
0.0033993139 -0.20529814 -0.0033707581 0
0.003500009 -0.20538795 -0.0015405632 0
0.0034999982 -0.20563659 0.0015755034 0
0.0033390019 -0.20577934 0.0032741732 0
-0.0032253794 -0.20233856 -0.0033568321 0
-0.0014905855 -0.2026058 -0.0034992744 0
-0.0014969996 -0.20250824 -0.0014962775 0
0.0016608329 -0.20251022 -0.003499262 0
0.001579123 -0.20255652 0.0015798677 0
0.0033816232 -0.20274697 -0.0033833848 0
0.0035000071 -0.20239802 -0.0015283971 0
0.0034999978 -0.20230062 0.0013993904 0
0.0033427451 -0.20252275 0.0032583443 0
-0.003284903 -0.19983441 -0.0033844647 0
-0.0034621863 -0.19915931 -0.0015869726 0
-0.0034576454 -0.19915678 0.0016165796 0
-0.0033076019 -0.19905704 0.0032009133 0
-0.0014891765 -0.19939058 -0.0034992849 0
-0.0017309919 -0.20023024 -0.001284263 0
-0.0017960882 -0.19931576 0.0014738212 0
0.0013685483 -0.19957556 -0.0034992755 0
0.0015392601 -0.19953595 0.0015399937 0
0.0033715104 -0.19940585 -0.0033921725 0
0.0035000087 -0.19937865 -0.0014299122 0
0.0034999941 -0.19936073 0.0016029911 0
0.0033515401 -0.19941609 0.0032487877 0
-0.0033799256 -0.19639421 -0.003410941 0
-0.0034999994 -0.19652356 -0.0014402221 0
-0.0035000099 -0.1965802 0.0016753398 0
-0.0033587087 -0.1965545 0.0032585871 0
-0.0015818118 -0.19644412 -0.0034992965 0
-0.0015075477 -0.19643727 0.0015082478 0
0.0014234984 -0.19648507 -0.0034992867 0
0.0013752487 -0.1964307 0.0013759697 0
0.003404533 -0.19646317 -0.0034023596 0
0.0035000083 -0.1963363 -0.0016394927 0
0.0034999968 -0.19670752 0.0015576906 0
0.0033622845 -0.19654886 0.0032498587 0
-0.0033437337 -0.19349207 -0.0033789789 0
-0.0034999973 -0.19371448 -0.0013588464 0
-0.0035000064 -0.1935093 0.0015900257 0
-0.0033473819 -0.19342232 0.0032559508 0
-0.001444216 -0.19360059 -0.0034993077 0
-0.0014405072 -0.193619 0.0014411977 0
0.001655456 -0.19344349 -0.003499296 0
0.0015344217 -0.19344112 0.0015351331 0
0.0033831941 -0.19378322 -0.0034053309 0
0.0035000101 -0.19352546 -0.0014792543 0
0.0034999994 -0.19349067 0.0015012843 0
0.0033697966 -0.19322878 0.0032262942 0
-0.0034080718 -0.19044615 -0.0033660063 0
-0.0034999959 -0.19051203 -0.0015744779 0
-0.0035000085 -0.19046415 0.0014783826 0
-0.0033180672 -0.1906032 0.0032534667 0
-0.0014374307 -0.19053927 -0.0034993184 0
-0.0016181604 -0.19049053 0.0016188383 0
0.001553932 -0.19054249 -0.0034993086 0
0.0012719095 -0.19051369 0.0012726084 0
0.0033817906 -0.19041036 -0.0033732038 0
0.0035000083 -0.19062258 -0.0014434946 0
0.0034999948 -0.19050296 0.0013864017 0
0.0033167233 -0.19023313 0.0031983699 0
-0.003362909 -0.18748949 -0.0034183636 0
-0.0034999964 -0.1874831 -0.0014967456 0
-0.003500009 -0.18759985 0.0013417924 0
-0.0033664478 -0.1877093 0.003238085 0
-0.0014129942 -0.18732399 -0.0034993289 0
-0.0015361438 -0.18740746 0.0015368111 0
0.0015306877 -0.18740593 -0.0034993191 0
0.0014577932 -0.18738967 0.001458482 0
0.0033496935 -0.18733752 -0.003378568 0
0.0035000078 -0.18751054 -0.0014612401 0
0.0034999959 -0.18771781 0.0015137765 0
0.0033218425 -0.18750137 0.003256087 0
-0.0034073051 -0.18454126 -0.0033765256 0
-0.0034999975 -0.18454684 -0.0014912806 0
-0.0035000059 -0.18455775 0.0015832434 0
-0.0033687155 -0.18441136 0.0032439707 0
-0.0014226499 -0.18453458 -0.0034993407 0
-0.0016439805 -0.18460032 0.0016446369 0
0.001408693 -0.1844371 -0.0034993289 0
0.0015625471 -0.18439104 0.001563226 0
0.0033432378 -0.18512589 -0.0033957334 0
0.0035000071 -0.18472794 -0.0013150404 0
0.0034999971 -0.18461469 0.0017415598 0
0.0033294722 -0.18459629 0.003245329 0
-0.0033732874 -0.18136597 -0.0033849201 0
-0.0034999978 -0.18144178 -0.0013908513 0
-0.003500009 -0.18150428 0.001561489 0
-0.0033132778 -0.18161441 0.0032543666 0
-0.00145094 -0.1815841 -0.0034993526 0
-0.001516855 -0.18139476 0.0015175007 0
0.0015154933 -0.18158574 -0.0034993389 0
0.0015966542 -0.18142773 0.0015973226 0
0.0034125084 -0.18168113 -0.0033563513 0
0.003500009 -0.1815421 -0.0014829839 0
0.0034999968 -0.18157898 0.0013097518 0
0.0033373274 -0.18168326 0.0032587834 0
-0.0033431761 -0.17865425 -0.0033746888 0
-0.0034999978 -0.17853293 -0.001480481 0
-0.0035000078 -0.17843203 0.0014846066 0
-0.0033694436 -0.17854823 0.0032609098 0
-0.0014382653 -0.17844227 -0.0034993605 0
-0.0016508698 -0.17863502 0.0016515047 0
0.0015252312 -0.17854619 -0.0034993519 0
0.0014789181 -0.17852271 0.0014795751 0
0.0033524309 -0.17881808 -0.0034135676 0
0.0035000094 -0.17855783 -0.0014642897 0
0.0034999982 -0.17855494 0.0014876827 0
0.0033238919 -0.17858486 0.0032570502 0
-0.0033883876 -0.17600283 -0.0033460208 0
-0.0034999964 -0.17540845 -0.0015027287 0
-0.0035000069 -0.17551689 0.0015017792 0
-0.0033453295 -0.17554821 0.0032798827 0
-0.0014450296 -0.17561345 -0.0034993694 0
-0.0014775373 -0.17560278 0.0014781622 0
0.0015210687 -0.17553401 -0.0034993622 0
0.0016845037 -0.17562284 0.0016851516 0
0.0033843492 -0.17550804 -0.0033738392 0
0.0035000059 -0.17550974 -0.0014402621 0
0.0034999964 -0.17543834 0.0014928284 0
0.0033761675 -0.17531648 0.0032414556 0
-0.0033484341 -0.17237428 -0.0033609897 0
-0.0034999959 -0.17251661 -0.0014675347 0
-0.0035000071 -0.17235014 0.0015015933 0
-0.0033780886 -0.17247039 0.003256988 0
-0.0014828976 -0.17235094 -0.0034993852 0
-0.0013756847 -0.17247956 0.0013762991 0
0.0014282382 -0.17247286 -0.0034993729 0
0.0014356342 -0.17255136 0.0014362694 0
0.0033508865 -0.17283769 -0.0033937853 0
0.0035000069 -0.17234658 -0.0015476961 0
0.0034999975 -0.17253779 0.0014535695 0
0.0033493785 -0.17282608 0.0032710715 0
-0.0033700757 -0.16982782 -0.0034071405 0
-0.0034999975 -0.16947848 -0.0015331496 0
-0.0035000052 -0.16966365 0.0014513175 0
-0.0033009441 -0.16966511 0.0033499817 0
-0.0014941004 -0.16935241 -0.003499394 0
-0.0011798722 -0.17019828 0.0017782715 0
-0.0013473488 -0.16918999 0.003460174 0
0.0017453635 -0.16950555 -0.0034993801 0
0.0012030491 -0.17017946 0.0019428475 0
0.0015595577 -0.16922747 0.0034629554 0
0.0034041114 -0.16935201 -0.0034053454 0
0.0035000076 -0.16943234 -0.0014773411 0
0.0034999959 -0.16958691 0.0015267454 0
0.0033568612 -0.1695285 0.0033409307 0
-0.0033652913 -0.1665628 -0.0033969705 0
-0.0034999959 -0.16644013 -0.0013810537 0
-0.0035000078 -0.16649814 0.0014953198 0
-0.0033491906 -0.16633691 0.0033441554 0
-0.0015837051 -0.16645211 -0.0034994078 0
-0.001452763 -0.16647065 0.003500598 0
0.0015341725 -0.16642343 -0.0034993934 0
0.0015469554 -0.16659178 0.0035006101 0
0.0033780313 -0.16657998 -0.0033739167 0
0.0035000064 -0.16640149 -0.0014920265 0
0.0034999966 -0.16649275 0.0014424172 0
0.0033224816 -0.16630156 0.0033768751 0
-0.0033530623 -0.16339163 -0.0033362687 0
-0.0035000001 -0.1634457 -0.0014491451 0
-0.0035000085 -0.16333447 0.0014567901 0
-0.0033877955 -0.16373894 0.0033978426 0
-0.0013293048 -0.16337244 -0.0034994171 0
-0.0015094182 -0.16347367 0.0035005901 0
0.0015587831 -0.16338138 -0.0034994066 0
0.0017003792 -0.16341655 0.0035005982 0
0.0033484236 -0.16339836 -0.0033821242 0
0.0035000076 -0.16333628 -0.0013940347 0
0.003499995 -0.16331378 0.0014533544 0
0.0033548211 -0.16340448 0.0033806576 0
-0.0033653835 -0.16017373 -0.0034000839 0
-0.0034999982 -0.16052395 -0.001512526 0
-0.0035000078 -0.16072387 0.0015140529 0
-0.003390494 -0.16051741 0.0033812793 0
-0.0015536983 -0.1606196 -0.0034994287 0
-0.0015531323 -0.16053642 0.003500578 0
0.001592811 -0.16053945 -0.0034994155 0
0.0014312427 -0.16039178 0.0035005887 0
0.0033849599 -0.16026723 -0.0033291129 0
0.0035000099 -0.16048589 -0.0016440941 0
0.0034999968 -0.16048129 0.0013039255 0
0.0033842972 -0.16091956 0.0033066925 0
-0.0033795754 -0.1574253 -0.0033776995 0
-0.0034999989 -0.15758808 -0.0015656779 0
-0.0035000085 -0.15766305 0.0015739483 0
-0.0033737475 -0.15750603 0.0033618957 0
-0.0014417398 -0.15753604 -0.0034994348 0
-0.0014483033 -0.15750507 0.0035005654 0
0.0015345541 -0.15768018 -0.0034994241 0
0.001532758 -0.15755813 0.0035005782 0
0.0034202852 -0.15740024 -0.0033178909 0
0.0035000055 -0.157447 -0.0013910281 0
0.0034999975 -0.15741913 0.0015513832 0
0.0033688822 -0.15755729 0.0033709849 0
-0.003382453 -0.15463117 -0.0033593646 0
-0.0034999957 -0.15450954 -0.0015575035 0
-0.0035000085 -0.1544448 0.0015759108 0
-0.0033987958 -0.1544393 0.0033760103 0
-0.0015059432 -0.15451334 -0.0034994513 0
-0.0014391119 -0.15453564 0.0035005542 0
0.0015355335 -0.15461849 -0.0034994346 0
0.0015251344 -0.15454248 0.0035005664 0
0.0034256093 -0.15473397 -0.0033377646 0
0.0035000083 -0.15462978 -0.0014968892 0
0.0034999948 -0.15458328 0.0014465409 0
0.0033041795 -0.15445808 0.0034529911 0
-0.0033710932 -0.15163152 -0.0033823145 0
-0.0034999964 -0.15148574 -0.0016021298 0
-0.0035000069 -0.15152559 0.0016794347 0
-0.0033912451 -0.15140268 0.003364529 0
-0.0013861953 -0.15152442 -0.003499459 0
-0.0014877075 -0.15146561 0.0035005468 0
0.0015969619 -0.15160014 -0.0034994478 0
0.0014247209 -0.15152834 0.0035005582 0
0.003391237 -0.15144163 -0.0033732499 0
0.0035000069 -0.15146685 -0.0012051627 0
0.0034999989 -0.15144101 0.0013531671 0
0.0033908277 -0.15130046 0.0033414287 0
-0.0033981125 -0.14862338 -0.0033279913 0
-0.0034999971 -0.14871125 -0.0014453568 0
-0.0035000064 -0.14838961 0.0015226782 0
-0.0033832574 -0.14860046 0.0033723216 0
-0.0016472709 -0.14861344 -0.0034994704 0
-0.0013693548 -0.14853953 0.0035005363 0
0.0014229189 -0.1484078 -0.0034994606 0
0.0014621993 -0.1484592 0.0035005431 0
0.0033765787 -0.14839435 -0.0033442297 0
0.0035000087 -0.14848995 -0.0014471767 0
0.0034999982 -0.14866923 0.0014238843 0
0.0033886652 -0.14852539 0.0033779023 0
-0.0033667965 -0.14572372 -0.0033661709 0
-0.0034999971 -0.14551759 -0.0012394995 0
-0.0035000057 -0.14565711 0.0014319756 0
-0.0033818134 -0.14542532 0.0034386599 0
-0.0013402917 -0.1453945 -0.0034994816 0
-0.0014834659 -0.14546037 0.0035005254 0
0.0015067379 -0.14549057 -0.0034994695 0
0.0014956441 -0.14532922 0.0035005361 0
0.0033855066 -0.14528435 -0.0033758511 0
0.003500009 -0.1456859 -0.0014297884 0
0.0034999964 -0.14553106 0.0015019394 0
0.0033574782 -0.14568043 0.0033675111 0
-0.0033667618 -0.14269021 -0.0033873986 0
-0.0034999982 -0.14245273 -0.0013960692 0
-0.0035000087 -0.14248741 0.0015162117 0
-0.0033803319 -0.14223371 0.00341847 0
-0.0014521017 -0.14244074 -0.0034994935 0
-0.0015355222 -0.14254034 0.0035005133 0
0.0015036924 -0.14244778 -0.0034994823 0
0.0016420286 -0.1425475 0.0035005254 0
0.0033665537 -0.14241685 -0.0033914149 0
0.0035000083 -0.14242786 -0.0015993015 0
0.0034999992 -0.14251697 0.0015022634 0
0.0033905762 -0.14253166 0.0033729398 0
-0.0033473149 -0.13976514 -0.0034221136 0
-0.0034999985 -0.13949201 -0.0014823999 0
-0.0035000071 -0.13944982 0.0014951356 0
-0.0034198149 -0.13940611 0.0033494374 0
-0.0014406602 -0.13948445 -0.0034995019 0
-0.0015488903 -0.13937438 0.0035005014 0
0.0014986718 -0.13951725 -0.0034994921 0
0.0014210345 -0.1394944 0.0035005133 0
0.0034028967 -0.13958158 -0.0034014739 0
0.0035000055 -0.13965671 -0.0014502808 0
0.0034999948 -0.13953501 0.001672524 0
0.0034194214 -0.13971934 0.0033220004 0
-0.0033853462 -0.1363471 -0.0033622431 0
-0.0034999961 -0.1366421 -0.0014598821 0
-0.003500009 -0.13640769 0.001588095 0
-0.0034105533 -0.13643508 0.0033403882 0
-0.0015836706 -0.13659599 -0.0034995142 0
-0.0013830455 -0.13661976 0.0035004918 0
0.0015977141 -0.13645843 -0.0034995046 0
0.0016540185 -0.13638642 0.0035005016 0
0.0034163438 -0.13675116 -0.0033561711 0
0.0035000064 -0.13641748 -0.0014877614 0
0.0034999964 -0.13642204 0.0014826932 0
0.0034004601 -0.13657436 0.003363838 0
-0.0033542779 -0.13332598 -0.0033748986 0
-0.0034999959 -0.13359842 -0.0015953582 0
-0.0035000069 -0.13363741 0.0017259844 0
-0.003415748 -0.13349752 0.0033577469 0
-0.0014328153 -0.13344024 -0.0034995251 0
-0.0016178968 -0.13352135 0.0035004793 0
0.0014645411 -0.13343251 -0.0034995149 0
0.0015578284 -0.13345225 0.0035004918 0
0.0033548651 -0.13362609 -0.0033528127 0
0.0035000069 -0.13342351 -0.0016101322 0
0.0034999971 -0.1334894 0.0015797386 0
0.0033992471 -0.13342749 0.0033845357 0
-0.0033396157 -0.13051683 -0.0033502269 0
-0.0034999961 -0.13057207 -0.0015587873 0
-0.0035000106 -0.13047212 0.0016114064 0
-0.0033325998 -0.13048419 0.0034015696 0
-0.001414054 -0.13037428 -0.0034995365 0
-0.0013817321 -0.1304291 0.0035004704 0
0.0014011387 -0.13034 -0.0034995272 0
0.0015961166 -0.13069603 0.0035004821 0
0.0033965544 -0.13056527 -0.0033741707 0
0.003500009 -0.13043498 -0.0013993679 0
0.0034999961 -0.1305761 0.0012911687 0
0.0034044706 -0.13029805 0.0033734471 0
-0.0033856989 -0.12739767 -0.0033873341 0
-0.0034999985 -0.1275433 -0.0015528433 0
-0.0035000066 -0.12719643 0.0013828602 0
-0.0033933304 -0.12737365 0.003364394 0
-0.0015192766 -0.1275364 -0.0034995473 0
-0.0015184028 -0.12745492 0.0035004588 0
0.0014909711 -0.12759843 -0.0034995328 0
0.0016475657 -0.12767841 0.0035004716 0
0.0033768618 -0.12730426 -0.0034214091 0
0.0035000087 -0.12752616 -0.0013842082 0
0.0034999982 -0.12735191 0.0014661341 0
0.0034041416 -0.12755156 0.0033563268 0
-0.0033567031 -0.12433925 -0.0033853131 0
-0.0034999973 -0.12447489 -0.0016064396 0
-0.003500009 -0.12444685 0.0015166693 0
-0.0033967404 -0.12433238 0.0033664959 0
-0.0015019544 -0.1246134 -0.0034995577 0
-0.0016305003 -0.12445164 0.0035004476 0
0.0015150512 -0.12456933 -0.0034995468 0
0.0014935781 -0.1245415 0.0035004576 0
0.003422664 -0.12444642 -0.0032931641 0
0.0035000059 -0.1245232 -0.0015111469 0
0.0034999964 -0.12452326 0.0015016315 0
0.0033458106 -0.12455928 0.0033818865 0
-0.003381918 -0.12156135 -0.0033697521 0
-0.0034999996 -0.12158445 -0.001379518 0
-0.0035000087 -0.12156348 0.0013936175 0
-0.003370713 -0.12147375 0.0034326762 0
-0.0012902507 -0.12144213 -0.0034995675 0
-0.0014130435 -0.12140661 0.0035004374 0
0.0013700825 -0.12137985 -0.0034995591 0
0.0015415822 -0.12142105 0.0035004497 0
0.003424312 -0.12172187 -0.0033840823 0
0.0035000094 -0.12134317 -0.0015627916 0
0.003499998 -0.12154872 0.0014917398 0
0.0033460201 -0.12150458 0.0034000876 0
-0.003362627 -0.11843099 -0.0033603059 0
-0.0034999975 -0.11845624 -0.0014960717 0
-0.0035000085 -0.11853711 0.0015088753 0
-0.0033402152 -0.11892714 0.0033945714 0
-0.001502268 -0.11842105 -0.0034995796 0
-0.001596001 -0.11848974 0.0035004262 0
0.0013479663 -0.11856289 -0.0034995701 0
0.0016018257 -0.11846182 0.003500436 0
0.0033850332 -0.11832427 -0.0033489084 0
0.0035000094 -0.11844119 -0.0014761713 0
0.0034999964 -0.11832764 0.0013658763 0
0.0033965076 -0.11835705 0.003395444 0
-0.0033865354 -0.11568943 -0.0033811834 0
-0.0034999975 -0.11555277 -0.0016387205 0
-0.0035000092 -0.11547146 0.0016047996 0
-0.0033973323 -0.11595645 0.0033799021 0
-0.001434556 -0.11546917 -0.0034995896 0
-0.0014687795 -0.11561675 0.003500415 0
0.0017327535 -0.11549897 -0.0034995801 0
0.0015985908 -0.11558159 0.0035004257 0
0.0033427589 -0.11552441 -0.003413504 0
0.0035000062 -0.11559185 -0.0014520445 0
0.0034999961 -0.11548841 0.0015282222 0
0.0033575413 -0.11546861 0.0033494872 0
-0.0033951737 -0.11266158 -0.003369448 0
-0.0034999985 -0.11254845 -0.0013072188 0
-0.0035000085 -0.11243713 0.0014676155 0
-0.0033480185 -0.11250331 0.0033951893 0
-0.0015107597 -0.11253793 -0.0034995994 0
-0.0014384342 -0.11272167 0.0035004052 0
0.0014866041 -0.11235596 -0.0034995903 0
0.0014780442 -0.11268009 0.0035004155 0
0.003332027 -0.11244503 -0.0034244247 0
0.0035000076 -0.11264462 -0.0013875701 0
0.0034999952 -0.11245404 0.0016572259 0
0.0034110884 -0.1127518 0.0033476695 0
-0.0034349232 -0.1093379 -0.0033458946 0
-0.0034999955 -0.10946235 -0.0016915352 0
-0.0035000073 -0.10953635 0.0013640336 0
-0.0034256913 -0.10929575 0.0033683735 0
-0.0014153793 -0.109552 -0.003499611 0
-0.0013888791 -0.10958636 0.0035003934 0
0.0015572128 -0.1095625 -0.0034996003 0
0.0014545268 -0.10942922 0.0035004029 0
0.0033507117 -0.10951248 -0.0034219469 0
0.0035000069 -0.10945132 -0.0014574063 0
0.0034999952 -0.10949291 0.0014553606 0
0.0033424497 -0.10964608 0.0033778565 0
-0.0033353015 -0.10638403 -0.0034005416 0
-0.003499995 -0.10666785 -0.0014672036 0
-0.0035000094 -0.1064388 0.0016675589 0
-0.0033302887 -0.1069831 0.0034093894 0
-0.0015564479 -0.10636061 -0.0034996215 0
-0.0014714253 -0.10654912 0.0035003836 0
0.0016349572 -0.10659322 -0.0034996101 0
0.001554799 -0.106506 0.0035003948 0
0.0033318251 -0.10660609 -0.0034089556 0
0.0035000062 -0.10653758 -0.0014137055 0
0.0034999957 -0.10665954 0.0015575325 0
0.0033253911 -0.1064764 0.0034108562 0
-0.0033881939 -0.10355294 -0.003380175 0
-0.0034999989 -0.10348355 -0.0015544216 0
-0.0035000094 -0.10349444 0.001367159 0
-0.003432472 -0.10325082 0.0033563296 0
-0.001463456 -0.10347418 -0.0034996346 0
-0.0015787352 -0.10356887 0.0035003715 0
0.001392987 -0.10344774 -0.0034996236 0
0.0014522371 -0.1036016 0.0035003829 0
0.0034279248 -0.10334974 -0.0033167803 0
0.0035000094 -0.10372115 -0.0015743528 0
0.0034999982 -0.10349723 0.0014015873 0
0.0033655048 -0.10356951 0.0033709856 0
-0.0033782946 -0.10050345 -0.0033584174 0
-0.003499995 -0.10055422 -0.0016225606 0
-0.0035000055 -0.10028228 0.0012835216 0
-0.0033347507 -0.10027234 0.0033695598 0
-0.0015962778 -0.10036659 -0.0034996441 0
-0.0016770882 -0.10051048 0.0035003608 0
0.0015061157 -0.10059743 -0.0034996339 0
0.0014398785 -0.10050806 0.0035003708 0
0.0033612533 -0.10045684 -0.0033684848 0
0.0035000069 -0.10046726 -0.0014724453 0
0.0034999952 -0.10051497 0.0012595543 0
0.0034235406 -0.10036173 0.0033782045 0
-0.0034249157 -0.097194895 -0.0033115563 0
-0.003499998 -0.097559698 -0.0014230565 0
-0.0035000066 -0.097315274 0.0013622186 0
-0.0034272552 -0.097640023 0.0032946724 0
-0.0016661175 -0.09751033 -0.003499653 0
-0.0015839158 -0.097400516 0.0035003501 0
0.0014232172 -0.097535849 -0.0034996443 0
0.0012859965 -0.097627573 0.003500361 0
0.0034259812 -0.097701803 -0.0033533047 0
0.0035000083 -0.097656205 -0.0016058184 0
0.0034999985 -0.097518466 0.0013883144 0
0.00337828 -0.097712182 0.0033983027 0
-0.0033806567 -0.09466581 -0.0033600831 0
-0.0034999959 -0.094655782 -0.0015971181 0
-0.0035000078 -0.094485715 0.0014962527 0
-0.0033500453 -0.094353139 0.0033655844 0
-0.0015807439 -0.094434604 -0.0034996658 0
-0.0017474703 -0.094510205 0.0035003358 0
0.0016247211 -0.094456658 -0.0034996544 0
0.0012484799 -0.094444796 0.0035003477 0
0.0033868754 -0.094675176 -0.0033909583 0
0.0035000078 -0.094634593 -0.0014777986 0
0.0034999964 -0.094467953 0.0014595614 0
0.003373431 -0.094605155 0.0033202828 0
-0.0033192011 -0.091759786 -0.0034016469 0
-0.0034999989 -0.091431521 -0.001437878 0
-0.0035000078 -0.091497503 0.0015544827 0
-0.0033482956 -0.091566838 0.0033540393 0
-0.0014776377 -0.091519408 -0.0034996772 0
-0.0015341104 -0.09160421 0.0035003284 0
0.0017266483 -0.091328934 -0.0034996655 0
0.0013699986 -0.091454998 0.0035003377 0
0.0033963309 -0.091670647 -0.0033512181 0
0.0035000083 -0.091491506 -0.00140738 0
0.0034999978 -0.091497123 0.0014187347 0
0.003338702 -0.091596477 0.003363143 0
-0.0034174263 -0.088384256 -0.0033971837 0
-0.0034999975 -0.08839751 -0.001366575 0
-0.0035000085 -0.088389061 0.0013939224 0
-0.0034186973 -0.088466123 0.003383026 0
-0.0016127871 -0.088423207 -0.003499689 0
-0.0014458266 -0.088371657 0.0035003163 0
0.0014841086 -0.088615052 -0.003499676 0
0.0014661594 -0.088508405 0.0035003298 0
0.0033454529 -0.088513292 -0.0034085517 0
0.0035000078 -0.08853472 -0.001473742 0
0.003499995 -0.088338397 0.0015627133 0
0.0033854737 -0.088518433 0.0033570682 0
-0.0033948985 -0.085291125 -0.0033493754 0
-0.0034999973 -0.085417703 -0.0015846485 0
-0.003500009 -0.085615389 0.0015606602 0
-0.0033314046 -0.085628405 0.0033345865 0
-0.0015503707 -0.085523225 -0.0034996993 0
-0.0014185249 -0.085476987 0.0035003065 0
0.0015478292 -0.085554816 -0.0034996872 0
0.0016081902 -0.085463382 0.0035003168 0
0.0033754115 -0.085730523 -0.003375225 0
0.0035000092 -0.085516527 -0.001500058 0
0.0034999952 -0.08547958 0.0014131418 0
0.003299105 -0.085327975 0.0034191664 0
-0.00336436 -0.082385518 -0.0033929695 0
-0.0034999952 -0.082586735 -0.0014966547 0
-0.0035000062 -0.08254569 0.0017247988 0
-0.0033651355 -0.082670316 0.0033949609 0
-0.0014519704 -0.082469173 -0.0034997084 0
-0.0015156969 -0.082530402 0.0035002977 0
0.0014770726 -0.082417324 -0.0034996995 0
0.0014850767 -0.082492374 0.0035003042 0
0.0033397856 -0.082606964 -0.0034150572 0
0.0035000071 -0.082556099 -0.0014589357 0
0.0034999948 -0.082667932 0.0015322564 0
0.0034105997 -0.082582906 0.0033282833 0
-0.0034284247 -0.079410337 -0.0033602756 0
-0.0034999957 -0.079434671 -0.0016475739 0
-0.0035000048 -0.079373166 0.001373171 0
-0.003361702 -0.079651244 0.0033232418 0
-0.0013900615 -0.079570748 -0.0034997186 0
-0.0015017954 -0.079362504 0.0035002853 0
0.0014402054 -0.07945025 -0.0034997102 0
0.0015501651 -0.079575792 0.0035002937 0
0.0033515692 -0.079477012 -0.0033763342 0
0.0035000092 -0.079483517 -0.0015279129 0
0.0034999961 -0.07942754 0.0014545125 0
0.0034073682 -0.079586461 0.0033885327 0
-0.0033990031 -0.076303005 -0.0033520299 0
-0.0034999975 -0.076599687 -0.0014700663 0
-0.0035000099 -0.076374732 0.0014030855 0
-0.0033385388 -0.076520383 0.003395821 0
-0.0015593956 -0.076530971 -0.0034997319 0
-0.001392195 -0.07643988 0.0035002716 0
0.0013786309 -0.076467 -0.0034997195 0
0.0012463434 -0.076503098 0.0035002842 0
0.0033517864 -0.07674633 -0.003405652 0
0.0035000094 -0.076527216 -0.0014555046 0
0.0034999989 -0.076481782 0.0014329383 0
0.0033684566 -0.076238349 0.0034167834 0
-0.003395438 -0.073383525 -0.0033344987 0
-0.0034999952 -0.073482014 -0.0016523194 0
-0.0035000094 -0.073484153 0.0015532982 0
-0.0033475012 -0.073550418 0.0034017819 0
-0.0015529059 -0.073334791 -0.0034997447 0
-0.0014160349 -0.073427252 0.0035002637 0
0.0014592056 -0.073465325 -0.0034997326 0
0.0015606664 -0.073381856 0.003500273 0
0.0033674121 -0.073426843 -0.0033956016 0
0.0035000057 -0.073399328 -0.0013720407 0
0.0034999961 -0.073474035 0.0015267465 0
0.0033385733 -0.073634155 0.0033847317 0
-0.0034068509 -0.070480116 -0.0033424939 0
-0.0034999961 -0.070494719 -0.0013724241 0
-0.0035000085 -0.070375942 0.001646985 0
-0.0033849322 -0.07041689 0.003376056 0
-0.0015476051 -0.070578143 -0.0034997535 0
-0.0014886834 -0.070417002 0.003500253 0
0.0015618406 -0.070457466 -0.0034997442 0
0.0012387788 -0.070314035 0.0035002623 0
0.0033393614 -0.070433855 -0.0033475005 0
0.0035000083 -0.070514701 -0.0014970177 0
0.003499995 -0.070592925 0.0014967737 0
0.0033481598 -0.070324264 0.0033792988 0
-0.003397434 -0.067386314 -0.0033929709 0
-0.0034999968 -0.067331821 -0.0015687401 0
-0.0035000055 -0.067637473 0.001449917 0
-0.0034013849 -0.06753087 0.0033346552 0
-0.0015630512 -0.06761805 -0.0034997654 0
-0.0016106034 -0.06738729 0.0035002399 0
0.0015038861 -0.067468584 -0.0034997528 0
0.0014248005 -0.067561947 0.0035002537 0
0.0033999879 -0.067530088 -0.0033460665 0
0.0035000083 -0.067337133 -0.0011971393 0
0.0034999966 -0.067514963 0.0016359835 0
0.003366756 -0.067638099 0.0033621492 0
-0.0034255711 -0.064591072 -0.0033550523 0
-0.0034999964 -0.064393125 -0.001486348 0
-0.003500008 -0.064706556 0.0015751763 0
-0.0033556905 -0.064375281 0.0034031975 0
-0.0016244709 -0.064402364 -0.0034997745 0
-0.001352745 -0.064414084 0.0035002306 0
0.001606587 -0.064429618 -0.0034997633 0
0.0015753856 -0.064330935 0.0035002413 0
0.003376591 -0.064568378 -0.0034223793 0
0.0035000073 -0.064519808 -0.0013458178 0
0.0034999952 -0.064625263 0.0013461026 0
0.0033549566 -0.064472742 0.0033858959 0
-0.0098558664 -0.060000036 -0.0090943761 0
-0.0093956506 -0.060000032 -0.007179149 0
-0.0094696218 -0.060000021 -0.0043665073 0
-0.0097280163 -0.060000006 -0.0015041789 0
-0.0095472885 -0.059999995 0.0018152227 0
-0.0095242402 -0.059999987 0.0041773203 0
-0.0096188569 -0.05999998 0.0064845281 0
-0.0070101181 -0.060000036 -0.0093956459 0
-0.0074656927 -0.06000001 -0.0074913017 0
-0.0076802298 -0.059999995 -0.0045441501 0
-0.0076306663 -0.059999984 -0.0015455661 0
-0.0076551717 -0.059999965 0.0015221166 0
-0.0077591287 -0.05999998 0.0045140502 0
-0.0077259536 -0.059999969 0.0076684263 0
-0.0077843638 -0.059999969 0.0094043594 0
-0.0041904999 -0.060000036 -0.009601946 0
-0.0042863875 -0.060000025 -0.0073920451 0
-0.004052348 -0.060905986 -0.004000728 0
-0.0037866717 -0.06123272 -0.0015357037 0
-0.003839832 -0.060946267 0.0015346574 0
-0.0039970311 -0.061022721 0.003727946 0
-0.0043387935 -0.05999995 0.0074546384 0
-0.0049258294 -0.059999973 0.0095286695 0
-0.0018154453 -0.060000036 -0.0094501842 0
-0.0013266148 -0.060000014 -0.0074835853 0
-0.0014748698 -0.061282393 -0.0036935708 0
-0.00145009 -0.061125901 0.0037406436 0
-0.0012329351 -0.059999958 0.0077261985 0
-0.0022235462 -0.059999969 0.0093367696 0
0.0011697517 -0.060000036 -0.0094850287 0
0.0013499212 -0.060000006 -0.0075219939 0
0.0015754293 -0.061237514 -0.0037519909 0
0.0014267976 -0.06110831 0.0037016934 0
0.0014461522 -0.059999943 0.0076531009 0
0.001277687 -0.059999969 0.0095223021 0
0.0048082755 -0.060000036 -0.009458283 0
0.0043994882 -0.060000006 -0.0074651809 0
0.0039685192 -0.060990267 -0.0039364384 0
0.003840477 -0.061311711 -0.0014217582 0
0.0036834397 -0.061252937 0.001543024 0
0.0037361716 -0.060938016 0.0037468283 0
0.0044430294 -0.059999965 0.0072541633 0
0.0041891988 -0.059999969 0.0093449922 0
0.0072681881 -0.060000036 -0.0097117014 0
0.0074586109 -0.060000021 -0.0075866715 0
0.0072628302 -0.059999995 -0.0044786097 0
0.0074696438 -0.059999991 -0.0015767827 0
0.0075220596 -0.059999961 0.0017068342 0
0.007441476 -0.059999973 0.0041423016 0
0.0072689061 -0.059999961 0.0075789094 0
0.0071986718 -0.059999973 0.0095186615 0
0.0096264714 -0.060000032 -0.0083322553 0
0.0095669236 -0.060000017 -0.0042511714 0
0.0094445376 -0.06000001 -0.0016103748 0
0.009502627 -0.060000002 0.001169389 0
0.0095452266 -0.059999987 0.0037535699 0
0.009690037 -0.059999976 0.0067129801 0
-0.009796246 -0.058633525 -0.0097171841 0
-0.0098806843 -0.059023421 -0.0074736723 0
-0.0099258283 -0.058646712 -0.0045664357 0
-0.009858977 -0.059034158 -0.0015248886 0
-0.0099234488 -0.058753856 0.0014663824 0
-0.0098969387 -0.058754973 0.0046193977 0
-0.0099114357 -0.058666095 0.0075450325 0
-0.0097444197 -0.058707561 0.0096901637 0
-0.0075219898 -0.058961254 -0.0098482771 0
-0.0074949916 -0.05999998 -0.0075361035 0
-0.0076516173 -0.059999976 -0.0045376257 0
-0.0074812993 -0.059999969 -0.0015576284 0
-0.0075787725 -0.059999958 0.0015214434 0
-0.0074874186 -0.059999943 0.0046957443 0
-0.0074927104 -0.059999932 0.007454549 0
-0.007420613 -0.058997318 0.0098713776 0
-0.0044923164 -0.058845676 -0.0099033164 0
-0.0045292908 -0.059999984 -0.0074989484 0
-0.0045539108 -0.059999973 -0.0044938358 0
-0.0048241089 -0.059999969 -0.0015719506 0
-0.0046934444 -0.059999961 0.0015357565 0
-0.004555665 -0.059999939 0.0044635707 0
-0.0046998905 -0.059999935 0.0073390473 0
-0.0044515994 -0.058722943 0.0099248542 0
-0.00157046 -0.058850855 -0.0099117039 0
-0.0014600734 -0.059999987 -0.0075893379 0
-0.0014148586 -0.059999987 -0.0047727316 0
-0.0016376118 -0.059999947 0.004620811 0
-0.0016159909 -0.059999932 0.0074886242 0
-0.001587795 -0.058702428 0.0098973084 0
0.0014727565 -0.058731586 -0.0099168802 0
0.0014394991 -0.059999984 -0.0075832796 0
0.0014719627 -0.059999984 -0.0046640784 0
0.0014505521 -0.059999939 0.0047339862 0
0.0014400965 -0.059999932 0.007502418 0
0.0015197693 -0.058804464 0.0099211009 0
0.0046224915 -0.058728397 -0.0098817209 0
0.0045717354 -0.059999987 -0.0077074999 0
0.0043590614 -0.059999969 -0.0045920722 0
0.0045174346 -0.059999973 -0.0016116292 0
0.0045023477 -0.059999961 0.0015856785 0
0.0045102108 -0.059999943 0.0045099314 0
0.0047155637 -0.059999932 0.0074235913 0
0.0045397291 -0.058745816 0.0098517034 0
0.0074550654 -0.058811035 -0.0099038174 0
0.0073614544 -0.059999987 -0.0074753743 0
0.0074569038 -0.059999969 -0.004622547 0
0.007278794 -0.059999961 -0.0014438272 0
0.0073321881 -0.05999995 0.001611569 0
0.0074801575 -0.059999939 0.0046453397 0
0.00733263 -0.059999932 0.0074719847 0
0.0072854455 -0.058875799 0.0098702684 0
0.0097179925 -0.058612324 -0.009738245 0
0.0098551698 -0.058834262 -0.0075326241 0
0.0098807784 -0.059000656 -0.004547073 0
0.0099277142 -0.058724795 -0.0014863207 0
0.0098773893 -0.058803763 0.0014698074 0
0.0099018477 -0.05889114 0.004489833 0
0.0098772096 -0.058827475 0.0075363526 0
0.0097668171 -0.05845223 0.0097113606 0
-0.0096493559 -0.055344649 -0.0097812908 0
-0.0099999681 -0.055502441 -0.0074035702 0
-0.0099999774 -0.055490255 -0.0045700106 0
-0.0099999877 -0.055476513 -0.0015491504 0
-0.0099999998 -0.055482052 0.0015482204 0
-0.010000011 -0.055383701 0.0045038718 0
-0.010000022 -0.055492021 0.0077035921 0
-0.0097250324 -0.05547896 0.0097828312 0
-0.0074495063 -0.055562347 -0.00999982 0
-0.0074074869 -0.055559076 0.010000168 0
-0.0046718344 -0.05563039 -0.0099998098 0
-0.0045241178 -0.055566989 0.010000179 0
-0.0015739941 -0.055408303 -0.0099997995 0
-0.0013637143 -0.055425644 0.010000189 0
0.0015514274 -0.055409275 -0.0099997884 0
0.0014514473 -0.055485707 0.010000201 0
0.0044008121 -0.055601623 -0.0099997781 0
0.0046151392 -0.055586219 0.010000212 0
0.00762298 -0.055559903 -0.0099997651 0
0.0076418356 -0.055622753 0.010000223 0
0.0097349668 -0.055571169 -0.0097602978 0
0.010000022 -0.055477444 -0.0076766298 0
0.01000001 -0.055513669 -0.0045018792 0
0.0099999988 -0.055469614 -0.0016187814 0
0.0099999886 -0.055596747 0.0015081496 0
0.0099999784 -0.055500317 0.0044077695 0
0.0099999662 -0.055468537 0.0074469517 0
0.0097518433 -0.055456113 0.0097733196 0
-0.0097265067 -0.052431777 -0.0098783271 0
-0.0099999662 -0.052479673 -0.0076430333 0
-0.0099999774 -0.052354775 -0.0044403812 0
-0.0099999886 -0.052516073 -0.0014659845 0
-0.0099999998 -0.052563623 0.0015844582 0
-0.010000009 -0.052434929 0.0044867517 0
-0.010000022 -0.052482437 0.0076793018 0
-0.0097339749 -0.052608825 0.0097413007 0
-0.0075423806 -0.052495189 -0.0099998312 0
-0.0075667044 -0.052445393 0.010000157 0
-0.0044826809 -0.052542612 -0.00999982 0
-0.0045467364 -0.052396171 0.010000167 0
-0.0015688142 -0.052547097 -0.0099998098 0
-0.0014878723 -0.052472413 0.010000179 0
0.0014929059 -0.052294146 -0.0099997995 0
0.0014838007 -0.05241983 0.01000019 0
0.0045539504 -0.052494474 -0.0099997865 0
0.0046218592 -0.052393187 0.0100002 0
0.007540388 -0.052472975 -0.0099997772 0
0.0075708502 -0.052380446 0.010000211 0
0.0096885739 -0.052497126 -0.0098230075 0
0.010000021 -0.052647017 -0.0073968512 0
0.010000011 -0.052399691 -0.0044757496 0
0.0099999988 -0.052516822 -0.0014608427 0
0.0099999877 -0.052582059 0.0017171048 0
0.0099999774 -0.052375223 0.0045129186 0
0.0099999681 -0.052338302 0.007423644 0
0.0097797737 -0.052551303 0.0097076623 0
-0.0097849816 -0.049585324 -0.0097248498 0
-0.0099999681 -0.049441878 -0.0074449009 0
-0.0099999774 -0.049409963 -0.0046766177 0
-0.0099999886 -0.049335565 -0.0014836823 0
-0.0099999998 -0.049582973 0.0015766479 0
-0.010000012 -0.049446985 0.004550925 0
-0.010000022 -0.049555898 0.0076151928 0
-0.0098659247 -0.049714565 0.0096736941 0
-0.0075539351 -0.049603175 -0.0099998415 0
-0.0075398386 -0.049334001 0.010000145 0
-0.0045075743 -0.049523979 -0.0099998321 0
-0.0043541733 -0.049437646 0.010000157 0
-0.0014260738 -0.04952855 -0.00999982 0
-0.0013703898 -0.049581725 0.010000168 0
0.001497508 -0.049470622 -0.0099998089 0
0.0014907045 -0.049573548 0.01000018 0
0.0044672838 -0.049533192 -0.0099997986 0
0.0045454758 -0.049367227 0.01000019 0
0.0074836891 -0.049569089 -0.0099997874 0
0.0074035213 -0.049584344 0.010000202 0
0.0098246457 -0.049578659 -0.0097276 0
0.010000021 -0.049513288 -0.0075342953 0
0.010000009 -0.049575884 -0.0044172811 0
0.0099999998 -0.049569521 -0.0015646857 0
0.0099999886 -0.04950545 0.0014863475 0
0.0099999765 -0.049544331 0.0045286533 0
0.0099999662 -0.049508862 0.0074672499 0
0.0097633991 -0.049366742 0.0096865976 0
-0.009778237 -0.046534412 -0.0096985502 0
-0.0099999681 -0.046587706 -0.0074647563 0
-0.0099999774 -0.046602115 -0.0045029195 0
-0.0099999905 -0.046607506 -0.0014403906 0
-0.0099999998 -0.046512544 0.0014644836 0
-0.010000011 -0.046594352 0.0046118512 0
-0.010000021 -0.046468448 0.0075513516 0
-0.0097861718 -0.046562295 0.0097184274 0
-0.0075251507 -0.046677936 -0.0099998517 0
-0.007440269 -0.046605296 0.010000136 0
-0.0045615705 -0.046477091 -0.0099998424 0
-0.0045292666 -0.046549745 0.010000146 0
-0.001429758 -0.04656475 -0.0099998312 0
-0.0014763561 -0.046467636 0.010000157 0
0.0015624816 -0.046516664 -0.00999982 0
0.0014518223 -0.046442904 0.010000168 0
0.0045495057 -0.046514213 -0.0099998089 0
0.0045274245 -0.046572253 0.01000018 0
0.0075919279 -0.046420615 -0.0099997977 0
0.0074948999 -0.046423078 0.010000189 0
0.0097666793 -0.046410229 -0.0097416257 0
0.010000022 -0.046670143 -0.0075631957 0
0.01000001 -0.046463594 -0.0043737334 0
0.0099999998 -0.046432037 -0.0014684818 0
0.0099999905 -0.046349298 0.0012738677 0
0.0099999784 -0.046505686 0.0044998061 0
0.0099999672 -0.046409808 0.0075193807 0
0.0098315207 -0.046586782 0.0097088963 0
-0.0097361915 -0.043472931 -0.0097954078 0
-0.0099999662 -0.043510288 -0.0076020206 0
-0.0099999765 -0.043547168 -0.0046382314 0
-0.0099999886 -0.043521069 -0.0015672231 0
-0.0099999998 -0.043380558 0.0015255783 0
-0.010000011 -0.04345854 0.0045121498 0
-0.010000022 -0.043478262 0.0074908342 0
-0.0097783115 -0.043397307 0.0098061282 0
-0.0074166334 -0.043552157 -0.0099998647 0
-0.0074808453 -0.043590035 0.010000125 0
-0.0045299665 -0.043471202 -0.0099998536 0
-0.0045503215 -0.043497384 0.010000135 0
-0.0016164008 -0.043561887 -0.0099998424 0
-0.0015293468 -0.043519817 0.010000146 0
0.0014467859 -0.043443523 -0.0099998312 0
0.0016581449 -0.043429073 0.010000158 0
0.0046192496 -0.04349944 -0.00999982 0
0.0044603543 -0.043452673 0.010000167 0
0.0074136285 -0.043441441 -0.0099998107 0
0.0076139942 -0.043507691 0.01000018 0
0.0097198728 -0.043391936 -0.0097333137 0
0.010000022 -0.043401588 -0.0076229903 0
0.010000011 -0.043314867 -0.0045693289 0
0.0099999998 -0.043449305 -0.001338785 0
0.0099999886 -0.043537367 0.0014704757 0
0.0099999774 -0.043466639 0.0046107252 0
0.0099999662 -0.04346193 0.007596754 0
0.0098591214 -0.043648198 0.0096720858 0
-0.0096927453 -0.040471822 -0.0097926641 0
-0.0099999672 -0.040615309 -0.0075526661 0
-0.0099999784 -0.040501513 -0.0044644158 0
-0.0099999886 -0.040529333 -0.0016006394 0
-0.0099999988 -0.040500097 0.0015749701 0
-0.01000001 -0.040576294 0.0044698706 0
-0.010000021 -0.040508132 0.0073825829 0
-0.0097447196 -0.040424112 0.0097783199 0
-0.0077485633 -0.040397432 -0.0099998768 0
-0.0076878774 -0.040397186 0.010000112 0
-0.0048365709 -0.040540371 -0.0099998638 0
-0.00466527 -0.040476099 0.010000124 0
-0.0015992532 -0.040429771 -0.0099998536 0
-0.0014884758 -0.040427435 0.010000135 0
0.0015235675 -0.04048809 -0.0099998424 0
0.0015706526 -0.040472403 0.010000146 0
0.0045091333 -0.040678937 -0.0099998293 0
0.0044367122 -0.040621303 0.010000156 0
0.0073741525 -0.04034308 -0.009999821 0
0.0074566822 -0.040672 0.010000168 0
0.009756336 -0.040405087 -0.0097040236 0
0.010000021 -0.040432956 -0.0073342863 0
0.010000011 -0.040504899 -0.0045071472 0
0.0099999988 -0.040493142 -0.0016652258 0
0.0099999886 -0.04064652 0.0014915797 0
0.0099999774 -0.040453691 0.0045152344 0
0.0099999672 -0.040598102 0.0074760984 0
0.0097921491 -0.040492661 0.0097447848 0
-0.0097815748 -0.037536249 -0.0097462302 0
-0.0099999672 -0.037479769 -0.0075429357 0
-0.0099999784 -0.037444931 -0.0044752317 0
-0.0099999886 -0.03765139 -0.001558779 0
-0.010000001 -0.037612926 0.0014597266 0
-0.01000001 -0.037394419 0.0044540679 0
-0.010000021 -0.037512153 0.0074154111 0
-0.0097752996 -0.037407879 0.0097561302 0
-0.0074744974 -0.037415847 -0.0099998862 0
-0.0074439454 -0.037470639 0.010000103 0
-0.0045820349 -0.037534375 -0.009999875 0
-0.0045866049 -0.037641227 0.010000113 0
-0.0013840537 -0.037514079 -0.0099998629 0
-0.0014638471 -0.037569322 0.010000125 0
0.0013713997 -0.037503973 -0.0099998526 0
0.0013805422 -0.037494984 0.010000135 0
0.0043877964 -0.037586682 -0.0099998415 0
0.0044406392 -0.037309583 0.010000145 0
0.0075178067 -0.037473898 -0.0099998312 0
0.0075340215 -0.037514273 0.010000156 0
0.0098551223 -0.037349641 -0.009694905 0
0.010000021 -0.037553843 -0.007356022 0
0.01000001 -0.03742902 -0.0045526633 0
0.0099999998 -0.037379377 -0.001470037 0
0.0099999886 -0.037542664 0.0016299823 0
0.0099999784 -0.037498999 0.0046188543 0
0.0099999672 -0.037563805 0.0074733249 0
0.0097762067 -0.037570648 0.0097666355 0
-0.0097535355 -0.034693666 -0.0096823703 0
-0.0099999662 -0.034460779 -0.0076021454 0
-0.0099999784 -0.034480054 -0.004332636 0
-0.0099999886 -0.034290418 -0.0015435403 0
-0.0099999988 -0.03440157 0.0015498697 0
-0.01000001 -0.034352951 0.0044115218 0
-0.010000021 -0.034428146 0.0075169657 0
-0.0097082304 -0.034703776 0.0097335735 0
-0.0075281118 -0.034727067 -0.0099998955 0
-0.0075753331 -0.034558069 0.010000091 0
-0.0044417479 -0.034588806 -0.0099998843 0
-0.0046348381 -0.034490544 0.010000102 0
-0.001578649 -0.034364752 -0.009999875 0
-0.0015520949 -0.034509629 0.010000113 0
0.0014050986 -0.034691054 -0.0099998638 0
0.0015643489 -0.034353171 0.010000125 0
0.00455902 -0.034449875 -0.0099998526 0
0.0045191394 -0.03444628 0.010000136 0
0.007572291 -0.034502733 -0.0099998424 0
0.0073952163 -0.034486189 0.010000146 0
0.0097220503 -0.034468859 -0.009782536 0
0.010000021 -0.034389723 -0.0074300212 0
0.01000001 -0.034407925 -0.0045582522 0
0.0099999988 -0.034411594 -0.0014116906 0
0.0099999895 -0.034530338 0.0014108982 0
0.0099999765 -0.034489114 0.0045232335 0
0.0099999662 -0.034429733 0.007517044 0
0.0097312117 -0.034586117 0.0097805513 0
-0.009654263 -0.031490788 -0.0097760139 0
-0.0099999672 -0.031432942 -0.0074641635 0
-0.0099999774 -0.031532187 -0.0044310656 0
-0.0099999886 -0.03174495 -0.001504987 0
-0.0099999998 -0.031461742 0.0014812464 0
-0.01000001 -0.031502943 0.004310525 0
-0.01000002 -0.031502977 0.0075536766 0
-0.0097552594 -0.031641647 0.0097387303 0
-0.0075343591 -0.031562358 -0.0099999066 0
-0.0076256678 -0.031568743 0.01000008 0
-0.0045622345 -0.031443022 -0.0099998983 0
-0.0044797384 -0.031324655 0.010000091 0
-0.001404139 -0.03142364 -0.0099998852 0
-0.0014376012 -0.031540524 0.010000102 0
0.001444006 -0.031567007 -0.009999874 0
0.0015994753 -0.031467848 0.010000113 0
0.0046044793 -0.03155892 -0.0099998629 0
0.0044769277 -0.031626496 0.010000125 0
0.0076897321 -0.031655874 -0.0099998517 0
0.0072171912 -0.031536121 0.010000134 0
0.0098065129 -0.031644363 -0.0097265411 0
0.01000002 -0.031462315 -0.0075356467 0
0.01000001 -0.031624902 -0.0045627686 0
0.0099999998 -0.031394795 -0.0015591461 0
0.0099999886 -0.031432785 0.0014594069 0
0.0099999784 -0.031394914 0.004479121 0
0.0099999662 -0.031679071 0.0074299537 0
0.0097500207 -0.031588133 0.0096982187 0
-0.0097266193 -0.028426846 -0.0097257895 0
-0.0099999672 -0.028537104 -0.0074505052 0
-0.0099999784 -0.028546533 -0.0044574449 0
-0.0099999895 -0.028499898 -0.0014889085 0
-0.010000001 -0.028651547 0.0015276439 0
-0.01000001 -0.02842406 0.0045276107 0
-0.010000021 -0.028496115 0.0073823142 0
-0.0096844565 -0.02837084 0.0097847078 0
-0.0075601912 -0.028496103 -0.0099999178 0
-0.0075137056 -0.028646771 0.010000071 0
-0.0043147029 -0.028398184 -0.0099999076 0
-0.0046155294 -0.02862615 0.01000008 0
-0.0014935201 -0.028564496 -0.0099998955 0
-0.0014685153 -0.028412294 0.010000091 0
0.0015160879 -0.028600972 -0.0099998852 0
0.0016514733 -0.028557189 0.010000103 0
0.0045302459 -0.028370965 -0.009999875 0
0.0044106934 -0.028655572 0.010000113 0
0.0076215467 -0.028338527 -0.0099998638 0
0.0073834821 -0.028476624 0.010000124 0
0.0097923828 -0.028507382 -0.009749894 0
0.010000021 -0.028390693 -0.0075427424 0
0.01000001 -0.028493118 -0.0043751425 0
0.010000001 -0.02851397 -0.0016929462 0
0.0099999877 -0.028581971 0.0015609153 0
0.0099999784 -0.028586445 0.0044369455 0
0.0099999662 -0.028485011 0.0074816169 0
0.0097250659 -0.028444819 0.0097350311 0
-0.0097764488 -0.025405237 -0.0097365519 0
-0.0099999672 -0.025540659 -0.0074991225 0
-0.0099999774 -0.025668208 -0.0047235126 0
-0.0099999895 -0.025382904 -0.0014140398 0
-0.0099999998 -0.025441445 0.0016020664 0
-0.010000011 -0.025280153 0.0044222148 0
-0.01000002 -0.02552879 0.0075828545 0
-0.0097538382 -0.025629498 0.0097194212 0
-0.0075260005 -0.025541432 -0.009999929 0
-0.0074885115 -0.025451468 0.010000059 0
-0.0045103231 -0.025462011 -0.0099999188 0
-0.0044516213 -0.025392968 0.01000007 0
-0.0013125656 -0.02543271 -0.0099999066 0
-0.0015704405 -0.025528662 0.010000081 0
0.0015957231 -0.025506904 -0.0099998964 0
0.0014686643 -0.025402069 0.010000092 0
0.0043229628 -0.025382001 -0.0099998871 0
0.0045452807 -0.025540298 0.010000103 0
0.007537513 -0.025490802 -0.009999875 0
0.0076022404 -0.025612842 0.010000115 0
0.0098174997 -0.025633881 -0.0096792104 0
0.010000021 -0.025463615 -0.0074179834 0
0.01000001 -0.02555069 -0.0045019831 0
0.0099999988 -0.025702367 -0.0013442484 0
0.0099999886 -0.025505625 0.0015598114 0
0.0099999784 -0.025470184 0.0044639949 0
0.0099999681 -0.025531428 0.0075441184 0
0.0097545274 -0.025449604 0.0097361831 0
-0.0097412094 -0.022629665 -0.0097013609 0
-0.0099999672 -0.022381013 -0.007372288 0
-0.0099999774 -0.02241216 -0.0045517418 0
-0.0099999877 -0.022506308 -0.001529738 0
-0.010000001 -0.022530274 0.0016748752 0
-0.010000012 -0.022635339 0.0045234896 0
-0.010000022 -0.022298941 0.0076113963 0
-0.0097415289 -0.022428455 0.0097098546 0
-0.0074245366 -0.022509675 -0.0099999402 0
-0.0073516332 -0.02262266 0.010000049 0
-0.0046643764 -0.022610005 -0.009999929 0
-0.0045770984 -0.022650572 0.010000059 0
-0.0015086447 -0.022372721 -0.0099999188 0
-0.001486701 -0.022598777 0.010000071 0
0.0017389322 -0.02255688 -0.0099999048 0
0.0015396164 -0.022497591 0.010000081 0
0.0045548701 -0.022491021 -0.0099998964 0
0.0044191363 -0.0227008 0.010000092 0
0.0073536998 -0.02277728 -0.0099998852 0
0.0074258549 -0.022390068 0.010000102 0
0.0097355768 -0.022864403 -0.0097012743 0
0.010000021 -0.022530789 -0.0076409238 0
0.01000001 -0.022534044 -0.0045287269 0
0.0099999988 -0.022478819 -0.0015057796 0
0.0099999877 -0.022599224 0.0014598216 0
0.0099999793 -0.022721518 0.0044503831 0
0.0099999662 -0.022397196 0.0075933901 0
0.0096879033 -0.022532115 0.0098103331 0
-0.0097972127 -0.019548927 -0.0097045545 0
-0.0099999681 -0.019496448 -0.0072336933 0
-0.0099999774 -0.01944441 -0.0045775669 0
-0.0099999886 -0.019550623 -0.0015622036 0
-0.0099999998 -0.019406922 0.0015028775 0
-0.010000011 -0.019467331 0.0045871967 0
-0.010000021 -0.01944221 0.0075538536 0
-0.0097332522 -0.019777216 0.0097507117 0
-0.0075737233 -0.019563092 -0.0099999513 0
-0.0074732774 -0.019617271 0.010000039 0
-0.0045119873 -0.019496048 -0.0099999402 0
-0.0046820412 -0.01954638 0.010000048 0
-0.0014705443 -0.019595273 -0.009999929 0
-0.0013300111 -0.019549076 0.010000061 0
0.001501832 -0.019459693 -0.0099999169 0
0.0013935859 -0.019544467 0.010000071 0
0.004559237 -0.019346468 -0.0099999066 0
0.0045102569 -0.019496266 0.010000082 0
0.0074709002 -0.019428544 -0.0099998964 0
0.0076194499 -0.019519387 0.010000092 0
0.0097785192 -0.019524356 -0.0097246394 0
0.010000021 -0.01954655 -0.0073824991 0
0.010000009 -0.019470254 -0.0044865347 0
0.0099999988 -0.019462734 -0.0014110917 0
0.0099999886 -0.019433988 0.0015837424 0
0.0099999784 -0.019648204 0.004338027 0
0.0099999672 -0.019468866 0.0075417501 0
0.0098088905 -0.01932295 0.0097363032 0
-0.0097739063 -0.016493412 -0.009689291 0
-0.0099999672 -0.016579641 -0.0075700399 0
-0.0099999774 -0.01649107 -0.0045864298 0
-0.0099999886 -0.016530277 -0.0014559034 0
-0.0099999998 -0.016315013 0.0014877272 0
-0.010000009 -0.016560243 0.0044161263 0
-0.010000021 -0.016484072 0.00751307 0
-0.0097394297 -0.016567409 0.0097535336 0
-0.0074624815 -0.016571622 -0.0099999616 0
-0.0076105632 -0.016469065 0.010000026 0
-0.0045986502 -0.016556773 -0.0099999513 0
-0.004502702 -0.016609147 0.010000038 0
-0.0014662222 -0.016589416 -0.0099999402 0
-0.0016155336 -0.016459765 0.010000048 0
0.0014268013 -0.016493851 -0.009999929 0
0.0014157838 -0.016547674 0.010000059 0
0.0043838904 -0.016461153 -0.0099999188 0
0.0045270468 -0.016491873 0.010000071 0
0.0074524474 -0.016472876 -0.0099999085 0
0.0075349598 -0.016452806 0.010000081 0
0.0097779892 -0.01644012 -0.009756323 0
0.010000022 -0.016649321 -0.0075715887 0
0.010000009 -0.016574012 -0.0044298689 0
0.0099999998 -0.016750187 -0.0015801601 0
0.0099999877 -0.016349846 0.0014876949 0
0.0099999784 -0.016676614 0.0044870749 0
0.0099999672 -0.016616175 0.0075347223 0
0.0098144868 -0.016497849 0.0096986638 0
-0.0098031303 -0.013451694 -0.0096982392 0
-0.0099999672 -0.01349016 -0.0075609572 0
-0.0099999784 -0.013465296 -0.0044468944 0
-0.0099999886 -0.013553197 -0.001454485 0
-0.0099999998 -0.013425766 0.0016321222 0
-0.010000011 -0.013469177 0.0045130989 0
-0.010000021 -0.013501224 0.0073895096 0
-0.0097184265 -0.013531113 0.0097447243 0
-0.0075071785 -0.013588261 -0.0099999718 0
-0.0074789491 -0.013656777 0.010000017 0
-0.0044480236 -0.013639892 -0.0099999607 0
-0.0044237017 -0.013622513 0.010000027 0
-0.0015255656 -0.013505799 -0.0099999513 0
-0.0015527313 -0.013484965 0.010000037 0
0.0014441364 -0.013581681 -0.0099999402 0
