# .PCD v0.7 - Point Cloud Data file format
VERSION 0.7
FIELDS x y z rgb
SIZE 4 4 4 4
TYPE F F F F
COUNT 1 1 1 1
WIDTH 1170
HEIGHT 1
VIEWPOINT 0 0 0 1 0 0 0
POINTS 1170
DATA ascii
0.0039565088 -0.18740718 0.0042993105 0
-0.0045057922 -0.18442252 -0.0045459098 0
-0.004999992 -0.18455814 -0.0015903083 0
-0.0050000036 -0.18455528 0.0015334827 0
-0.0044067949 -0.18447158 0.0045205327 0
-0.0013982634 -0.18453035 -0.0049993349 0
-0.0014047084 -0.18463215 0.0049647097 0
0.0015315808 -0.1845727 -0.0049993247 0
0.0013979347 -0.18441729 -0.0013972571 0
0.0015617815 -0.1845948 0.0015312252 0
0.0015290329 -0.18443291 0.0049353838 0
0.0039533116 -0.18455938 -0.0043684584 0
0.003026362 -0.18495603 0.002966526 0
0.0040183933 -0.18459935 0.0043479409 0
-0.0045730621 -0.181407 -0.0044288984 0
-0.0049999929 -0.18158554 -0.0017258415 0
-0.0050000045 -0.18151808 0.0017472823 0
-0.0045204037 -0.18159039 0.0044554882 0
-0.0015073536 -0.18120949 -0.004999347 0
-0.0014873933 -0.18166055 0.0049655251 0
0.0014656754 -0.18166785 -0.0049993354 0
0.00150915 -0.18147941 -0.0015084821 0
0.0015921893 -0.18163568 0.0015610141 0
0.0015861042 -0.18147646 0.0049348017 0
0.0039246413 -0.18151812 -0.0043110391 0
0.0039308956 -0.18155345 0.0043661897 0
-0.0044571734 -0.17845325 -0.0045491592 0
-0.0049999915 -0.17860167 -0.0016209867 0
-0.0050000036 -0.17849527 0.0017109254 0
-0.0044994848 -0.17841187 0.0046117147 0
-0.0015541784 -0.17833053 -0.0049993587 0
-0.0015014494 -0.17861922 0.0049656541 0
0.00158026 -0.17845623 -0.004999347 0
0.0014604817 -0.17867005 -0.0014598244 0
0.0014712744 -0.17830761 0.0014425053 0
0.0015094611 -0.17860585 0.004935558 0
0.0040804115 -0.17866614 -0.0044847406 0
0.0040468657 -0.17832999 0.0043907696 0
-0.0045359638 -0.17547992 -0.0043695285 0
-0.0049999934 -0.17544641 -0.0014500463 0
-0.0050000045 -0.17565382 0.0015489087 0
-0.0044581559 -0.17546621 0.0044341399 0
-0.0014674279 -0.17547674 -0.004999368 0
-0.0014506874 -0.1756863 0.0049651368 0
0.0017114194 -0.17546888 -0.0049993563 0
0.0014954623 -0.17547925 -0.001494816 0
0.0015210884 -0.17547336 0.0014913126 0
0.0014199039 -0.17543651 0.0049364413 0
0.0039577466 -0.17557509 -0.0044540563 0
0.0030267688 -0.17604689 0.0029668924 0
0.0041387761 -0.17568806 0.0044319225 0
-0.0043807668 -0.17244813 -0.0044912314 0
-0.0049999924 -0.17256947 -0.0015581368 0
-0.0050000036 -0.1726487 0.0015401006 0
-0.0045072599 -0.17244552 0.0045384131 0
-0.0012550242 -0.17239484 -0.0049993782 0
-0.0014522322 -0.17257932 0.0049651423 0
0.00130498 -0.1725716 -0.0049993685 0
0.0014694185 -0.17248158 -0.0014687835 0
0.0015806408 -0.1725699 0.0015496642 0
0.0014348604 -0.17231108 0.0049362793 0
0.0040983977 -0.17225263 -0.0044679195 0
0.0030218442 -0.17226128 0.0029620526 0
0.0040485496 -0.17236219 0.0044450681 0
-0.0044968477 -0.16962884 -0.0045706616 0
-0.004999992 -0.16962759 -0.0013864127 0
-0.0050000022 -0.16950959 0.0012957614 0
-0.0045804554 -0.16946997 0.0043973788 0
-0.0012643232 -0.16971973 -0.0049993885 0
-0.0014891544 -0.16939397 0.0049654986 0
0.0014496271 -0.16949075 -0.0049993787 0
0.0016159657 -0.16947611 -0.0016153406 0
0.0014736576 -0.1695053 0.0014448086 0
0.0014446842 -0.16946928 0.0049361717 0
0.0039283712 -0.16946153 -0.0044312985 0
0.0030494574 -0.16893145 0.0029891012 0
0.0040614596 -0.1693604 0.0043787365 0
-0.0044567753 -0.1664131 -0.0045943819 0
-0.004999992 -0.16659346 -0.001580826 0
-0.0050000036 -0.16630974 0.0015439012 0
-0.0045283255 -0.16644579 0.0045603784 0
-0.0014444168 -0.16641039 -0.0049994001 0
-0.0013316603 -0.16653843 0.0049639144 0
0.0015371951 -0.16643071 -0.0049993894 0
0.0016167009 -0.16658148 -0.0016160862 0
0.0013948625 -0.16645001 0.0013675779 0
0.0014136359 -0.16658975 0.004936472 0
0.0039855316 -0.16644588 -0.0043483982 0
0.0030385759 -0.16540132 0.0029784248 0
0.0040317904 -0.16648845 0.0044282312 0
-0.0045125936 -0.16336538 -0.004449694 0
-0.004999991 -0.16351469 -0.0016341435 0
-0.0050000022 -0.16353352 0.001327495 0
-0.0045237355 -0.16360773 0.0045040585 0
-0.0016639865 -0.16350374 -0.0049994118 0
-0.0016633823 -0.16331889 0.0049672192 0
0.0013075424 -0.16341466 -0.004999402 0
0.0016104688 -0.16344392 -0.0016098656 0
0.0015286566 -0.16343772 0.0014986864 0
0.0014599471 -0.16332772 0.0049359971 0
0.004008031 -0.16335616 -0.004415621 0
0.0039981059 -0.16358368 0.0044000377 0
-0.0046153339 -0.16062799 -0.0043849037 0
-0.0049999924 -0.16070762 -0.0015933014 0
-0.0050000031 -0.16051531 0.0016108144 0
-0.0043284073 -0.1604764 0.0046305787 0
-0.0014891844 -0.16042162 -0.0049994225 0
-0.0015575519 -0.16043696 0.004966151 0
0.0015072579 -0.16049927 -0.0049994113 0
0.0014984162 -0.16055422 -0.001497824 0
0.0015045753 -0.16037826 0.0014750746 0
0.0017750725 -0.16060418 0.004932838 0
0.0041347886 -0.16045019 -0.004553651 0
0.003042774 -0.16044211 0.002982521 0
0.0040286612 -0.16053341 0.0043746745 0
-0.0046345117 -0.15739121 -0.0043261675 0
-0.0049999929 -0.15719661 -0.0014219499 0
-0.0050000031 -0.15761968 0.0013993069 0
-0.0045338804 -0.15744168 0.0044112778 0
-0.0014416639 -0.15748735 -0.0049994336 0
-0.0014992183 -0.15764698 0.0049655577 0
0.0015441116 -0.15746649 -0.0049994225 0
0.0014096316 -0.15756607 -0.0014090509 0
0.0015646223 -0.15739043 0.0015339107 0
0.0015377909 -0.15763775 0.004935198 0
0.0038299363 -0.15769044 -0.0043136142 0
0.0039786422 -0.15752731 0.0043406775 0
-0.0043504992 -0.15440841 -0.0046080267 0
-0.0049999929 -0.15458308 -0.0014375644 0
-0.0050000036 -0.15448168 0.0013688371 0
-0.004433217 -0.15452686 0.0045532268 0
-0.0014994519 -0.154414 -0.0049994444 0
-0.0015370501 -0.15460709 0.0049659247 0
0.0015091107 -0.15467018 -0.0049994332 0
0.0015626935 -0.15445182 -0.001562123 0
0.0015937651 -0.15432477 0.0015624601 0
0.0016481247 -0.15422963 0.0049340823 0
0.0040074284 -0.15444382 -0.0043913885 0
0.0041039782 -0.15436968 0.0044301292 0
-0.0045094071 -0.15146978 -0.0045196009 0
-0.0049999924 -0.15153639 -0.0016651825 0
-0.0050000027 -0.15156847 0.001422514 0
-0.0044865739 -0.15161517 0.0044570705 0
-0.0014602802 -0.15156481 -0.0049994546 0
-0.0014284232 -0.15139292 0.0049648266 0
0.0013438613 -0.15156873 -0.0049994448 0
0.0015197037 -0.15157887 -0.001519144 0
0.0014162447 -0.15123555 0.0013884769 0
0.0012526786 -0.15157406 0.0049380255 0
0.004062538 -0.15181856 -0.0043726172 0
0.0030476623 -0.15225877 0.0029872819 0
0.0039958474 -0.15157114 0.0042985841 0
-0.0044472823 -0.14860335 -0.0045472598 0
-0.0049999924 -0.14863868 -0.0015340208 0
-0.0050000031 -0.14857146 0.0014480881 0
-0.0043849754 -0.14841761 0.0044867578 0
-0.0014743952 -0.14855196 -0.0049994653 0
-0.0016064373 -0.14829513 0.0049665952 0
0.0015224139 -0.14829287 -0.0049994551 0
0.0015117442 -0.14857484 -0.0015111954 0
0.001468793 -0.14863847 0.0014399657 0
0.0012815931 -0.14840212 0.0049377251 0
0.0039956574 -0.14855509 -0.0043371827 0
0.0030228661 -0.14882793 0.002962969 0
0.0040690713 -0.14841849 0.0043957038 0
-0.0045657628 -0.14539202 -0.0044293399 0
-0.004999992 -0.14547347 -0.0014826814 0
-0.0050000031 -0.14535551 0.0015997743 0
-0.0044857827 -0.14552845 0.0045387046 0
-0.0016040099 -0.14561197 -0.0049994765 0
-0.0014858493 -0.14558065 0.0049653803 0
0.0016207908 -0.14546131 -0.0049994658 0
0.0013254024 -0.14536898 -0.0013248667 0
0.0013923926 -0.14553876 0.0013650815 0
0.0013078473 -0.14570777 0.0049374541 0
0.0039302618 -0.14547057 -0.004306417 0
0.0030163107 -0.14621373 0.0029565354 0
0.0041317972 -0.14536726 0.0043470166 0
-0.0045338338 -0.14244935 -0.0044876258 0
-0.004999992 -0.14287195 -0.001563665 0
-0.0050000027 -0.14241438 0.0013345907 0
-0.0046160836 -0.14247826 0.0044763642 0
-0.0014649369 -0.14237787 -0.0049994877 0
-0.0016260558 -0.14246942 0.0049667703 0
0.0015500463 -0.14263001 -0.004999476 0
0.0015425015 -0.1423025 -0.0015419752 0
0.0015538466 -0.1424392 0.0015232961 0
0.0013254739 -0.14253515 0.0049372655 0
0.004001067 -0.14242448 -0.0044420534 0
0.003888509 -0.14245248 0.0043270257 0
-0.0044995928 -0.13956423 -0.0045779571 0
-0.0049999934 -0.13948497 -0.0013382587 0
-0.0050000027 -0.13952124 0.0013646497 0
-0.0045068082 -0.13949867 0.0045216852 0
-0.0016070359 -0.13938446 -0.0049994988 0
-0.0015761915 -0.13959651 0.0049662613 0
0.0014381497 -0.1396749 -0.0049994872 0
0.0015345471 -0.13957089 -0.0015340307 0
0.0015381225 -0.13968442 0.0015078771 0
0.0016304723 -0.1392327 0.0049342047 0
0.0039763423 -0.13954225 -0.0043639932 0
0.0040341062 -0.1394448 0.0045006289 0
-0.0045240391 -0.13640755 -0.004512589 0
-0.0049999924 -0.13647562 -0.0015993027 0
-0.0050000031 -0.1364399 0.0015510282 0
-0.0044787219 -0.13643542 0.0044310098 0
-0.0013818961 -0.1365197 -0.0049995086 0
-0.0014075621 -0.13642853 0.0049645645 0
0.0013171465 -0.13664603 -0.0049994993 0
0.0015386089 -0.13657913 -0.0015381033 0
0.0017141062 -0.13636893 0.0016803294 0
0.0014721444 -0.13650566 0.0049357782 0
0.0039490652 -0.136645 -0.0044305306 0
0.0030357118 -0.13783866 0.0029755181 0
0.0041215527 -0.13639195 0.0043521128 0
-0.0044825794 -0.13346696 -0.0045291334 0
-0.0049999934 -0.13362382 -0.0014325465 0
-0.0050000036 -0.13348661 0.0014869618 0
-0.0044624987 -0.13358063 0.0044451226 0
-0.0015924228 -0.13354681 -0.0049995198 0
-0.0015360654 -0.13326354 0.0049658366 0
0.0014440834 -0.13341352 -0.0049995095 0
0.0015685193 -0.13366064 -0.001568024 0
0.0015599004 -0.13373616 0.0015291979 0
0.0016009954 -0.13336918 0.0049344772 0
0.0039655673 -0.13342963 -0.0044591683 0
0.0030117631 -0.13327105 0.002952032 0
0.0041336184 -0.13354892 0.0043912493 0
-0.0045883385 -0.13055554 -0.0044902344 0
-0.0049999924 -0.13046226 -0.0016204276 0
-0.0050000027 -0.13042991 0.0014005369 0
-0.0044375081 -0.13053706 0.0044904985 0
-0.0014786532 -0.13050079 -0.004999531 0
-0.00152039 -0.13047132 0.0049656709 0
0.0014241686 -0.13053165 -0.0049995203 0
0.0014487156 -0.13046804 -0.0014482328 0
0.0013476308 -0.13052343 0.0013211605 0
0.0014982683 -0.13056314 0.0049354951 0
0.0039678491 -0.13062505 -0.0043697548 0
0.0030309905 -0.12998711 0.0029708629 0
0.0040213112 -0.13044849 0.0043255333 0
-0.0045050019 -0.1274696 -0.0044216039 0
-0.0049999915 -0.12759961 -0.0017071408 0
-0.0050000041 -0.12757416 0.0014527527 0
-0.0044884956 -0.12742105 0.0044859597 0
-0.0013586549 -0.12749372 -0.0049995412 0
-0.0014917554 -0.12742923 0.0049653738 0
0.0014514856 -0.12753582 -0.0049995319 0
0.0013476113 -0.12736244 -0.0013471405 0
0.0016328429 -0.12754476 0.001600659 0
0.0015682072 -0.12754484 0.0049347854 0
0.0041451156 -0.12739219 -0.0044791372 0
0.0030371442 -0.12762642 0.0029768846 0
0.0039472259 -0.12753825 0.0043604728 0
-0.0044896663 -0.12423626 -0.0044564409 0
-0.004999992 -0.12458343 -0.0015073715 0
-0.0050000027 -0.12448318 0.0014772899 0
-0.0045096707 -0.12450449 0.0045244913 0
-0.0014058456 -0.12459713 -0.004999551 0
-0.0016309834 -0.12455056 0.004966754 0
0.0014938279 -0.12462579 -0.0049995412 0
0.0017264994 -0.12451389 -0.0017260361 0
0.001446162 -0.1243831 0.001417699 0
0.0014269706 -0.12448981 0.0049361857 0
0.0039809672 -0.12469784 -0.0044238502 0
0.0039445502 -0.12451898 0.0042836284 0
-0.0094038425 -0.12000003 -0.0090585677 0
-0.0093951682 -0.12000003 -0.008148496 0
-0.0095703676 -0.12000001 -0.0037153794 0
-0.0093695978 -0.12 -0.0017017522 0
-0.0091083487 -0.11999999 0.0010920225 0
-0.0093712434 -0.11999998 0.0037006105 0
-0.0095000146 -0.11999997 0.0071761152 0
-0.0097359866 -0.11999996 0.0097221844 0
-0.0074233669 -0.12000003 -0.0077100904 0
-0.0075446516 -0.12000003 -0.0045473329 0
-0.0076165297 -0.12 -0.0011410933 0
-0.0078226458 -0.11999999 0.0015086175 0
-0.007804933 -0.12 0.0046162372 0
-0.0073236548 -0.11999995 0.0075874729 0
-0.0078911539 -0.11999996 0.009348888 0
-0.0041359272 -0.12000003 -0.0093884505 0
-0.0045024608 -0.12000004 -0.0074082394 0
-0.0046546194 -0.12142537 -0.0045331321 0
-0.0050517311 -0.12146959 -0.0016104085 0
-0.0050081424 -0.12144198 0.0015409419 0
-0.0045304853 -0.121416 0.0044345497 0
-0.0044475296 -0.11999996 0.0076864725 0
-0.0043093646 -0.11999996 0.0092941551 0
-0.0010475786 -0.12000003 -0.0094613703 0
-0.0012688467 -0.12000003 -0.0076237698 0
-0.001301819 -0.121594 -0.0050172955 0
-0.0014853377 -0.12144654 0.00499829 0
-0.0015438114 -0.11999997 0.0078316815 0
-0.0020193348 -0.11999997 0.009535498 0
0.001480635 -0.12000003 -0.0093756737 0
0.0018307164 -0.12 -0.007180782 0
0.0013562646 -0.12126564 -0.0050273314 0
0.0016766667 -0.12150038 -0.0016029845 0
0.0015196891 -0.12136655 0.0014484089 0
0.0014380828 -0.1212227 0.0049830112 0
0.0021004435 -0.11999998 0.0075457725 0
0.0020326595 -0.11999996 0.0095424298 0
0.0038639044 -0.12000003 -0.0093422802 0
0.0041691596 -0.12000004 -0.0077379141 0
0.0040279045 -0.12126868 -0.0044276635 0
0.0042587183 -0.12000002 -0.001275278 0
0.0042654765 -0.11999999 0.0012066802 0
0.0041096746 -0.12113944 0.0043581943 0
0.0046204594 -0.11999998 0.0078456663 0
0.0044033388 -0.11999996 0.0096547604 0
0.0066752718 -0.12000003 -0.0094071552 0
0.0073748338 -0.12 -0.0075307521 0
0.0074107782 -0.11999998 -0.0046027484 0
0.0074206521 -0.12 -0.0017116144 0
0.0078270864 -0.11999996 0.0018763999 0
0.0077440022 -0.11999998 0.0046494738 0
0.0071714297 -0.11999995 0.0074996855 0
0.0078652734 -0.11999997 0.0092468876 0
0.0095277838 -0.12000003 -0.009857866 0
0.0090992302 -0.12000003 -0.007706821 0
0.0094776154 -0.12 -0.0014025471 0
0.0096405279 -0.11999999 0.0012618729 0
0.0096279038 -0.11999998 0.0042319 0
0.009436137 -0.11999997 0.0070550591 0
0.0095111318 -0.11999996 0.0093252556 0
-0.0095777996 -0.11874609 -0.0097537581 0
-0.0099259475 -0.11882307 -0.0074715661 0
-0.0098725976 -0.11894552 -0.0045603374 0
-0.0098913116 -0.11874112 -0.0014542071 0
-0.0099151898 -0.11878894 0.0013523322 0
-0.0099470513 -0.11866923 0.0045617474 0
-0.0099433158 -0.11886129 0.0075921994 0
-0.0096946815 -0.11884215 0.009696478 0
-0.0075363684 -0.1189669 -0.0098722829 0
-0.0075552315 -0.11999996 -0.0078140618 0
-0.0075069712 -0.11999998 -0.0047077113 0
-0.0075584939 -0.11999994 -0.0013909645 0
-0.0071102749 -0.11999995 0.001608014 0
-0.0073661213 -0.11999991 0.0044412399 0
-0.007584943 -0.1199999 0.0075091138 0
-0.0074787531 -0.11867268 0.0099249603 0
-0.0046297046 -0.11879092 -0.0099084489 0
-0.0044488306 -0.11999996 -0.0077042887 0
-0.0049744309 -0.11999998 -0.0049213604 0
-0.0055362326 -0.12 -0.0015663865 0
-0.0054451316 -0.11999999 0.0015621412 0
-0.0048119118 -0.11999995 0.0049721459 0
-0.0044933758 -0.1199999 0.0073788334 0
-0.0042900215 -0.1186152 0.00991493 0
-0.001445731 -0.1187699 -0.0098737702 0
-0.0014715955 -0.11999997 -0.0076608178 0
-0.0016336022 -0.12000002 -0.0056456616 0
-0.0012969832 -0.11999997 0.0055268719 0
-0.0015498283 -0.1199999 0.0073797572 0
-0.0014809212 -0.11880475 0.00987578 0
0.0015286035 -0.11888675 -0.0098839859 0
0.0015546164 -0.11999996 -0.0076993066 0
0.001377794 -0.12000001 -0.0054959254 0
0.0020940844 -0.11999999 -0.00073682779 0
0.0018194793 -0.11999996 0.0010083508 0
0.0013981484 -0.11999997 0.0054383697 0
0.0012523968 -0.11999992 0.0074532847 0
0.0014089264 -0.11874168 0.0098898308 0
0.004569436 -0.11859906 -0.0099098198 0
0.0047870171 -0.11999995 -0.0076609803 0
0.0047844611 -0.11999997 -0.0047343783 0
0.0045212363 -0.11999993 -0.0014027585 0
0.0046752454 -0.11999992 0.0015183715 0
0.0048800502 -0.11999994 0.0047001713 0
0.0045201085 -0.1199999 0.0074392534 0
0.0045999479 -0.1189108 0.009863019 0
0.0073590209 -0.11887006 -0.0098854145 0
0.0075062928 -0.11999996 -0.0075113061 0
0.0074565555 -0.11999995 -0.004367332 0
0.0074029486 -0.11999996 -0.0016335646 0
0.00763383 -0.11999992 0.001509498 0
0.0077591427 -0.11999994 0.0045355968 0
0.0074210097 -0.1199999 0.007381808 0
0.0073928614 -0.11893705 0.0098719206 0
0.0096627334 -0.11895166 -0.0097506717 0
0.0099160308 -0.11875825 -0.0074371919 0
0.0099044256 -0.11890159 -0.0043788906 0
0.0099188741 -0.11872109 -0.0014229459 0
0.0098897796 -0.11896997 0.0016662388 0
0.0098718451 -0.11882768 0.0046341373 0
0.0099028768 -0.1188528 0.0074276445 0
0.0097310338 -0.11859448 0.009588589 0
-0.0096859885 -0.11571754 -0.0098358421 0
-0.0099999681 -0.1156061 -0.0076369382 0
-0.0099999802 -0.11536656 -0.0044634612 0
-0.0099999914 -0.11513427 -0.001432511 0
-0.010000001 -0.11533926 0.0014797503 0
-0.010000013 -0.11565869 0.0045366199 0
-0.010000024 -0.11549123 0.0076780007 0
-0.0097267032 -0.11553806 0.0098494254 0
-0.0073979814 -0.11553025 -0.0099996049 0
-0.0073281019 -0.1156003 0.010000388 0
-0.0046070879 -0.11561856 -0.0099995937 0
-0.0044913059 -0.11532375 0.010000397 0
-0.0016519723 -0.11559084 -0.0099995825 0
-0.0014588599 -0.11543799 0.010000408 0
0.00149135 -0.11561343 -0.0099995714 0
0.0014944357 -0.1153641 0.010000418 0
0.0045389649 -0.11544143 -0.0099995602 0
0.0044131288 -0.11543968 0.01000043 0
0.0075468216 -0.11549656 -0.0099995499 0
0.0074805776 -0.11569383 0.010000442 0
0.0097933337 -0.1155083 -0.009725689 0
0.010000024 -0.11553361 -0.007588787 0
0.010000012 -0.11539813 -0.0044375695 0
0.010000002 -0.11559201 -0.0013138659 0
0.0099999905 -0.11551433 0.0015807326 0
0.0099999784 -0.11532079 0.004530692 0
0.0099999681 -0.11548381 0.0075217499 0
0.0097821411 -0.11572041 0.0097738365 0
-0.0097935926 -0.11273273 -0.0098006418 0
-0.009999969 -0.11262371 -0.0075361892 0
-0.0099999793 -0.11250658 -0.0044301674 0
-0.0099999905 -0.11267678 -0.0015281438 0
-0.010000003 -0.11248943 0.0016975323 0
-0.010000013 -0.11225773 0.0045538978 0
-0.010000023 -0.11251276 0.0073455302 0
-0.0097424081 -0.11235877 0.0098134149 0
-0.0076035587 -0.11274939 -0.0099996161 0
-0.0073972489 -0.11253601 0.010000375 0
-0.0044300756 -0.11266692 -0.009999603 0
-0.0045121 -0.11241409 0.010000385 0
-0.001610808 -0.11255993 -0.0099995928 0
-0.0015159535 -0.11241464 0.010000397 0
0.0014339396 -0.11276263 -0.0099995816 0
0.0013300192 -0.11250585 0.010000408 0
0.0045930408 -0.11247174 -0.0099995732 0
0.0045888112 -0.11245013 0.01000042 0
0.0075044874 -0.11262563 -0.0099995602 0
0.0076125208 -0.11242193 0.01000043 0
0.0097684395 -0.11240786 -0.0097987987 0
0.010000023 -0.11231055 -0.0075986432 0
0.010000013 -0.11239988 -0.0045029693 0
0.010000001 -0.11247228 -0.0012342376 0
0.0099999905 -0.11230819 0.001456751 0
0.0099999784 -0.11226799 0.0045481613 0
0.009999969 -0.11249592 0.0074410634 0
0.0096910475 -0.11241256 0.0098005189 0
-0.0096903257 -0.10933667 -0.0098049948 0
-0.0099999681 -0.10943063 -0.007650238 0
-0.0099999802 -0.10973396 -0.0043468797 0
-0.0099999905 -0.10960883 -0.0013983105 0
-0.010000001 -0.10965604 0.001491386 0
-0.010000011 -0.10947432 0.0043389439 0
-0.010000023 -0.10936804 0.0074412022 0
-0.0097035281 -0.10932961 0.0097773569 0
-0.0076345052 -0.10937437 -0.0099996272 0
-0.0074379714 -0.10930913 0.010000365 0
-0.0045371694 -0.10946774 -0.009999617 0
-0.0046369988 -0.10943614 0.010000376 0
-0.0016393661 -0.10973175 -0.009999604 0
-0.0014177575 -0.10954392 0.010000387 0
0.0015284392 -0.10944765 -0.0099995947 0
0.0014989221 -0.10966501 0.010000398 0
0.0046922336 -0.10948078 -0.0099995816 0
0.0044794497 -0.10976509 0.01000041 0
0.0074448432 -0.10954792 -0.0099995714 0
0.0077581718 -0.10974453 0.010000422 0
0.0097109694 -0.10956585 -0.0098164929 0
0.010000024 -0.10930678 -0.007351608 0
0.010000013 -0.10963737 -0.0043422789 0
0.010000001 -0.10950428 -0.00140355 0
0.0099999914 -0.1093756 0.0013556565 0
0.0099999793 -0.10967662 0.0044823089 0
0.0099999681 -0.10936827 0.007377849 0
0.0097909337 -0.10915987 0.0097552733 0
-0.0097560575 -0.10659792 -0.0097618466 0
-0.00999997 -0.10625814 -0.0074927751 0
-0.0099999793 -0.10646565 -0.0044895876 0
-0.0099999886 -0.10663069 -0.0015150665 0
-0.010000002 -0.10653105 0.0014266417 0
-0.010000012 -0.1063342 0.0045495331 0
-0.010000024 -0.10655954 0.007397566 0
-0.0097176274 -0.10650526 0.0098097213 0
-0.0076253656 -0.1064151 -0.0099996384 0
-0.0074751386 -0.10646147 0.010000356 0
-0.0044381949 -0.10653267 -0.0099996272 0
-0.0045216903 -0.10647903 0.010000364 0
-0.001366629 -0.10660543 -0.0099996151 0
-0.0014930778 -0.10654948 0.010000376 0
0.0014746056 -0.10656438 -0.009999604 0
0.00159995 -0.10652111 0.010000388 0
0.0046693999 -0.10654483 -0.0099995928 0
0.0046506058 -0.10636171 0.010000397 0
0.0073593757 -0.10632223 -0.0099995835 0
0.0074451985 -0.10645001 0.010000409 0
0.0098560667 -0.10654411 -0.0096263131 0
0.010000022 -0.10667126 -0.007424043 0
0.010000012 -0.10654035 -0.0044821389 0
0.010000002 -0.1066011 -0.001493452 0
0.0099999895 -0.1063622 0.0014839163 0
0.0099999793 -0.10657561 0.0044085323 0
0.009999969 -0.10654233 0.0074581862 0
0.0098173711 -0.1064201 0.0096432595 0
-0.0096641742 -0.1033425 -0.0098340269 0
-0.0099999681 -0.10345797 -0.0074069924 0
-0.0099999793 -0.10340659 -0.0043771598 0
-0.0099999914 -0.10351948 -0.0014855183 0
-0.010000001 -0.10365698 0.0015567527 0
-0.010000013 -0.1035852 0.0045373836 0
-0.010000023 -0.10363001 0.0075073787 0
-0.0097102607 -0.10330077 0.0097929677 0
-0.0074502374 -0.10352892 -0.0099996487 0
-0.0075847423 -0.10334394 0.010000343 0
-0.0045516538 -0.10368054 -0.0099996375 0
-0.0047088377 -0.10349885 0.010000353 0
-0.0014791641 -0.10364202 -0.0099996263 0
-0.0016207743 -0.10352027 0.010000364 0
0.001672526 -0.10344746 -0.0099996151 0
0.0015214219 -0.10347258 0.010000376 0
0.0045939717 -0.10351469 -0.0099996049 0
0.004545005 -0.1033744 0.010000386 0
0.0074919309 -0.10337698 -0.0099995937 0
0.00758602 -0.10346416 0.010000397 0
0.0097280433 -0.10352132 -0.0097223949 0
0.010000022 -0.1034587 -0.0074708094 0
0.010000014 -0.10342664 -0.0047072447 0
0.010000001 -0.1035032 -0.0014517625 0
0.0099999905 -0.10341097 0.0014647507 0
0.0099999802 -0.10337918 0.0045503015 0
0.009999969 -0.10377933 0.0074456986 0
0.0097333621 -0.10361827 0.0097526647 0
-0.0097471075 -0.10071087 -0.0098152002 0
-0.0099999681 -0.10047841 -0.007450066 0
-0.0099999802 -0.10045843 -0.0043819882 0
-0.0099999905 -0.10045043 -0.0014181469 0
-0.010000002 -0.10058497 0.0014350902 0
-0.010000012 -0.10052457 0.0044582458 0
-0.010000024 -0.10035022 0.0074961837 0
-0.0098134289 -0.10043317 0.0097328424 0
-0.0074525415 -0.10057848 -0.0099996589 0
-0.0076250643 -0.1004806 0.010000332 0
-0.0042379657 -0.10050394 -0.0099996477 0
-0.0046987957 -0.1005507 0.010000343 0
-0.0014572419 -0.10047059 -0.0099996366 0
-0.0013151417 -0.10041063 0.010000354 0
0.0014902618 -0.10028589 -0.0099996272 0
0.0014836502 -0.10052345 0.010000365 0
0.0043673911 -0.10056475 -0.0099996151 0
0.0044247108 -0.10060792 0.010000376 0
0.0075141718 -0.10059943 -0.0099996049 0
0.0075271069 -0.10061225 0.010000388 0
0.0097017651 -0.10059439 -0.0097468393 0
0.010000024 -0.10042312 -0.0076598814 0
0.010000011 -0.1003741 -0.0044206679 0
0.010000002 -0.10048906 -0.001477382 0
0.0099999914 -0.10020911 0.0013706349 0
0.0099999793 -0.10057317 0.0043496876 0
0.0099999672 -0.10039905 0.0076475884 0
0.0097561358 -0.10051145 0.0096691037 0
-0.009839409 -0.097572461 -0.0097671971 0
-0.00999997 -0.097400077 -0.0072304481 0
-0.0099999793 -0.097395547 -0.0044540688 0
-0.0099999895 -0.097527981 -0.0014746655 0
-0.010000002 -0.097512498 0.0016851805 0
-0.010000012 -0.097589016 0.0042463038 0
-0.010000023 -0.097386912 0.0075776856 0
-0.0098530231 -0.097271636 0.0096734939 0
-0.0073937359 -0.097550161 -0.0099996692 0
-0.0075134812 -0.097425088 0.01000032 0
-0.0047393916 -0.097583361 -0.0099996608 0
-0.0043660831 -0.09738107 0.010000333 0
-0.0013349385 -0.097472683 -0.0099996477 0
-0.0015429819 -0.097484857 0.010000343 0
0.0015512542 -0.097556159 -0.0099996375 0
0.0015252741 -0.097383648 0.010000354 0
0.0042850692 -0.097455062 -0.0099996263 0
0.0044959197 -0.097401865 0.010000364 0
0.0075232307 -0.0974482 -0.0099996151 0
0.007282597 -0.097526163 0.010000377 0
0.0098102977 -0.09736535 -0.0097237956 0
0.010000022 -0.097648986 -0.0073175458 0
0.010000012 -0.097620264 -0.0045288759 0
0.010000002 -0.097578287 -0.0014019003 0
0.0099999895 -0.097341783 0.0016643157 0
0.0099999784 -0.097776324 0.0045355973 0
0.0099999681 -0.097338393 0.0075443089 0
0.0097470377 -0.097393751 0.0098205116 0
-0.0096347081 -0.094361618 -0.0097508263 0
-0.009999969 -0.094366379 -0.0074756048 0
-0.0099999802 -0.094346873 -0.0044325157 0
-0.0099999886 -0.094385177 -0.0015504232 0
-0.010000001 -0.094481379 0.0015796032 0
-0.010000011 -0.094506577 0.004461376 0
-0.010000024 -0.094628915 0.007340163 0
-0.0098013589 -0.094430655 0.0097070849 0
-0.0075118318 -0.094619669 -0.0099996803 0
-0.0073159765 -0.094496079 0.01000031 0
-0.0045822239 -0.094558895 -0.0099996701 0
-0.0045766141 -0.094578847 0.010000321 0
-0.0015128307 -0.094469957 -0.0099996598 0
-0.0014957278 -0.094509602 0.010000331 0
0.0015419113 -0.094417512 -0.0099996468 0
0.0013527834 -0.094476223 0.010000343 0
0.0042799129 -0.094371989 -0.0099996384 0
0.0043541505 -0.094597183 0.010000354 0
0.007544423 -0.094316401 -0.0099996272 0
0.007538958 -0.09448377 0.010000366 0
0.009734055 -0.094487756 -0.0097985622 0
0.010000022 -0.094420351 -0.0075048334 0
0.010000012 -0.094472185 -0.0045161932 0
0.010000002 -0.094385989 -0.0015364657 0
0.0099999895 -0.09446393 0.0016311733 0
0.0099999802 -0.094414264 0.0044794967 0
0.00999997 -0.094395414 0.0072963727 0
0.0098391501 -0.094376735 0.0096993996 0
-0.0096950829 -0.091340236 -0.0098310253 0
-0.0099999681 -0.091434404 -0.0075312066 0
-0.0099999784 -0.091588564 -0.0045240419 0
-0.0099999914 -0.091571078 -0.0013399349 0
-0.010000002 -0.091469429 0.0015110776 0
-0.010000012 -0.091697522 0.004649872 0
-0.010000023 -0.091484852 0.0074158176 0
-0.0097852955 -0.091413505 0.009751373 0
-0.0074233459 -0.091549821 -0.0099996906 0
-0.0077329166 -0.091547921 0.0100003 0
-0.0044550081 -0.091479614 -0.0099996822 0
-0.0044566444 -0.091546409 0.010000311 0
-0.0014461521 -0.091564454 -0.0099996701 0
-0.0014483574 -0.09160611 0.010000321 0
0.0015498198 -0.091321535 -0.0099996598 0
0.001587732 -0.091600209 0.010000333 0
0.0045464803 -0.091517732 -0.0099996468 0
0.0045891111 -0.091575213 0.010000344 0
0.0077140545 -0.091475323 -0.0099996356 0
0.0074851704 -0.091651611 0.010000355 0
0.0097755697 -0.09147957 -0.0096701784 0
0.010000023 -0.091672406 -0.0076512438 0
0.010000012 -0.091434978 -0.0044790031 0
0.010000001 -0.091463044 -0.0013848477 0
0.0099999895 -0.091614939 0.0015570765 0
0.0099999784 -0.091321677 0.0045029647 0
0.0099999681 -0.091530167 0.0075010308 0
0.0097394055 -0.091489851 0.0096897138 0
-0.0097263101 -0.088738181 -0.0098296227 0
-0.0099999672 -0.088337056 -0.0077593834 0
-0.0099999784 -0.088598214 -0.0045859371 0
-0.0099999905 -0.088476621 -0.0013977047 0
-0.010000005 -0.088621005 0.001742119 0
-0.010000012 -0.088605814 0.0043183095 0
-0.010000023 -0.088414431 0.0073967511 0
-0.0098039415 -0.088275522 0.0097552212 0
-0.0075479592 -0.088597082 -0.0099997018 0
-0.0075290659 -0.088499397 0.010000289 0
-0.0045608087 -0.088325106 -0.0099996934 0
-0.0045479704 -0.088396519 0.010000299 0
-0.0015709937 -0.08838632 -0.0099996813 0
-0.0015498404 -0.088666499 0.010000311 0
0.0015340124 -0.08831615 -0.009999671 0
0.0015531139 -0.088435277 0.010000325 0
0.0044483235 -0.088395618 -0.0099996608 0
0.0043832967 -0.088470057 0.010000331 0
0.007424931 -0.088536486 -0.0099996487 0
0.0076727294 -0.08845894 0.010000344 0
0.009784583 -0.088414595 -0.0097495364 0
0.010000022 -0.088667229 -0.0075839865 0
0.010000012 -0.088493921 -0.0046701329 0
0.0099999998 -0.088743202 -0.0015676112 0
0.0099999905 -0.088625081 0.0015590372 0
0.0099999802 -0.088392742 0.0042656665 0
0.0099999681 -0.088578559 0.0073990771 0
0.0098429834 -0.088808231 0.0096046133 0
-0.009628512 -0.085494943 -0.0098282406 0
-0.00999997 -0.08552324 -0.0072394419 0
-0.0099999784 -0.085575931 -0.0045163226 0
-0.0099999914 -0.085652493 -0.0016380937 0
-0.010000003 -0.085701823 0.0017407923 0
-0.010000011 -0.085327089 0.0044275671 0
-0.010000022 -0.085508741 0.0075453711 0
-0.0097415792 -0.085677288 0.0097855041 0
-0.0075066909 -0.085349046 -0.0099997129 0
-0.007624418 -0.085686095 0.010000278 0
-0.0042927125 -0.085445769 -0.0099997018 0
-0.0044496837 -0.085558303 0.01000029 0
-0.001615572 -0.085677393 -0.0099996915 0
-0.0015488401 -0.085317679 0.010000299 0
0.001564763 -0.08557269 -0.0099996794 0
0.0017634255 -0.085519627 0.010000312 0
0.0047594346 -0.085471705 -0.009999671 0
0.0045134095 -0.085272565 0.01000032 0
0.0074791843 -0.085628942 -0.009999658 0
0.0076856809 -0.085541219 0.010000332 0
0.0097703822 -0.085643664 -0.0096874079 0
0.010000023 -0.085361823 -0.0074970326 0
0.010000014 -0.085573852 -0.0045487974 0
0.010000001 -0.085515186 -0.0015605675 0
0.0099999895 -0.085362084 0.0015101061 0
0.0099999812 -0.085462213 0.0044723153 0
0.009999969 -0.085424483 0.0074979174 0
0.0096946638 -0.085566022 0.0098518776 0
-0.0096686706 -0.082230322 -0.0097543895 0
-0.0099999681 -0.082487606 -0.0074856714 0
-0.0099999793 -0.082464285 -0.0045704963 0
-0.0099999914 -0.082334206 -0.0013467866 0
-0.010000001 -0.08253628 0.0016144558 0
-0.010000011 -0.082490705 0.0044545466 0
-0.010000024 -0.082500599 0.0074543627 0
-0.0097549921 -0.082434423 0.0098041371 0
-0.0075547071 -0.082437932 -0.0099997241 0
-0.0075988676 -0.082529731 0.010000267 0
-0.0042021433 -0.082467161 -0.0099997129 0
-0.0046765464 -0.082439736 0.010000278 0
-0.001375904 -0.082559526 -0.0099997018 0
-0.0015196941 -0.082448006 0.010000288 0
0.0014322881 -0.08248952 -0.0099996915 0
0.0016013137 -0.082507648 0.0100003 0
0.0042693792 -0.082434118 -0.0099996813 0
0.0045626843 -0.082517378 0.01000031 0
0.0074144797 -0.082401104 -0.009999671 0
0.0075320159 -0.082680702 0.010000321 0
0.0096518323 -0.082654789 -0.0097965915 0
0.010000022 -0.08256159 -0.0075725024 0
0.010000012 -0.082134269 -0.0043909699 0
0.0099999998 -0.082353361 -0.0013154463 0
0.0099999895 -0.082488902 0.0015528135 0
0.0099999793 -0.082575887 0.0043294039 0
0.0099999681 -0.082564875 0.00754843 0
0.0097089913 -0.082313307 0.0098012043 0
-0.0098204724 -0.079494752 -0.0097304797 0
-0.0099999681 -0.079531133 -0.0074610827 0
-0.0099999802 -0.07945691 -0.0044557322 0
-0.0099999886 -0.079412512 -0.0016809261 0
-0.010000001 -0.079506271 0.0014639089 0
-0.010000012 -0.079421543 0.0042948318 0
-0.010000024 -0.079470895 0.0074411607 0
-0.0097668869 -0.079448767 0.0097932816 0
-0.0074425079 -0.079674415 -0.0099997334 0
-0.0077025527 -0.079183623 0.010000254 0
-0.0044637276 -0.079403587 -0.0099997241 0
-0.0047717318 -0.079520345 0.010000266 0
-0.0014412595 -0.079342693 -0.0099997139 0
-0.0017077764 -0.079674192 0.010000278 0
0.0014050953 -0.079510458 -0.0099997027 0
0.0013736588 -0.079318255 0.010000288 0
0.0045827976 -0.07947994 -0.0099996915 0
0.0043661264 -0.079613164 0.0100003 0
0.007475913 -0.079604194 -0.0099996813 0
0.0073288199 -0.079421259 0.01000031 0
0.0097592259 -0.079505615 -0.0097063594 0
0.010000025 -0.079169221 -0.0076499921 0
0.010000014 -0.079450771 -0.0045255921 0
0.010000003 -0.079733208 -0.0016656908 0
0.0099999905 -0.079454154 0.0016224894 0
0.0099999784 -0.079472072 0.0045150961 0
0.009999969 -0.079441845 0.0074859732 0
0.0097800847 -0.079614267 0.0097336359 0
-0.0097446842 -0.076489925 -0.0097350841 0
-0.009999969 -0.076523721 -0.0075236037 0
-0.0099999802 -0.076659881 -0.0043296297 0
-0.0099999895 -0.076629698 -0.0014968112 0
-0.010000001 -0.076571196 0.001555 0
-0.010000014 -0.07669352 0.0045452742 0
-0.010000022 -0.07648617 0.0075595635 0
-0.0097348243 -0.076512858 0.0097114863 0
-0.0074731437 -0.076577745 -0.0099997446 0
-0.0074799405 -0.076652475 0.010000247 0
-0.0045748218 -0.076368801 -0.009999739 0
-0.0047963182 -0.076727852 0.010000256 0
-0.0014700227 -0.076479569 -0.0099997241 0
-0.0014536991 -0.076452576 0.010000266 0
0.0015941138 -0.076524951 -0.0099997139 0
0.001469485 -0.076501049 0.010000278 0
0.0043261643 -0.076566778 -0.0099997018 0
0.0043769134 -0.076624312 0.010000289 0
0.0076185241 -0.076637812 -0.0099996896 0
0.0075672059 -0.076437414 0.0100003 0
0.0098520834 -0.076667368 -0.0096915849 0
0.010000023 -0.076360337 -0.0074972403 0
0.010000012 -0.076257855 -0.0044531412 0
0.010000003 -0.076709457 -0.0017494676 0
0.0099999895 -0.076618597 0.0016410371 0
0.0099999802 -0.07663925 0.0044844081 0
0.0099999672 -0.076429464 0.0075174943 0
0.009767944 -0.076464288 0.0097956844 0
-0.0097782193 -0.073698066 -0.0097268401 0
-0.009999969 -0.073479794 -0.0073773651 0
-0.0099999793 -0.073534109 -0.0043021897 0
-0.0099999895 -0.073501736 -0.001709967 0
-0.010000002 -0.073518045 0.0015017701 0
-0.010000013 -0.073536813 0.0045472421 0
-0.010000024 -0.073525682 0.0074479124 0
-0.00976732 -0.073350444 0.009731018 0
-0.0075619533 -0.073477216 -0.0099997567 0
-0.0074633518 -0.073662311 0.010000234 0
-0.0044204001 -0.073570512 -0.0099997446 0
-0.0044437628 -0.073539674 0.010000248 0
-0.0016165813 -0.073602132 -0.0099997343 0
-0.0015824969 -0.073577173 0.010000257 0
0.0014743075 -0.073367 -0.009999725 0
0.0013921631 -0.073391408 0.010000265 0
0.0043445146 -0.073708974 -0.0099997129 0
0.0044563576 -0.073366404 0.010000276 0
0.0076500163 -0.073590957 -0.0099997008 0
0.0074360967 -0.073550366 0.010000288 0
0.009675744 -0.073458791 -0.0097381584 0
0.010000022 -0.07351733 -0.0075870357 0
0.010000013 -0.073586613 -0.0043533589 0
0.010000001 -0.07342609 -0.0012994565 0
0.0099999895 -0.073577307 0.0015594794 0
0.0099999793 -0.073501773 0.0043604504 0
0.0099999672 -0.073386237 0.0076005724 0
0.0097408127 -0.073512629 0.0097889956 0
-0.009716088 -0.070427321 -0.0096902139 0
-0.0099999662 -0.070659354 -0.0076748868 0
-0.0099999793 -0.070523031 -0.0043801586 0
-0.0099999914 -0.070650123 -0.001312794 0
-0.010000001 -0.070465304 0.0014430602 0
-0.01000001 -0.070549496 0.0045178854 0
-0.010000025 -0.07048545 0.0078705708 0
-0.0096337795 -0.070213757 0.0098307999 0
-0.0074323071 -0.070465527 -0.0099997679 0
-0.0075473445 -0.070483223 0.010000223 0
-0.0043327715 -0.070677102 -0.0099997567 0
-0.0046279924 -0.070445523 0.010000234 0
-0.0016128623 -0.070431873 -0.0099997455 0
-0.0015178099 -0.07062117 0.010000246 0
0.0014669972 -0.07065884 -0.0099997343 0
0.0015581495 -0.070347592 0.010000256 0
0.0045111664 -0.070435762 -0.0099997232 0
0.0043842015 -0.070399031 0.010000266 0
0.0075655105 -0.070749141 -0.0099997139 0
0.0073930728 -0.070322216 0.010000277 0
0.0098071136 -0.070409477 -0.0097365314 0
0.010000022 -0.070433944 -0.007557448 0
0.010000013 -0.070318654 -0.0045154332 0
0.010000003 -0.070558354 -0.0015013812 0
0.0099999914 -0.070635386 0.0012799863 0
0.0099999802 -0.070175119 0.0044282512 0
0.0099999681 -0.070366286 0.0074772239 0
0.0097544827 -0.070300005 0.0097377999 0
-0.0097800028 -0.067564309 -0.0097218687 0
-0.009999969 -0.067352109 -0.0074953535 0
-0.0099999784 -0.067423366 -0.0045842323 0
-0.0099999905 -0.067440227 -0.0012527944 0
-0.0099999998 -0.067602739 0.0012707782 0
-0.010000012 -0.067697242 0.0043975674 0
-0.010000023 -0.067443877 0.0076040509 0
-0.0097568408 -0.06755311 0.0097374991 0
-0.0076026353 -0.067452557 -0.0099997809 0
-0.0074600102 -0.067437686 0.010000212 0
-0.0043432461 -0.067415178 -0.0099997688 0
-0.0045256661 -0.067459874 0.010000222 0
-0.0015131308 -0.067607641 -0.0099997558 0
-0.0016245366 -0.067576237 0.010000234 0
0.0015367817 -0.067305356 -0.0099997474 0
0.0015512308 -0.067543738 0.010000247 0
0.0045155417 -0.067508586 -0.0099997343 0
0.0044812914 -0.067602068 0.010000256 0
0.0076460484 -0.067513093 -0.009999725 0
0.007423447 -0.067507155 0.010000265 0
0.0098238969 -0.067610219 -0.0097571937 0
0.010000022 -0.067488536 -0.0073507992 0
0.010000012 -0.067565873 -0.0042645475 0
0.010000001 -0.067663193 -0.0014037128 0
0.0099999895 -0.06744536 0.0015170082 0
0.0099999802 -0.067661084 0.0043598167 0
0.009999969 -0.067410052 0.007296877 0
0.0097693456 -0.067750767 0.0097069982 0
-0.0096298736 -0.06441249 -0.0097992998 0
-0.0099999672 -0.064684428 -0.0075922799 0
-0.0099999793 -0.064453833 -0.0043751583 0
-0.0099999914 -0.064638793 -0.0014136903 0
-0.010000002 -0.064473957 0.0015049309 0
-0.010000011 -0.064561322 0.0044093896 0
-0.010000024 -0.064564854 0.0075748144 0
-0.0097196465 -0.064545475 0.0097614247 0
-0.0075609535 -0.064575002 -0.0099997884 0
-0.0075256126 -0.064459614 0.010000202 0
-0.0043649818 -0.064791702 -0.0099997772 0
-0.00427838 -0.064406425 0.010000214 0
-0.001440606 -0.064694539 -0.0099997688 0
-0.0015471725 -0.064437814 0.010000223 0
0.0015125074 -0.064486615 -0.0099997558 0
0.0015874903 -0.064562537 0.010000235 0
0.0042741746 -0.064548813 -0.0099997455 0
0.004546958 -0.064537652 0.010000248 0
0.0074641122 -0.064530045 -0.0099997362 0
0.0073010754 -0.06443119 0.010000255 0
0.0097094569 -0.064498253 -0.0098219058 0
0.010000023 -0.064406902 -0.0074431426 0
0.010000014 -0.064573191 -0.0045815962 0
0.010000001 -0.064623386 -0.0016275512 0
0.0099999895 -0.064299867 0.0015781873 0
0.0099999784 -0.064473584 0.0043506469 0
0.0099999681 -0.064654276 0.0073673921 0
0.0096780183 -0.064411134 0.0097874654 0
-0.0097864987 -0.061612628 -0.0097302366 0
-0.00999997 -0.06139908 -0.0073875901 0
-0.0099999802 -0.06144388 -0.0044936636 0
-0.0099999905 -0.06143494 -0.0015994885 0
-0.010000002 -0.061417535 0.0018272228 0
-0.010000012 -0.061259553 0.0043489411 0
-0.010000024 -0.061451606 0.0076072994 0
-0.0097541343 -0.061666999 0.0097270934 0
-0.0074646743 -0.061350957 -0.0099998014 0
-0.0076695052 -0.0615815 0.01000019 0
-0.0044988492 -0.061503422 -0.0099997884 0
-0.0045778942 -0.061532654 0.010000201 0
-0.0015959216 -0.061497927 -0.0099997791 0
-0.0014957546 -0.061575029 0.010000212 0
0.0016256159 -0.061382972 -0.0099997679 0
0.0015041234 -0.061355598 0.010000223 0
0.0044786949 -0.061243065 -0.0099997586 0
0.0043786601 -0.06165034 0.010000235 0
0.007341641 -0.061481755 -0.0099997455 0
0.0073822332 -0.061471697 0.010000245 0
0.0096412897 -0.061638389 -0.0098185986 0
0.010000023 -0.061660819 -0.0075403056 0
0.010000013 -0.061547179 -0.0045959 0
0.010000002 -0.061597396 -0.0015760134 0
0.0099999905 -0.061463337 0.0013435243 0
0.0099999793 -0.061335437 0.0046112644 0
0.0099999681 -0.061573565 0.0075813662 0
0.0097092679 -0.061865631 0.0097968969 0
-0.0097508617 -0.058311254 -0.0097367009 0
-0.009999969 -0.058438167 -0.0073396 0
-0.0099999802 -0.058445919 -0.0042951196 0
-0.0099999905 -0.058502994 -0.0014923951 0
-0.010000001 -0.05850818 0.0015242185 0
-0.010000013 -0.058582358 0.0046257917 0
-0.010000022 -0.058488667 0.0075054169 0
-0.0097646294 -0.05858076 0.0097628301 0
-0.0075313831 -0.058390561 -0.0099998116 0
-0.0074411184 -0.058515679 0.01000018 0
-0.0046275179 -0.058619916 -0.0099998005 0
-0.0046557994 -0.058606025 0.010000191 0
-0.0014971311 -0.05846025 -0.0099997902 0
-0.0013953578 -0.058483768 0.010000203 0
0.0013916503 -0.058389526 -0.0099997809 0
0.0014357804 -0.05842546 0.010000213 0
0.0045001665 -0.058523417 -0.0099997697 0
0.0044229487 -0.0583735 0.010000222 0
0.0074195527 -0.058552369 -0.0099997558 0
0.0075009251 -0.058372077 0.010000234 0
0.0097564487 -0.058507379 -0.0097742202 0
0.010000024 -0.058511559 -0.007734186 0
0.010000014 -0.058495231 -0.0045302408 0
0.010000001 -0.05867466 -0.0013853281 0
0.0099999905 -0.058649432 0.0016247345 0
0.0099999802 -0.05856045 0.004564784 0
0.0099999709 -0.05866887 0.0074609714 0
0.0097413706 -0.058432128 0.0098274769 0
-0.0097999815 -0.055264592 -0.0096619129 0
-0.0099999681 -0.055479657 -0.0073660738 0
-0.0099999784 -0.055668142 -0.004398983 0
-0.0099999905 -0.055514224 -0.0016095779 0
-0.010000001 -0.055439524 0.0014444247 0
-0.010000012 -0.055427358 0.0045224661 0
-0.010000022 -0.055250473 0.0075479327 0
-0.0097261602 -0.055288993 0.0097856363 0
-0.0073277424 -0.055533804 -0.00999982 0
-0.0073834471 -0.055358935 0.010000169 0
-0.0043580141 -0.055379033 -0.0099998116 0
-0.0045395391 -0.055517625 0.01000018 0
-0.0015249685 -0.055569801 -0.0099997995 0
-0.0014688525 -0.055405669 0.010000192 0
0.0014886474 -0.055591308 -0.0099997893 0
0.001629883 -0.055453062 0.010000203 0
0.0044117523 -0.055249341 -0.0099997809 0
0.0042836843 -0.055677433 0.010000213 0
0.0074289725 -0.055599317 -0.0099997669 0
0.0074359793 -0.055632707 0.010000224 0
0.0097919563 -0.055349022 -0.0097451853 0
0.010000022 -0.055465184 -0.0073946449 0
0.010000012 -0.055243853 -0.0045090341 0
0.0099999998 -0.055571839 -0.0014099833 0
0.0099999914 -0.055535078 0.0013862372 0
0.0099999802 -0.055591557 0.004590061 0
0.009999969 -0.055425096 0.0075070141 0
0.0096876547 -0.055327918 0.0098086046 0
-0.0097858701 -0.0524089 -0.0097160228 0
-0.009999969 -0.052621186 -0.0073466385 0
-0.0099999802 -0.052320749 -0.0046664476 0
-0.0099999895 -0.052447468 -0.0016388729 0
-0.010000002 -0.052529603 0.0014287791 0
-0.010000012 -0.052455567 0.0045888154 0
-0.010000022 -0.052755784 0.00755972 0
-0.009691217 -0.052362323 0.0097829308 0
-0.0076556406 -0.052378926 -0.0099998331 0
-0.0075220214 -0.05241343 0.010000158 0
-0.004418415 -0.052687112 -0.0099998219 0
-0.0044234744 -0.052485205 0.01000017 0
-0.0014822478 -0.052635174 -0.0099998098 0
-0.0017159708 -0.052410107 0.01000018 0
0.001489218 -0.052413002 -0.0099998005 0
0.0013722565 -0.052504998 0.010000191 0
0.004570845 -0.052510183 -0.0099997912 0
0.0045946487 -0.052297767 0.010000202 0
0.0075263409 -0.052580927 -0.00999978 0
0.0075746705 -0.052565578 0.010000212 0
0.009810403 -0.052516442 -0.0096774045 0
0.010000022 -0.052414391 -0.0073993034 0
0.010000012 -0.052694164 -0.0044642924 0
0.0099999998 -0.052456535 -0.0014693554 0
0.0099999886 -0.052459046 0.0015690856 0
0.0099999802 -0.052470803 0.0043977126 0
0.0099999681 -0.05247353 0.007619204 0
0.0097753787 -0.052672867 0.0097299423 0
-0.0097128451 -0.049357619 -0.0098172929 0
-0.00999997 -0.049479734 -0.0072750137 0
-0.0099999793 -0.049468327 -0.0046823835 0
-0.0099999905 -0.049373955 -0.0015585868 0
-0.010000002 -0.049278121 0.0014725209 0
-0.010000014 -0.049582314 0.0047058584 0
-0.010000022 -0.04954119 0.0075632045 0
-0.0097910576 -0.049543515 0.0097315898 0
-0.007409906 -0.049690977 -0.0099998433 0
-0.0074729677 -0.04955253 0.010000148 0
-0.0045261295 -0.049495757 -0.0099998331 0
-0.0045630643 -0.049632885 0.010000158 0
-0.0014362738 -0.049285356 -0.0099998228 0
-0.0014618544 -0.049567167 0.01000017 0
0.001631627 -0.04948533 -0.0099998107 0
0.0014491717 -0.049249351 0.01000018 0
0.0045481436 -0.049330581 -0.0099998014 0
0.0043927222 -0.049606655 0.010000192 0
0.007705213 -0.049478732 -0.0099997902 0
0.0077953637 -0.049455639 0.010000203 0
0.0096659837 -0.049182482 -0.0097703869 0
0.010000022 -0.049376532 -0.0074940892 0
0.010000011 -0.049526852 -0.0044957856 0
0.0099999998 -0.049566496 -0.0012741673 0
0.0099999895 -0.049382556 0.0015138531 0
0.0099999812 -0.049542092 0.0044465535 0
0.009999969 -0.049423497 0.0074374443 0
0.0097386269 -0.049543895 0.0097477641 0
-0.0098175891 -0.046427533 -0.0096117286 0
-0.009999969 -0.04638882 -0.0074621327 0
-0.0099999793 -0.046440169 -0.0046323584 0
-0.0099999905 -0.046587605 -0.0016405197 0
-0.010000002 -0.046489842 0.001544012 0
-0.010000011 -0.046791017 0.0043338728 0
-0.010000022 -0.046568219 0.0074033691 0
-0.0097038262 -0.04646112 0.0097617228 0
-0.007466726 -0.046422247 -0.0099998554 0
-0.0074159685 -0.046543274 0.010000137 0
-0.0045027672 -0.046605095 -0.0099998452 0
-0.0046357187 -0.046529025 0.010000148 0
-0.0015654636 -0.046230536 -0.0099998331 0
-0.0014598911 -0.046407711 0.010000157 0
0.001524481 -0.046494145 -0.009999821 0
0.0015126115 -0.046603519 0.010000169 0
0.0044254102 -0.046376839 -0.0099998116 0
0.0044305967 -0.046557523 0.01000018 0
0.0074566104 -0.046434231 -0.0099998005 0
0.0074811829 -0.046273258 0.01000019 0
0.0097051654 -0.046551593 -0.0097854575 0
0.010000022 -0.046556089 -0.0073916921 0
0.010000011 -0.046579633 -0.0043659443 0
0.0099999998 -0.046449725 -0.0013677696 0
0.0099999923 -0.046522092 0.0013185689 0
0.0099999784 -0.04657314 0.004513755 0
0.0099999681 -0.046429042 0.0074696941 0
0.0096837906 -0.046426769 0.0098332139 0
-0.0096640056 -0.043590315 -0.0098595042 0
-0.0099999681 -0.043571472 -0.0075274841 0
-0.0099999802 -0.043646745 -0.0043278551 0
-0.0099999923 -0.04358824 -0.001244326 0
-0.010000001 -0.043585334 0.0013958504 0
-0.010000011 -0.043569487 0.0044712885 0
-0.010000023 -0.043631464 0.0074143936 0
-0.0098163458 -0.043564461 0.0097013852 0
-0.0074930592 -0.043563738 -0.0099998657 0
-0.0074031451 -0.043635126 0.010000127 0
-0.0046153069 -0.043751352 -0.0099998545 0
-0.0045445934 -0.043468054 0.010000138 0
-0.001592706 -0.043503694 -0.0099998433 0
-0.0015039659 -0.043680895 0.01000015 0
0.0014622832 -0.043776028 -0.0099998312 0
0.0014707071 -0.04360323 0.010000158 0
0.004685197 -0.043406758 -0.009999821 0
0.0044422038 -0.043731309 0.01000017 0
0.007444852 -0.043452844 -0.0099998116 0
0.0074407323 -0.043562405 0.01000018 0
0.0098269721 -0.043609269 -0.0096881129 0
0.010000023 -0.043717314 -0.0075625982 0
0.010000012 -0.043447208 -0.0045052865 0
0.010000002 -0.043478295 -0.0014325251 0
0.0099999895 -0.043381669 0.0017076299 0
0.0099999793 -0.043569334 0.0044288919 0
0.0099999681 -0.043631706 0.0076168198 0
0.0098348912 -0.043595195 0.0096394653 0
-0.009707435 -0.040437747 -0.0098250052 0
-0.009999969 -0.040526722 -0.0074414918 0
-0.0099999784 -0.040397257 -0.0047066626 0
-0.0099999905 -0.040527757 -0.0015528518 0
-0.010000002 -0.040625285 0.001581516 0
-0.010000011 -0.040583804 0.0044206302 0
-0.010000022 -0.040646512 0.0074242456 0
-0.0096264919 -0.040708251 0.0097893095 0
-0.0074831038 -0.040450465 -0.0099998778 0
-0.0073593841 -0.040596526 0.010000116 0
-0.0046443832 -0.040406365 -0.0099998666 0
-0.004656381 -0.040337507 0.010000126 0
-0.0013756037 -0.040685315 -0.0099998554 0
-0.0014133708 -0.040375941 0.010000138 0
0.001650163 -0.040610865 -0.0099998424 0
0.0012331279 -0.040466897 0.010000147 0
0.0044906363 -0.040574461 -0.0099998331 0
0.0045620347 -0.040593863 0.01000016 0
0.0074436665 -0.040536601 -0.0099998219 0
0.0075601083 -0.040562164 0.01000017 0
0.009741378 -0.040443871 -0.0097334851 0
0.010000023 -0.040359892 -0.0076374365 0
0.010000014 -0.040214092 -0.0045971097 0
0.010000001 -0.040481832 -0.0014488212 0
0.0099999914 -0.040455952 0.0013370475 0
0.0099999812 -0.040300943 0.004324771 0
0.009999969 -0.040507689 0.0075395536 0
0.0098514827 -0.040352035 0.0097096227 0
-0.009722176 -0.037363816 -0.0098009845 0
-0.0099999681 -0.037538078 -0.0075744181 0
-0.0099999812 -0.037517115 -0.0044939518 0
-0.0099999905 -0.037481468 -0.0016991126 0
-0.0099999998 -0.037560306 0.0014150263 0
-0.010000012 -0.037752006 0.0045469445 0
-0.010000023 -0.037696835 0.0074489927 0
-0.0097869551 -0.037643779 0.0096839461 0
-0.0076344707 -0.037528533 -0.0099998871 0
-0.0075332993 -0.037360407 0.010000104 0
-0.0045333873 -0.037523668 -0.0099998759 0
-0.0045960555 -0.037622493 0.010000114 0
-0.0016741896 -0.037367217 -0.0099998666 0
-0.0013877031 -0.037505653 0.010000128 0
0.0016696972 -0.037630182 -0.0099998545 0
0.0014177819 -0.0376545 0.010000137 0
0.0044918945 -0.037382845 -0.0099998452 0
0.0046555786 -0.037654646 0.010000148 0
0.0076731397 -0.037767474 -0.0099998321 0
0.0075550159 -0.037348852 0.010000157 0
0.0097368723 -0.037504375 -0.0097536659 0
0.010000023 -0.037541721 -0.0075937305 0
0.010000011 -0.037277255 -0.0042642448 0
0.010000001 -0.037393209 -0.0014440787 0
0.0099999895 -0.037672192 0.001539694 0
0.0099999793 -0.037412383 0.0044855159 0
0.009999969 -0.037579719 0.0074612461 0
0.0097698495 -0.037433628 0.0097087324 0
-0.0098207546 -0.034508631 -0.0096854046 0
-0.009999969 -0.034719318 -0.0076290746 0
-0.0099999802 -0.03452896 -0.0044189352 0
-0.0099999914 -0.034651611 -0.0012493856 0
-0.010000001 -0.034385968 0.0013666531 0
-0.010000013 -0.034568932 0.0045115617 0
-0.010000022 -0.034406226 0.0073998272 0
-0.0097206999 -0.034483571 0.0097589958 0
-0.0076505421 -0.034320045 -0.0099999011 0
-0.0075749266 -0.034539253 0.010000093 0
-0.0046913731 -0.034402408 -0.0099998871 0
-0.0045211921 -0.03456068 0.010000103 0
-0.0014402361 -0.03433485 -0.0099998768 0
-0.0015882958 -0.034556076 0.010000115 0
0.0013230506 -0.034471992 -0.0099998666 0
0.0014850246 -0.034529109 0.010000127 0
0.0044559515 -0.034789372 -0.0099998526 0
0.0045797299 -0.034401849 0.010000138 0
0.0075604906 -0.034491803 -0.0099998452 0
0.0075805541 -0.034391053 0.010000147 0
0.0097049698 -0.034532253 -0.0097755892 0
0.010000024 -0.034565911 -0.0073374575 0
0.010000012 -0.034498148 -0.0044185654 0
0.010000001 -0.034579985 -0.0014917081 0
0.0099999895 -0.03459844 0.0014686028 0
0.0099999784 -0.034697335 0.0047093318 0
